ply
format ascii 1.0
element vertex 782
property float x
property float y
property float z
property float nx
property float ny
property float nz
property uchar diffuse_red
property uchar diffuse_green
property uchar diffuse_blue
end_header
-1925.0009 5228.6865 48.0562 0.358 -0.934 0.001 251 221 218
-1917.1339 5232.5596 40.9073 0.287 -0.904 0.318 252 222 219
-1880.9142 5152.0103 32.8987 0.339 -0.940 -0.044 251 220 217
-1807.9664 5013.1172 10.8615 0.257 -0.881 -0.398 253 219 219
-1789.9613 4984.9629 3.8710 0.296 -0.851 -0.435 247 210 219
-1770.1613 4950.9951 -3.0551 0.232 -0.764 -0.602 250 216 225
-1761.9674 4952.2744 -9.8037 0.177 -0.886 -0.430 253 226 233
-1744.6052 4925.2275 -16.5705 0.203 -0.892 -0.404 252 233 240
-1748.4172 4963.5596 -23.2853 0.255 -0.887 -0.386 255 244 248
-1761.4465 5865.6411 -241.4321 0.942 0.048 0.332 255 253 250
-1735.2340 6213.8765 -350.1415 0.083 -0.854 -0.513 120 65 57
-1726.6086 6219.6567 -358.3678 0.083 -0.854 -0.513 118 63 55
-1716.4603 6219.4468 -366.2719 0.066 -0.849 -0.525 116 62 51
-1712.2467 6242.7275 -375.4695 0.768 -0.578 -0.275 116 63 49
-1698.7010 6269.4365 -392.8519 0.087 -0.898 -0.432 115 66 43
-1685.1373 6255.4946 -399.9578 0.091 -0.900 -0.427 119 65 44
-1674.1541 6251.8188 -407.6392 0.802 -0.340 0.492 120 60 40
-1668.1344 6268.3716 -416.5496 0.937 -0.188 0.293 120 51 34
-1649.9170 6318.3145 -443.4769 0.959 -0.217 0.184 134 54 41
-277.5135 3601.8901 -831.9086 -0.223 -0.964 -0.146 253 93 123
-161.9444 2853.4250 -733.0511 -0.471 -0.873 0.124 253 85 112
-3749.1792 3546.4250 1891.3905 0.635 -0.746 0.198 41 36 25
-3182.5605 3100.5264 1561.6909 0.999 -0.040 0.007 138 45 40
-3559.0659 3570.6775 1736.3507 0.542 -0.266 -0.797 211 175 157
-4905.2207 5326.0747 2341.8149 0.834 -0.214 0.509 194 172 151
-4402.4688 4947.1421 2045.0095 0.800 -0.597 -0.057 161 135 112
-4099.7124 4916.4170 1815.8246 0.239 -0.619 0.748 195 168 149
-3730.5457 4669.1729 1589.9622 0.536 -0.769 -0.349 158 121 95
-3640.3403 4639.4741 1526.9260 -0.066 -0.973 0.223 175 136 105
-3886.6831 5312.9438 1547.7349 0.382 -0.266 0.885 166 125 95
-3930.6431 5412.6035 1556.6909 0.487 -0.702 0.520 161 121 95
-3925.8118 5423.8613 1550.0322 0.599 -0.658 0.456 163 123 97
-3901.1260 5406.1724 1535.2242 0.530 -0.735 0.422 163 123 97
-3880.4888 5394.2666 1522.1089 0.531 -0.719 0.449 171 131 105
-3895.2429 5471.3174 1513.9751 0.528 -0.076 0.846 124 84 58
-3780.2981 5486.3462 1420.1427 0.269 -0.234 0.934 156 114 89
-3608.3596 5604.4717 1255.3497 0.890 -0.315 0.331 129 93 69
-3387.4519 5724.9072 1051.6276 0.118 -0.647 -0.753 173 132 114
-3268.8042 5860.1602 924.1813 0.950 -0.194 0.246 142 107 93
-3239.1355 5826.5151 909.5485 0.847 -0.338 0.410 130 95 80
-3062.8298 5688.8623 806.6827 0.386 -0.403 0.830 55 32 23
-2507.3118 6202.9780 240.4094 -0.413 -0.827 0.382 74 55 41
-2481.4424 6164.1240 230.0821 0.228 -0.649 -0.726 70 51 37
-2282.5825 5947.9834 129.6103 0.183 -0.529 0.828 55 31 23
-1933.3007 5204.0718 46.2046 0.205 -0.933 0.295 215 184 181
-1821.4893 5058.8062 -4.2224 0.183 -0.944 0.275 251 214 223
-1777.5494 4978.3242 -18.0624 0.177 -0.879 -0.443 255 228 235
-1768.4569 4976.9761 -24.8366 0.193 -0.866 -0.461 254 235 241
-1761.1848 6203.7803 -343.9543 0.137 -0.882 0.451 156 107 94
-1744.9354 6219.2197 -360.6207 0.083 -0.854 -0.513 154 106 94
-1726.2761 6225.3638 -376.7992 0.786 -0.572 -0.233 157 109 95
-1717.5170 6230.6606 -385.0102 0.785 -0.560 -0.263 151 106 90
-1558.5853 6322.2256 -532.8342 0.338 -0.615 0.712 184 64 65
-563.3361 4956.5005 -963.1203 0.531 -0.600 -0.599 252 39 83
-281.5571 3601.3572 -837.5189 -0.197 -0.864 -0.462 246 83 114
-276.7216 3602.4255 -841.5776 -0.197 -0.864 -0.462 250 77 116
-171.1219 2955.3020 -758.9266 -0.385 -0.899 0.210 254 82 110
-3712.8359 3501.4382 1861.7136 0.410 -0.431 0.804 40 36 24
-3205.9258 3080.5220 1573.9547 0.895 -0.229 -0.382 95 26 14
-3188.9150 3099.7583 1555.6974 0.970 -0.052 0.235 140 47 42
-4964.2358 5173.6743 2408.8726 0.659 -0.752 -0.029 204 197 181
-4738.9736 4957.1177 2288.6052 0.840 -0.512 -0.179 204 197 181
-4382.9043 4911.8071 2021.9312 0.762 -0.648 0.014 166 140 117
-3927.4089 5393.2183 1541.7375 0.558 -0.676 0.482 150 110 84
-3931.8499 5417.8643 1538.8552 0.575 -0.678 0.458 148 108 82
-3886.7625 5388.7007 1511.1270 0.552 -0.700 0.453 145 105 79
-3803.9006 5431.7153 1435.2605 0.568 -0.062 0.821 126 89 63
-3663.1814 5538.3120 1297.7723 0.383 -0.074 0.921 131 91 65
-3611.4224 5593.2471 1243.1472 0.893 -0.313 0.324 159 123 99
-3398.9619 5728.0044 1042.3156 0.188 -0.596 -0.780 179 141 122
-3248.7683 5759.1782 916.8655 0.755 -0.165 0.635 167 126 112
-2798.8010 5730.5825 572.4778 0.940 0.075 0.332 50 34 18
-2284.9883 5901.2871 126.7979 0.144 -0.455 0.879 36 18 8
-1918.0865 5137.9639 36.7655 -0.074 -0.992 -0.105 220 186 184
-1869.8507 5049.4019 21.8894 0.380 -0.912 0.156 255 224 222
-1835.9995 5080.7217 -12.6482 -0.529 -0.763 -0.372 252 213 223
-1729.7974 5833.3218 -289.6982 0.943 0.176 -0.282 240 217 220
-1784.9368 6147.3779 -327.5596 0.960 -0.051 -0.275 169 126 127
-1767.9408 6159.3628 -343.9360 0.163 -0.920 -0.357 172 126 114
-1752.8767 6178.8237 -360.7295 -0.468 -0.865 -0.183 178 134 119
-1746.0303 6191.2939 -369.2966 0.168 -0.908 -0.384 168 124 111
-1737.2535 6196.3750 -377.4677 0.168 -0.908 -0.384 139 96 82
-1726.6172 6194.2046 -385.2231 0.768 -0.556 -0.317 145 103 87
-1720.3328 6209.0439 -393.9615 0.848 -0.412 -0.333 167 127 111
-1668.1437 6241.7949 -443.2037 0.963 -0.196 0.187 202 144 137
-1630.3173 6293.3057 -486.0543 0.749 -0.409 0.521 199 140 134
-1619.8732 6291.6245 -493.7856 0.780 -0.365 0.508 205 139 135
-1610.5258 6294.5449 -501.8457 0.837 -0.364 0.409 211 138 136
-1602.5519 6303.3486 -510.3489 0.837 -0.364 0.409 216 136 136
-1564.7463 6313.0435 -542.4026 0.365 -0.597 0.715 232 132 127
-1089.8346 5265.4268 -643.5779 0.298 -0.169 -0.939 233 153 144
-1105.4960 5535.8335 -701.0480 -0.424 -0.867 0.262 227 145 131
-559.3292 4924.9946 -970.5318 0.392 -0.295 -0.872 253 32 81
-416.2821 4021.7710 -849.4991 0.738 -0.090 -0.669 251 23 74
-291.2188 3615.2954 -842.4738 -0.186 -0.861 -0.474 247 104 120
-89.5183 953.9315 -314.0290 -0.100 -0.301 -0.948 232 25 45
-3707.3948 3487.7358 1848.3164 0.419 -0.409 0.811 42 36 24
-3222.7036 3072.1646 1578.0865 0.215 -0.937 -0.276 86 30 17
-3253.0039 3121.9038 1588.7991 0.941 -0.296 -0.165 95 26 14
-3194.1465 3097.8079 1549.1250 0.970 -0.048 0.237 140 46 43
-3666.5369 3690.4368 1763.6938 0.877 -0.157 -0.454 206 187 168
-4777.5562 4972.6118 2297.3809 0.870 -0.485 -0.089 196 190 176
-4428.9521 5015.4229 2014.1342 0.412 -0.384 0.827 170 144 121
-4377.9482 5000.9473 1978.0875 0.413 -0.218 0.884 183 157 134
-3859.5212 4783.9419 1629.8702 0.793 -0.559 0.244 168 128 102
-3852.7451 4790.5005 1622.8750 0.793 -0.559 0.244 161 124 98
-3915.2808 5379.1548 1518.5575 0.602 -0.578 0.551 184 144 118
-3885.9888 5354.7700 1502.0364 0.630 -0.571 0.526 182 142 116
-3587.4365 5557.8271 1216.1726 0.685 -0.616 0.390 183 147 123
-3356.0159 5370.1846 1084.3456 -0.178 -0.881 0.439 198 163 144
-3329.2996 5344.4238 1070.1930 -0.257 -0.845 0.468 199 164 145
-3169.6794 5747.3398 840.7849 0.213 -0.507 0.835 124 96 84
-3001.1965 5620.3403 742.3094 0.361 -0.597 0.716 68 55 47
-2896.6411 6050.0171 548.9218 0.981 -0.136 0.139 142 95 89
-1743.3710 5016.2153 -82.3561 -0.331 -0.806 0.491 254 250 251
-1737.6794 5904.4058 -317.8500 0.956 0.127 -0.264 172 139 142
-1778.6200 6168.3174 -354.5463 0.154 -0.929 -0.338 146 107 94
-1773.0035 6185.3232 -363.3542 -0.182 -0.915 0.359 145 107 90
-1755.2485 6194.7769 -379.6725 0.801 -0.559 -0.214 94 56 40
-1747.7026 6204.6470 -388.1302 0.846 -0.504 -0.173 89 50 37
-1737.5634 6204.5127 -396.0096 0.833 -0.430 -0.349 125 87 74
-1727.8939 6206.1562 -403.9848 0.848 -0.409 -0.337 178 140 126
-1725.5118 6236.4175 -413.7163 0.847 -0.436 -0.304 203 167 157
-1729.6499 6292.7998 -425.1534 0.049 -0.916 -0.398 204 165 156
-1490.4480 6299.1211 -613.5116 -0.284 -0.735 0.616 236 169 156
-566.5867 4941.7598 -981.5499 0.378 -0.293 -0.878 253 32 81
-294.0305 3792.5095 -895.3362 0.431 -0.901 0.053 248 75 115
-3314.6882 3131.3013 1623.1202 0.864 -0.155 0.480 68 34 27
-3276.2771 3101.3821 1601.0355 0.296 -0.951 -0.087 72 31 29
-3259.8826 3121.5681 1582.9596 0.556 -0.825 0.100 95 27 14
-3254.0503 3124.8474 1577.5532 0.556 -0.825 0.100 101 26 16
-4391.6099 4928.0557 1990.8813 0.637 -0.252 0.729 177 151 127
-3877.3591 4779.4395 1629.0837 0.238 -0.566 -0.790 173 136 108
-3862.2744 4775.1323 1618.4573 0.774 -0.609 0.173 168 129 101
-3740.7021 4691.4946 1545.6565 -0.240 -0.772 -0.589 158 121 91
-3648.9377 4614.4780 1494.3500 -0.082 -0.971 0.226 173 136 104
-3672.7300 4980.7412 1416.7622 0.303 -0.707 0.639 203 161 134
-3726.4319 5091.8984 1429.4423 0.335 -0.254 0.908 202 160 135
-3816.5273 5420.6025 1413.3887 0.891 -0.011 0.454 191 155 130
-3817.7104 5440.9795 1408.9628 0.896 -0.014 0.444 183 147 122
-3471.4351 5276.8408 1182.1583 0.502 -0.040 0.864 199 163 140
-3496.3025 5335.7583 1186.0759 0.708 0.084 0.701 201 165 142
-3436.6318 5738.5747 1033.8436 0.698 -0.613 -0.371 202 164 145
-3108.5063 5700.7573 788.0302 0.136 -0.848 0.512 87 59 46
-3032.5273 5619.3525 750.1784 0.316 -0.628 0.711 61 44 37
-3019.2351 5615.4766 740.8360 0.316 -0.628 0.711 61 45 37
-3000.6543 5601.0552 730.1392 0.372 -0.656 0.656 59 45 37
-2981.2024 5584.7539 719.2571 0.419 -0.626 0.658 52 39 31
-2489.2266 5286.2397 414.1635 0.993 -0.060 0.100 163 101 88
-2512.5469 5629.6255 342.2123 -0.173 -0.968 -0.181 145 88 78
-2419.3501 5846.0103 212.7818 -0.140 -0.700 0.700 96 73 59
-1788.0706 6134.7827 -355.0267 0.994 -0.024 -0.102 141 105 97
-1790.1077 6180.1812 -365.3546 0.178 -0.979 -0.098 136 100 89
-1780.6978 6182.9131 -373.4056 -0.182 -0.915 0.359 127 91 77
-1772.3329 6189.5874 -381.6770 -0.467 -0.872 -0.147 124 88 74
-1759.7537 6180.2041 -389.0183 0.821 -0.546 -0.169 132 95 82
-1734.6652 6200.1943 -413.8188 0.848 -0.409 -0.337 198 160 149
-1476.4869 6108.4639 -590.9655 0.085 -0.722 0.687 236 167 155
-309.0726 3801.2153 -895.2692 0.297 -0.953 -0.057 250 103 120
-3296.9353 3105.8503 1604.6621 0.369 -0.898 -0.238 66 35 25
-3272.1084 3098.9653 1587.1644 0.408 -0.876 -0.256 85 40 32
-3310.7188 3147.7466 1604.2949 -0.208 -0.968 -0.140 95 44 32
-3278.4373 3142.6011 1580.5353 -0.434 -0.901 0.031 112 36 30
-3238.5447 3119.9392 1555.4908 0.439 -0.897 -0.059 135 44 42
-3567.0166 3534.3706 1701.3754 0.795 -0.272 -0.542 190 130 122
-3665.1052 3671.2080 1741.4762 0.981 -0.148 -0.125 213 179 168
-3785.0896 4707.4624 1560.4574 0.186 -0.962 -0.197 161 123 88
-3774.2563 4708.4121 1551.7754 0.205 -0.707 -0.677 160 123 88
-3611.8359 4567.6270 1462.6556 -0.103 -0.994 -0.018 174 141 104
-3357.5144 5399.8516 1044.3704 0.462 -0.142 0.875 164 131 112
-3251.9277 5436.9409 952.3798 0.838 -0.116 -0.534 197 161 143
-3358.1135 5753.2554 951.2580 0.749 -0.274 -0.603 187 150 131
-3393.5972 5839.5439 956.0233 0.407 -0.089 -0.909 187 149 130
-3394.6746 5863.6836 950.4698 0.401 -0.093 -0.911 187 149 130
-3019.8137 5446.2666 769.2750 -0.087 -0.967 -0.240 107 67 47
-3066.2715 5645.0391 752.7957 0.272 -0.657 0.704 81 49 41
-2515.8401 5667.5527 318.4779 -0.106 -0.808 -0.580 157 95 76
-2013.8051 5403.6958 -2.3478 0.632 -0.083 0.771 252 214 213
-1972.1685 5337.3799 -17.1903 0.508 -0.509 0.695 244 206 205
-1986.5682 5407.4141 -24.5287 -0.073 -0.899 0.431 244 206 205
-1797.7223 6177.4517 -375.3927 0.199 -0.974 -0.111 211 166 165
-1758.3729 6181.7651 -407.1574 0.847 -0.445 -0.290 220 174 172
-1752.6307 6198.4810 -416.0522 0.847 -0.445 -0.290 221 175 173
-1672.6809 6120.4741 -457.6151 0.772 -0.259 0.580 226 167 169
-1657.3423 6098.6079 -463.7619 0.998 -0.029 0.054 227 167 169
-1471.3319 6136.6055 -618.5802 0.131 -0.499 0.857 241 182 175
-302.1399 3783.3655 -905.3463 -0.037 -0.873 0.486 253 68 110
-3289.2483 3090.7073 1591.4341 0.434 -0.875 -0.215 65 37 25
-3288.1484 3145.1321 1576.0414 -0.424 -0.905 0.039 118 45 38
-3264.7874 3130.3579 1561.8353 -0.415 -0.910 0.005 129 49 44
-4348.2397 4867.6948 1939.6475 0.522 -0.474 -0.709 187 157 129
-4345.7373 4879.7739 1934.4761 0.505 -0.484 -0.715 187 157 131
-4341.4795 4889.8164 1928.4854 0.499 -0.486 -0.718 175 145 121
-3802.2559 4717.7622 1555.4437 0.505 -0.863 -0.023 165 127 91
-3322.9526 4424.9648 1261.2163 0.446 -0.503 -0.740 201 139 118
-3355.4094 4485.9878 1270.1362 0.661 -0.747 0.064 205 141 122
-3363.0632 4511.9946 1269.1366 0.911 -0.409 0.050 206 138 124
-3364.2905 4528.9463 1265.5623 0.908 -0.418 -0.012 205 139 125
-3430.4353 5108.4062 1162.1740 0.489 -0.083 0.868 208 173 151
-3422.7344 5132.3135 1149.8038 0.324 -0.139 0.936 207 175 154
-3410.0945 5130.3389 1140.5095 0.349 -0.125 0.929 206 175 154
-3307.4309 5279.5547 1020.8769 -0.285 -0.826 0.487 163 130 111
-3420.2024 5675.2427 1002.8088 0.695 -0.481 -0.535 198 163 144
-3325.8821 5808.2900 893.9783 0.685 -0.310 -0.660 165 122 105
-3047.8516 5440.0200 776.3088 0.444 -0.842 -0.307 166 124 102
-3043.9138 5453.7241 769.5881 0.438 -0.849 -0.295 151 106 85
-3036.2422 5460.3701 761.8517 0.438 -0.849 -0.295 139 94 73
-2578.0200 5356.6182 433.5072 0.991 -0.022 0.134 167 110 91
-2396.5647 5824.5269 167.5206 -0.382 -0.923 0.047 98 69 43
-2437.2881 5986.9990 155.7647 0.319 -0.611 0.725 84 58 34
-2003.6414 5351.7588 -11.5122 0.715 -0.071 0.695 244 204 204
-1995.7020 5439.3911 -41.0899 -0.218 -0.769 0.601 240 201 201
-1689.7291 5574.5474 -314.9472 0.968 0.112 -0.226 255 241 248
-1793.9490 6170.0879 -393.0449 -0.184 -0.919 0.350 218 172 172
-1791.3755 6198.4551 -402.6221 0.169 -0.985 -0.033 219 173 173
-1776.5764 6180.9155 -409.4363 0.806 -0.523 -0.277 224 176 176
-1753.4755 6169.8760 -424.4380 0.848 -0.409 -0.337 223 175 175
-1550.9666 5947.0420 -522.2728 0.321 -0.797 -0.512 243 177 179
-461.3978 4355.4028 -943.7563 0.777 -0.087 -0.623 248 32 75
-487.3393 4765.1162 -1033.0415 0.777 -0.087 -0.623 247 56 89
-101.2225 1374.3540 -427.3293 -0.117 -0.323 -0.939 236 81 91
-3443.1272 3229.4661 1662.1814 0.690 -0.135 0.711 53 35 20
-3577.8057 3507.8684 1691.6594 0.720 -0.578 -0.383 149 80 79
-3542.4641 3481.1521 1671.4376 0.904 -0.418 0.086 155 92 89
-3481.8694 3427.6069 1638.8518 0.800 -0.590 0.110 179 126 120
-4327.3770 4846.0278 1912.6650 0.511 -0.491 -0.706 187 157 131
-4274.9707 4828.7441 1876.6614 0.402 -0.361 0.841 179 149 123
-3700.6409 4372.1299 1554.0905 0.193 -0.278 0.941 208 177 172
-3560.3186 5469.5464 1149.5225 0.491 -0.233 0.840 206 175 155
-3535.5520 5448.7710 1135.9047 0.445 -0.148 0.883 204 173 153
-3519.0027 5441.2437 1125.0929 0.440 -0.149 0.886 203 172 152
-3314.8909 5276.5576 1011.1031 -0.280 -0.826 0.488 201 168 149
-3282.2881 5279.1104 985.1199 0.232 -0.484 0.844 202 169 150
-3181.1836 5545.2017 834.9783 -0.160 -0.573 0.803 172 129 112
-3154.1484 5516.3574 821.7745 -0.157 -0.571 0.806 180 137 120
-3036.7842 5422.9902 755.8726 0.624 -0.773 -0.109 168 123 102
-2823.6931 5758.6411 500.1016 0.700 -0.073 0.711 158 108 99
-2814.8157 5763.6157 491.8736 0.700 -0.073 0.711 162 105 99
-2806.5374 5769.9028 483.7566 0.698 -0.076 0.712 165 104 99
-2539.1648 5681.9062 300.0211 0.584 -0.145 0.799 127 65 42
-2528.0669 5680.7925 291.7106 0.584 -0.145 0.799 146 84 61
-2483.2361 5674.7720 258.5500 0.871 -0.488 0.061 143 85 63
-2384.6892 5744.1382 163.3999 -0.442 -0.884 0.155 113 79 54
-2403.8044 5820.8140 157.5708 -0.399 -0.899 0.179 108 74 49
-2406.8501 5856.3247 150.3654 0.436 -0.649 0.624 102 68 43
-2303.6521 5778.2222 91.3419 0.014 -0.633 0.774 37 21 2
-2059.5393 5380.6387 9.0703 0.637 -0.115 0.762 202 165 156
-1965.0511 5245.0537 -27.7072 0.578 -0.475 0.664 234 194 194
-1762.8109 6251.4956 -455.8024 0.497 -0.795 -0.347 227 174 174
-1792.8043 6407.2266 -474.4928 0.412 -0.789 -0.455 229 173 174
-3368.3904 3100.6453 1627.5371 -0.281 -0.942 0.183 34 31 18
-3162.6721 3046.5315 1482.8751 -0.506 -0.838 0.203 158 94 87
-3583.6060 3505.5801 1684.2125 0.720 -0.578 -0.383 164 107 100
-3544.4622 3474.9407 1662.2150 0.904 -0.418 0.086 163 114 107
-3165.9587 3402.7756 1388.6031 0.401 -0.637 0.658 187 159 138
-3720.5591 4646.2690 1480.2993 -0.047 -0.457 0.888 186 154 116
-3339.9941 4410.3960 1249.5822 0.869 -0.436 0.233 206 130 114
-3235.6753 5543.4028 860.8446 0.515 -0.099 -0.851 187 149 130
-3176.9133 5541.2915 815.8959 -0.174 -0.573 0.801 185 142 125
-3161.8564 5534.6260 806.0428 -0.172 -0.577 0.799 185 142 125
-3131.1155 5498.6709 791.9997 0.453 -0.891 -0.030 185 142 125
-3142.4697 5541.0938 789.2664 0.846 -0.410 -0.342 185 142 124
-3062.4705 5412.4043 762.2658 0.717 -0.697 -0.019 175 130 110
-3051.0825 5411.9238 753.5744 0.711 -0.703 -0.011 171 126 105
-3034.1360 5400.8979 743.4426 0.598 -0.797 -0.080 166 121 100
-3079.4668 5572.7231 731.8623 0.383 -0.256 0.888 146 101 80
-2746.6045 5619.4863 461.2868 0.407 -0.330 0.851 170 108 103
-2531.3350 5642.5479 288.2512 0.586 -0.144 0.797 149 87 64
-2491.5486 5674.0166 248.8766 0.886 -0.365 -0.286 144 85 63
-2471.7917 5918.1387 167.2249 -0.121 -0.673 0.729 128 88 65
-2419.1660 5838.0713 148.2163 0.530 -0.476 0.702 117 77 54
-2306.2952 5762.4814 81.3193 -0.006 -0.633 0.774 40 19 2
-2287.7239 5740.4248 72.9267 0.137 -0.687 0.713 40 19 2
-2050.8032 5307.4907 7.0460 -0.064 -0.794 0.605 202 166 154
-1679.7815 5325.7798 -285.3529 0.351 -0.443 -0.825 255 235 240
-1745.1300 5684.1289 -332.1179 0.978 0.137 0.158 254 241 248
-1757.2878 6009.4272 -411.1070 0.966 -0.155 -0.205 229 180 183
-286.0048 3243.4268 -799.1734 -0.013 -0.771 -0.637 255 64 111
-3304.1482 3012.0259 1590.7679 0.737 -0.436 0.516 38 31 21
-3409.0803 3133.6460 1638.5989 -0.416 -0.861 0.293 48 41 29
-2909.7832 2727.1501 1363.8036 0.389 -0.340 0.856 121 63 51
-2894.9351 2720.1030 1354.2499 0.389 -0.340 0.856 125 71 57
-3175.6863 3052.7683 1480.2325 -0.516 -0.833 0.201 148 98 84
-3594.0471 3508.1387 1679.0254 0.750 -0.586 -0.306 179 136 124
-3558.4180 3481.2742 1658.8291 0.926 -0.351 -0.139 190 154 140
-3589.8762 3687.1304 1626.7373 -0.046 -0.533 0.845 209 169 139
-4317.6372 4840.4033 1873.5616 -0.009 -0.730 -0.683 189 159 133
-3958.7620 4761.6938 1617.5389 -0.441 -0.886 0.144 179 145 116
-3383.0059 5340.3574 1013.5682 0.730 -0.371 0.574 208 175 156
-3236.6941 5528.2412 848.8942 0.542 -0.083 -0.836 181 143 124
-3142.1787 5481.0283 788.7257 -0.162 -0.575 0.802 192 149 132
-2845.8464 5556.0112 538.9539 0.957 -0.044 -0.286 44 29 22
-2798.4937 5480.1196 523.1276 0.927 -0.375 -0.015 23 6 1
-2820.7646 5572.2769 515.0944 0.932 -0.075 -0.356 46 29 22
-2600.1616 5584.9917 340.9684 0.991 -0.067 -0.112 173 119 95
-2416.7542 5782.2866 145.0203 -0.407 -0.895 0.181 141 92 73
-2314.8721 5762.6763 71.5879 0.596 -0.024 0.803 52 24 10
-2078.2156 5335.7412 5.5528 -0.202 -0.977 0.068 203 167 155
-2045.7159 5271.7227 -2.0389 -0.268 -0.769 0.580 203 167 155
-1988.1473 5188.5601 -23.7743 -0.003 -0.776 0.631 199 159 159
-1975.5309 5178.8911 -30.8832 0.000 -0.780 0.626 199 159 159
-1728.9683 5666.2017 -355.1764 0.831 0.067 -0.553 255 236 243
-1433.5769 5058.1001 -416.9862 0.638 -0.139 -0.757 231 172 174
-461.2812 4171.3071 -926.0052 0.834 -0.060 -0.549 255 48 90
-3327.1770 3009.8894 1598.0604 0.062 -0.718 0.693 42 33 24
-3296.8147 2997.7668 1577.9612 0.855 -0.216 0.472 42 35 25
-3136.8784 2874.3708 1488.5453 -0.085 -0.578 0.811 56 23 13
-2812.6633 2582.8904 1318.7126 0.630 -0.267 -0.729 79 21 17
-2881.0161 2699.3879 1339.3014 0.377 -0.346 0.859 130 80 65
-2869.3328 2695.4966 1331.3534 0.383 -0.344 0.857 140 92 78
-2825.2590 2772.8284 1275.9366 -0.459 -0.858 0.231 192 183 174
-3284.3799 3457.8176 1441.1869 0.262 -0.289 0.921 200 173 152
-3700.6401 4311.5142 1526.6985 0.421 -0.577 -0.700 192 167 160
-3464.0349 4083.0310 1407.1167 0.700 -0.297 -0.650 187 148 141
-3360.5645 5649.1978 894.2710 0.924 -0.068 -0.375 198 160 141
-3231.8594 5461.2954 846.8074 0.589 -0.064 -0.806 193 155 136
-3053.6345 5509.6426 695.7919 0.413 -0.254 0.875 149 107 89
-2884.3069 5548.8745 554.1678 0.582 -0.159 0.797 23 9 3
-2841.0398 5596.0649 507.7061 0.933 -0.065 -0.355 85 68 60
-2852.6982 5643.7192 503.5373 0.268 -0.956 -0.119 103 85 75
-2842.7341 5646.0547 495.1960 0.544 -0.834 0.095 138 111 96
-2533.1880 5606.0127 267.1884 0.532 -0.686 0.497 177 112 90
-2177.8188 5561.8154 4.9382 0.990 -0.137 0.031 203 167 155
-2047.7405 5255.9521 -10.9785 -0.324 -0.761 0.563 203 167 155
-2033.1825 5241.5190 -18.2324 -0.296 -0.769 0.567 203 167 156
-1984.5299 5157.0933 -32.4715 -0.117 -0.722 0.682 204 164 164
-1963.1469 5148.3984 -46.5831 0.041 -0.788 0.614 204 164 164
-1330.4613 4751.2715 -425.4580 0.002 -0.910 -0.414 244 180 181
-2853.2112 2672.5767 1315.4740 0.401 -0.365 0.840 227 185 169
-2845.2888 2672.4590 1309.3973 0.403 -0.351 0.845 224 187 168
-2845.2693 2680.4509 1307.1547 0.525 -0.285 0.802 221 189 169
-2889.7510 2775.6938 1314.9082 0.842 -0.425 0.332 194 191 169
-2872.2000 2765.6487 1304.1736 0.838 -0.445 0.315 195 199 174
-2818.9658 2742.7346 1269.5083 -0.238 -0.968 -0.079 177 184 191
-3466.2500 3555.7449 1542.0459 0.235 -0.279 0.931 197 149 113
-3232.8115 3360.1680 1416.5426 0.662 -0.174 0.730 190 162 140
-3358.5039 4386.1836 1227.4680 0.853 -0.458 0.248 214 133 121
-3345.7473 4397.5996 1214.4485 0.640 -0.647 0.414 239 120 121
-2535.2380 3494.1660 841.2422 0.629 -0.031 0.777 208 173 154
-2368.2708 3360.3169 749.7927 0.230 -0.636 0.736 209 174 154
-2365.8811 3368.4980 745.6694 0.290 -0.569 0.769 209 174 154
-3247.2439 5492.7222 833.2168 0.979 -0.128 -0.157 186 148 129
-3257.9072 5532.6074 830.3221 0.957 -0.088 -0.276 181 143 124
-2926.4924 5504.5776 582.5579 0.838 -0.106 0.535 52 43 38
-2849.2019 5640.6821 485.0143 0.544 -0.834 0.095 127 99 84
-2521.2676 5582.3784 248.3734 0.013 -0.971 0.240 174 109 87
-2492.8884 5564.6538 231.4287 0.019 -0.962 0.274 172 110 87
-2448.4790 5532.7402 206.0777 0.892 -0.380 0.245 163 102 81
-2442.9021 5544.2539 198.5675 0.892 -0.377 0.248 148 87 66
-1989.9861 5151.3052 -41.1724 -0.107 -0.721 0.684 211 171 171
-1980.5026 5150.4214 -48.2396 0.046 -0.796 0.604 211 171 171
-2880.8000 2630.9446 1338.6570 -0.077 -0.989 0.130 163 62 71
-2866.5393 2703.9355 1307.1600 0.442 -0.344 0.828 222 199 182
-2853.4746 2698.5684 1298.6090 0.663 -0.476 0.578 218 200 183
-2888.1572 2759.0583 1308.3119 0.863 -0.417 0.286 185 185 168
-2876.5149 2755.2102 1300.4291 0.938 -0.254 0.236 179 187 170
-2848.3906 2734.0764 1284.7137 0.949 -0.242 0.204 157 172 153
-2838.1421 2748.0908 1272.8833 -0.005 -0.942 -0.336 95 119 134
-3437.7278 3505.2395 1521.7439 0.308 -0.216 0.927 190 138 99
-3212.8596 3339.8813 1395.0750 0.631 -0.182 0.754 119 94 74
-2877.1145 3275.9026 1154.5354 0.218 -0.975 -0.034 193 168 157
-3080.1726 3548.3254 1234.3171 0.926 -0.348 -0.147 196 165 156
-3090.0410 3571.8823 1235.2946 0.852 -0.345 -0.393 197 160 153
-3375.4126 4383.3535 1226.9424 0.096 -0.554 -0.827 203 145 126
-3365.6631 4384.3833 1219.1460 0.606 -0.472 -0.640 214 135 123
-3362.8347 4395.0220 1213.9779 0.606 -0.472 -0.640 229 130 125
-2417.6836 3390.9680 768.4327 0.061 -0.485 0.872 189 153 133
-2385.9231 3401.8633 740.9149 0.179 -0.911 0.370 210 174 155
-2388.2827 3417.5872 738.3121 0.397 -0.836 0.379 209 174 154
-2381.0388 3418.3982 732.5063 0.397 -0.836 0.379 208 176 155
-3250.8447 5441.5034 833.6025 0.963 -0.125 -0.238 197 159 140
-3248.9561 5479.0547 821.5935 0.963 -0.125 -0.238 186 147 129
-3258.4336 5516.6704 818.3182 0.955 -0.097 -0.281 181 143 124
-3185.4409 5509.5435 764.1172 -0.477 -0.697 0.535 208 165 148
-2884.8691 5469.1870 544.0213 0.878 -0.007 0.479 114 100 94
-2860.7605 5464.5190 526.7700 0.553 -0.183 0.813 121 99 91
-2840.8804 5490.6025 504.1309 0.888 0.005 -0.459 138 115 107
-2835.3372 5501.6025 496.7707 0.934 -0.005 -0.357 160 136 129
-2772.1917 5528.4082 440.6143 0.491 -0.342 0.801 172 127 116
-2642.1943 5719.9956 286.6659 0.961 0.068 0.267 177 119 97
-2527.9519 5577.9243 238.6326 0.504 -0.427 -0.751 178 113 91
-2518.4468 5784.8115 173.1622 0.364 -0.378 0.852 150 91 68
-1989.7263 5129.5708 -49.7766 0.060 -0.718 0.694 215 175 175
-1978.5072 5123.7422 -56.7770 0.060 -0.718 0.694 215 175 175
-1881.2477 5130.6030 -133.5950 0.474 -0.392 0.788 253 223 227
-523.6757 5848.4663 -1380.6964 0.861 -0.481 0.166 255 150 154
-109.2475 1537.6768 -488.1345 -0.169 -0.336 -0.926 246 42 69
-3368.8176 2916.9006 1623.1183 0.099 -0.747 -0.658 42 39 32
-3488.4780 3037.6270 1680.9016 -0.111 -0.912 -0.394 42 39 32
-3065.6428 2727.1394 1443.8098 0.520 -0.256 0.815 62 28 28
-3042.9558 2713.1438 1430.3340 0.688 -0.193 0.700 74 28 28
-3029.1108 2707.6558 1421.2449 0.708 -0.190 0.680 102 41 39
-2858.8357 2665.5579 1302.2642 0.715 -0.243 0.656 182 151 147
-2854.1875 2668.7852 1297.7759 0.713 -0.248 0.656 189 157 159
-2810.8892 2632.4600 1274.7820 0.310 -0.948 -0.070 193 166 171
-2812.6106 2642.1187 1273.3680 -0.086 -0.981 -0.176 198 178 179
-2802.2493 2639.3813 1266.1779 -0.093 -0.968 -0.233 216 204 200
-2816.8384 2670.3682 1268.6124 0.786 -0.227 -0.575 204 211 206
-2840.5327 2711.1304 1275.2771 0.962 -0.263 -0.073 151 185 196
-2838.9792 2717.6724 1272.2286 0.962 -0.263 -0.073 97 139 157
-2836.9836 2731.9910 1266.6366 0.955 -0.270 -0.125 41 102 134
-2845.9585 2749.6909 1268.5203 -0.005 -0.942 -0.336 25 96 134
-3283.8135 3349.1877 1435.2533 0.231 -0.279 0.932 145 110 84
-3250.0134 3322.1943 1416.9171 0.232 -0.284 0.930 103 76 56
-3179.0774 3304.0891 1367.5111 0.360 -0.473 0.804 66 50 39
-3130.9260 3362.1160 1314.0461 0.438 -0.131 0.889 168 137 110
-2882.6453 3274.3357 1148.0397 0.060 -0.947 -0.317 191 163 143
-2937.0706 3373.1780 1161.8707 0.138 -0.970 -0.201 191 145 118
-2993.5425 3487.3594 1172.9283 0.963 -0.085 -0.255 201 153 119
-3622.3777 4545.3789 1356.5442 0.848 -0.433 0.305 199 162 128
-3375.5474 4371.8540 1215.9530 0.147 -0.556 -0.818 207 155 142
-3368.3025 4376.3267 1209.1154 0.574 -0.713 -0.402 202 137 128
-3363.2246 4383.8101 1203.0907 0.574 -0.713 -0.402 216 138 133
-2507.5542 3421.7031 817.8967 0.383 -0.475 0.792 221 186 166
-2487.5654 3403.8394 807.5917 0.693 -0.043 0.720 217 180 161
-2377.2751 3390.7346 726.5119 0.289 -0.834 0.471 197 158 139
-2372.6343 3407.5754 718.1711 0.404 -0.834 0.376 208 173 156
-2835.2605 5483.1938 485.6106 0.933 -0.006 -0.361 191 148 138
-2824.8508 5574.9189 451.6122 0.398 -0.808 0.436 179 136 121
-2586.8394 5181.7935 380.0368 0.505 -0.710 0.491 201 152 139
-2544.9097 5548.4048 243.9014 0.319 -0.471 -0.823 189 123 99
-2512.1484 5569.8872 212.6256 0.369 -0.407 -0.835 178 111 87
-2303.7595 5564.0103 54.0769 0.949 -0.263 -0.173 148 99 74
-2212.4426 5562.2163 -15.6210 0.588 -0.475 0.655 201 161 144
-540.4753 5877.9697 -1390.5526 0.874 -0.141 0.466 255 144 149
-3382.1655 2914.2017 1623.2029 0.248 -0.671 -0.699 47 44 37
-3472.3972 3006.8765 1665.9891 0.332 -0.735 -0.591 47 44 37
-3488.3154 3030.4775 1671.4653 0.423 -0.812 -0.403 47 44 37
-3065.6614 2761.0164 1424.0083 0.236 -0.483 0.843 203 70 79
-2815.5247 2654.6345 1262.3877 0.699 -0.715 0.021 185 200 208
-2840.6926 2688.5999 1272.0029 0.989 -0.111 -0.099 165 188 201
-2840.0085 2695.9680 1269.3726 0.962 -0.259 -0.091 139 176 196
-2839.4922 2711.6729 1264.4889 0.942 -0.190 -0.276 56 116 155
-2848.0046 2753.5000 1259.0723 0.022 -0.947 -0.321 9 100 146
-3186.0222 3253.7759 1375.6078 0.344 -0.223 0.912 56 40 29
-3192.8640 3301.2930 1367.2827 0.664 -0.339 0.667 63 47 36
-3168.7290 3284.4397 1353.5710 0.477 -0.447 0.757 61 47 38
-3145.7136 3268.7227 1340.3940 0.240 -0.556 0.796 63 46 35
-3137.1877 3279.2078 1330.8534 0.287 -0.565 0.774 83 51 29
-3107.8909 3286.3708 1306.3170 0.848 -0.078 0.524 149 117 94
-2954.6760 3219.8374 1207.7124 0.874 -0.125 0.469 99 82 69
-3471.0862 4403.8691 1265.8220 0.062 -0.619 0.783 227 207 180
-2470.4036 3357.3042 796.6832 0.098 -0.573 0.813 229 194 174
-2451.4436 3340.8140 786.8403 0.086 -0.613 0.785 221 184 165
-2455.3420 3393.3066 774.8343 0.951 -0.115 0.286 157 120 101
-2387.4844 3361.1709 731.9256 0.377 -0.919 0.110 157 114 95
-2362.4258 3346.2437 716.9545 0.304 -0.871 -0.387 179 136 119
-2379.5039 3384.5085 719.1312 0.255 -0.870 0.422 190 148 130
-3525.8967 5806.7622 907.0505 0.360 -0.409 -0.839 205 170 154
-2856.1204 5354.4116 522.1472 0.818 -0.059 0.572 194 154 146
-2455.4573 5464.2861 183.1846 0.641 -0.132 0.756 172 102 75
-2404.1458 5463.6694 143.9715 0.626 -0.135 0.768 173 104 75
-2309.9768 5532.5410 52.0043 0.979 0.105 -0.174 138 88 61
-2210.5112 5534.9541 -25.0398 0.626 -0.512 0.588 202 161 143
-1929.2329 5148.3799 -130.5073 0.431 -0.563 0.705 223 189 188
-1898.5616 5218.7705 -174.1647 0.426 -0.442 0.789 254 234 238
-1763.4253 5521.6313 -364.4380 0.939 0.114 0.325 253 227 238
-1764.2694 5556.3813 -373.7190 0.941 0.116 0.317 255 234 244
-552.0598 4772.1055 -1080.1798 0.709 -0.122 -0.694 245 37 76
-3419.2266 2941.9229 1632.6832 -0.032 -0.738 -0.674 53 50 43
-3134.7290 2748.6316 1470.3013 -0.484 -0.811 0.329 21 18 11
-3076.1277 2708.6023 1436.9154 0.028 -0.861 0.508 26 16 14
-3051.9829 2693.3484 1422.8029 0.584 -0.508 0.633 41 23 20
-3050.2188 2739.4556 1408.1693 0.321 -0.404 0.856 214 58 72
-2856.8008 2650.8086 1285.4545 0.626 -0.367 0.688 142 152 153
-2843.8789 2653.5056 1274.7733 0.677 -0.736 -0.017 148 165 186
-2838.0815 2655.5210 1269.7491 0.670 -0.742 -0.023 143 167 190
-2821.1157 2654.0227 1257.1769 0.701 -0.713 -0.016 98 139 162
-2840.8030 2682.2727 1264.1292 0.927 -0.344 -0.150 75 125 154
-2839.7559 2697.3220 1258.9916 0.961 -0.257 -0.102 33 103 149
-2842.9988 2758.1882 1243.9446 0.208 -0.907 0.366 8 99 137
-3194.0229 3244.7710 1372.8340 0.670 -0.640 0.375 58 35 19
-3126.7234 3259.3914 1317.0391 0.377 -0.636 -0.673 91 63 44
-3121.8552 3263.9138 1312.0051 0.411 -0.614 -0.674 118 88 67
-3119.4165 3271.1912 1308.0396 0.407 -0.613 -0.677 137 109 89
-3061.6804 3245.6584 1271.1410 0.573 -0.096 0.814 148 120 100
-2995.5735 3483.1213 1152.0698 0.654 -0.108 -0.748 186 132 95
-2979.6140 3496.5356 1135.9733 0.477 -0.098 0.873 191 146 103
-3447.8411 4262.7485 1274.1473 0.728 -0.665 -0.165 197 167 132
-3472.0598 4393.5796 1255.0240 0.069 -0.619 0.783 228 215 201
-2423.7136 3301.9075 765.9529 0.335 -0.727 0.599 193 156 137
-2415.3975 3370.6169 739.7867 0.925 -0.143 0.352 145 102 83
-2395.4688 3363.8433 726.4630 0.388 -0.915 0.109 146 103 84
-2380.6426 3364.7493 714.8382 0.834 -0.446 -0.325 166 123 104
-2255.2224 3420.0291 602.7833 0.810 -0.119 -0.575 212 176 170
-2867.5559 5233.6021 549.7158 0.804 -0.224 0.550 203 165 157
-2552.9219 5551.6025 216.9557 0.311 -0.887 0.343 190 122 99
-2410.4971 5337.6553 169.4190 0.671 -0.281 0.685 179 109 82
-2316.1958 5527.2803 42.5174 0.977 0.105 -0.188 116 67 37
-2314.2043 5600.7222 19.8357 0.113 -0.366 0.924 134 85 55
-2198.7500 5428.8921 -19.1609 0.011 -0.722 0.691 168 127 109
-2146.0688 5340.1631 -33.9810 0.143 -0.755 0.640 202 161 143
-2070.6736 5239.0635 -62.6474 0.276 -0.483 0.831 207 167 150
-1935.8066 5145.8647 -139.1734 0.440 -0.553 0.707 224 188 188
-1933.0667 5244.4717 -169.6776 0.414 -0.422 0.806 250 218 219
-1915.3224 5246.3574 -183.8213 0.206 -0.669 -0.714 250 227 230
-1761.2147 5583.7910 -399.1397 0.586 -0.428 -0.688 255 235 244
-3049.3547 2684.5435 1413.3097 0.584 -0.508 0.633 31 22 16
-2825.2759 2620.4368 1260.4370 0.598 -0.801 -0.022 56 98 110
-2825.4626 2628.4573 1258.2510 0.596 -0.802 0.040 60 105 129
-2834.0549 2645.0769 1260.0007 0.609 -0.782 0.132 56 109 135
-2813.9678 2640.3455 1246.0020 0.821 -0.569 -0.048 39 108 141
-2867.7048 2736.1194 1259.3163 0.696 -0.457 -0.554 17 117 180
-2854.4219 2746.9751 1245.9985 0.472 -0.581 -0.662 13 97 146
-3141.7949 3258.3044 1317.4469 0.976 -0.023 -0.218 89 71 57
-3133.4731 3258.9595 1310.8881 0.394 -0.624 -0.675 110 87 72
-3121.5640 3255.5654 1302.7595 0.397 -0.661 -0.637 126 102 85
-3136.4114 3282.3120 1306.3556 -0.024 -0.742 -0.670 137 114 98
-2967.1414 3168.7131 1209.7997 0.425 -0.109 0.898 31 10 0
-2943.7324 3376.9917 1131.4054 0.831 -0.043 0.555 186 125 85
-2952.0540 3398.0886 1131.6477 0.838 -0.039 0.545 186 124 81
-2985.5427 3656.6404 1082.1991 0.225 -0.269 0.937 195 169 130
-3408.6790 4311.0356 1216.0040 0.760 -0.650 0.009 227 218 211
-3377.8850 4325.9976 1188.0928 0.809 -0.550 0.209 214 180 164
-3392.5164 4360.2808 1189.3351 0.674 -0.628 0.389 213 152 142
-3361.1426 4463.0591 1135.4801 0.837 -0.501 -0.221 225 171 155
-2421.7053 3289.7288 757.2366 0.000 -0.465 0.885 165 128 109
-2863.5552 5509.0020 450.9576 0.994 -0.056 -0.096 168 120 108
-2574.7517 5557.8960 215.7383 0.223 -0.765 0.605 190 122 99
-2388.3452 5361.0098 130.2524 0.400 -0.412 0.819 184 115 86
-2195.7986 5399.7930 -28.3654 -0.098 -0.683 0.724 168 127 109
-2079.4548 5242.0103 -71.5868 0.286 -0.474 0.833 207 167 150
-2032.9897 5140.5947 -77.6979 -0.251 -0.682 0.687 216 176 170
-2003.0283 5134.0747 -98.7341 -0.325 -0.696 0.640 231 191 189
-1926.3698 5123.3550 -154.2883 0.127 -0.826 -0.549 225 189 189
-1919.6218 5130.0039 -161.3833 0.110 -0.823 -0.558 239 200 201
-1908.7444 5177.7109 -183.5608 0.380 -0.666 0.641 250 219 220
-1921.9551 5243.7051 -192.6138 0.273 -0.542 -0.795 246 223 226
-1769.1119 5520.6460 -390.0023 0.946 0.135 0.294 248 222 231
-1730.2047 5579.1611 -436.7695 0.887 0.098 -0.451 255 213 219
-485.4341 3823.9336 -879.7152 0.754 -0.085 -0.651 252 27 72
-484.7679 3932.7922 -911.8351 0.756 -0.079 -0.649 243 39 76
-3406.2527 2916.4167 1608.1418 0.148 -0.752 -0.643 53 50 43
-3446.5857 2962.2468 1625.5469 -0.015 -0.761 -0.649 48 45 38
-3433.2683 2958.4182 1616.4913 0.486 -0.799 -0.353 42 39 32
-3058.1472 2686.6885 1409.3867 0.030 -0.878 0.477 19 16 9
-3033.6829 2671.1006 1395.2554 0.088 -0.852 0.515 48 27 22
-3009.7788 2655.9492 1381.4243 0.061 -0.863 0.501 81 30 29
-2916.3098 2642.7993 1313.8512 0.106 -0.933 0.343 95 28 21
-2897.0264 2631.5081 1302.4210 0.152 -0.927 0.342 84 50 33
-2828.1665 2617.1187 1254.0153 0.546 -0.838 -0.011 28 88 108
-2845.9678 2650.8828 1257.7349 0.242 -0.964 -0.111 35 109 140
-2838.9685 2651.6694 1252.1562 0.230 -0.967 -0.106 26 110 145
-2816.3271 2644.3457 1236.9989 0.824 -0.564 -0.048 30 123 167
-2840.7649 2709.7283 1236.5350 0.603 -0.394 -0.694 24 115 174
-2867.8728 2746.1711 1246.5820 0.259 -0.582 -0.771 31 104 161
-2828.2588 2745.9041 1216.3900 0.222 -0.560 0.798 41 102 135
-3236.4280 3245.6562 1382.0051 0.065 -0.715 -0.696 58 37 21
-2915.1306 3259.9875 1132.2981 0.832 -0.013 0.554 29 11 1
-3376.4878 4341.1230 1168.3840 0.841 -0.541 0.006 199 105 106
-3384.5298 4366.5073 1167.0990 0.653 -0.632 0.417 203 78 90
-2656.1885 3540.6897 852.2714 0.056 -0.317 0.947 205 174 156
-2395.6577 3253.3611 737.2939 0.126 -0.515 0.848 122 85 66
-2308.8137 3462.7783 609.6374 -0.586 -0.692 0.422 200 176 163
-2242.6353 3531.7644 538.8763 0.779 -0.025 -0.627 206 174 160
-2917.1501 5488.4829 481.5573 0.603 -0.729 0.323 200 153 142
-2904.2568 5484.6484 472.8273 0.586 -0.712 0.387 204 156 144
-2897.9580 5494.0439 465.2643 0.598 -0.709 0.373 182 134 122
-2894.0630 5508.3433 458.1026 0.589 -0.718 0.371 149 101 89
-2882.1418 5506.4121 449.5584 0.784 -0.575 0.235 188 138 127
-2451.7959 5444.6138 138.8078 -0.168 -0.976 0.138 191 122 93
-2307.3918 5488.3799 15.6540 0.980 0.091 -0.175 167 116 87
-2306.0693 5536.7119 0.4967 0.052 -0.384 0.922 152 103 73
-2292.0039 5526.4473 -7.2467 0.051 -0.385 0.922 151 102 72
-2203.1177 5397.9814 -37.5649 -0.098 -0.679 0.727 177 136 118
-2194.1035 5400.0127 -45.0473 0.016 -0.811 0.585 192 151 133
-2112.3525 5258.9507 -66.2266 0.137 -0.755 0.641 204 163 145
-1936.9484 5132.4502 -163.2309 0.073 -0.837 -0.542 212 177 175
-1931.7026 5143.4893 -170.4704 0.075 -0.715 -0.695 213 174 175
-1927.5795 5157.8599 -177.8273 0.076 -0.721 -0.689 222 183 184
-1926.8779 5182.3232 -185.5238 0.112 -0.715 -0.690 233 198 197
-1932.4633 5225.4370 -193.8755 0.132 -0.711 -0.691 241 209 208
-1917.6578 5208.8237 -200.3259 0.250 -0.637 -0.729 254 231 234
-1912.0986 5219.4023 -207.6703 0.250 -0.637 -0.729 253 231 234
-1042.7094 6599.3979 -1275.9216 0.467 -0.123 -0.876 222 126 109
-416.6436 4223.7681 -1058.9652 0.309 -0.520 -0.796 243 87 119
-411.8824 4238.9629 -1067.0509 0.309 -0.520 -0.796 245 72 110
-3363.8945 2862.3672 1580.8005 0.937 -0.343 0.062 50 47 40
-3439.4436 2957.3477 1610.4194 0.486 -0.799 -0.353 35 32 25
-3273.8120 2836.3013 1519.7618 -0.205 -0.823 0.529 19 16 9
-2900.4094 2628.6384 1296.1384 0.152 -0.927 0.342 62 49 32
-2856.2109 2752.1538 1225.9768 0.806 -0.517 -0.288 16 104 144
-3014.4573 3197.4775 1215.3297 0.347 -0.908 0.236 23 14 6
-2994.1101 3183.9897 1203.7850 0.313 -0.947 -0.077 22 12 6
-2944.9861 3166.5803 1171.4419 0.249 -0.963 -0.100 30 20 12
-2926.2041 3204.1521 1146.0275 0.946 -0.297 0.133 19 10 1
-2895.9031 3520.0674 1029.7062 0.316 -0.289 0.904 240 196 150
-2859.9119 3530.0977 999.2874 0.362 -0.124 0.924 243 210 204
-2387.6575 3243.6724 723.4814 0.850 -0.256 0.460 64 27 8
-2387.3420 3554.7739 631.4579 -0.110 -0.639 0.762 207 180 164
-2287.8696 3443.4133 588.4193 -0.538 -0.695 0.478 147 131 117
-2903.8154 5509.9780 448.6690 0.571 -0.738 0.360 173 125 113
-2889.6079 5503.4561 439.7534 0.798 -0.577 0.176 197 149 137
-2553.6494 5470.1382 193.2619 -0.117 -0.960 0.256 201 133 110
-2423.9082 5382.7031 120.0710 -0.468 -0.733 -0.493 191 122 93
-2285.0215 5487.1714 -16.7139 0.033 -0.394 0.918 158 109 79
-2234.2041 5458.6113 -47.0595 0.672 -0.728 0.136 185 144 126
-1945.6497 5136.0723 -172.0562 -0.312 -0.718 0.622 216 180 180
-1932.6134 5124.6899 -178.6442 -0.312 -0.718 0.622 204 165 166
-1919.4252 5112.7163 -185.1736 0.407 -0.841 -0.357 213 174 175
-1917.4186 5133.0903 -192.7155 0.421 -0.833 -0.359 225 189 189
-1935.6650 5239.7002 -210.2468 0.307 -0.728 -0.613 254 231 234
-1822.6635 5200.4741 -284.8892 0.771 -0.616 -0.160 225 206 212
-1816.9044 5210.5298 -292.2499 0.242 -0.915 -0.321 247 228 234
-407.0672 3806.9348 -953.7955 0.274 -0.810 -0.518 255 128 145
-402.4562 3816.0435 -960.0007 0.278 -0.833 -0.478 251 115 140
-422.9875 4244.2939 -1070.6810 0.292 -0.525 -0.799 242 85 116
-3438.1042 2907.1868 1613.2119 0.665 -0.179 0.725 34 31 24
-3373.9397 2881.5803 1571.9467 0.891 -0.450 0.066 35 32 25
-3364.0469 2897.4250 1559.6989 0.160 -0.659 0.735 19 16 9
-3031.7454 2656.8044 1378.1060 0.052 -0.859 0.509 33 26 18
-3001.5620 2651.1772 1356.7863 0.083 -0.805 0.588 44 13 0
-2907.5588 2629.4905 1291.6250 0.134 -0.920 0.369 45 48 31
-2890.9229 2732.2761 1248.3887 0.011 -0.486 -0.874 38 136 177
-2878.1497 2760.2019 1230.3547 0.091 -0.458 -0.884 26 109 156
-2873.7761 2763.9314 1225.9141 0.361 -0.647 -0.672 21 108 145
-3254.7976 3249.7490 1371.7119 0.921 -0.374 0.106 47 41 37
-2927.2742 3247.8914 1122.7631 0.819 -0.060 0.570 31 17 12
-2302.5842 3444.8547 588.3189 -0.591 -0.741 0.318 105 93 79
-2274.7185 3424.2073 573.2309 -0.537 -0.698 0.474 45 34 23
-2902.2517 5488.8252 437.3626 0.779 -0.590 0.212 221 173 161
-2442.0315 5430.2827 104.1831 -0.517 -0.777 -0.359 187 118 89
-2288.8184 5399.5820 -3.4032 0.958 -0.204 -0.200 166 117 87
-2280.2466 5402.9893 -10.9461 0.965 -0.251 -0.075 166 117 87
-2234.3652 5437.8081 -56.2510 0.661 -0.734 0.154 195 154 136
-2149.0146 5289.7598 -77.2474 0.220 -0.790 0.573 204 163 145
-1929.1787 5145.6719 -201.8701 0.438 -0.842 -0.316 249 213 213
-1949.8887 5259.2349 -219.8615 0.332 -0.777 0.534 254 231 232
-1951.1918 5290.2104 -228.0793 0.903 0.040 0.428 254 232 234
-1875.9851 5488.7227 -344.3976 0.412 -0.750 -0.518 255 244 250
-381.8747 2648.1257 -637.9354 -0.094 -0.941 -0.326 250 25 71
-412.3644 3818.3540 -962.6747 0.307 -0.763 -0.570 255 128 145
-407.0480 3818.3784 -966.7319 0.278 -0.833 -0.478 251 115 140
-420.0104 4298.7285 -1099.6888 0.251 -0.537 -0.805 252 66 109
-3041.2576 2651.9194 1376.8804 -0.372 -0.891 0.261 31 27 21
-3010.8958 2677.3901 1346.1542 0.616 -0.391 0.684 12 13 1
-2921.7527 2629.4951 1292.7041 0.122 -0.920 0.372 30 27 16
-2981.2322 2703.8140 1315.6732 0.589 -0.761 -0.271 42 55 47
-2933.0173 2703.8123 1279.0012 0.140 -0.800 0.584 30 82 129
-2899.7683 2726.6741 1246.8607 0.722 -0.522 -0.454 51 139 171
-2889.8401 2732.7944 1237.4751 0.009 -0.609 -0.793 57 138 169
-2879.8176 2730.6304 1230.5004 0.010 -0.607 -0.795 64 128 170
-2877.8391 2753.2480 1222.2177 -0.004 -0.578 -0.816 37 111 154
-3246.3647 3262.2566 1349.9860 0.250 -0.781 -0.573 58 44 35
-3189.9038 3210.8601 1322.4432 0.445 -0.577 -0.685 63 48 38
-3363.8105 3420.1890 1391.9883 -0.360 -0.867 -0.343 61 48 39
-2917.9470 3238.7041 1107.2466 0.967 -0.177 0.184 56 39 26
-2915.8076 3246.3357 1103.3324 0.967 -0.177 0.184 52 28 9
-2664.9705 3465.2639 846.9369 -0.422 -0.731 0.536 206 179 148
-2424.4163 3580.8779 629.3231 -0.044 -0.605 0.795 208 179 163
-2278.2695 3587.1379 516.2867 0.897 0.128 0.422 210 172 161
-2292.4456 3624.8730 515.7610 0.893 0.141 0.427 210 172 161
-2299.4961 4228.4443 340.2505 0.119 -0.962 0.244 205 159 147
-2656.3728 5616.3145 195.7885 0.317 -0.755 0.574 209 146 123
-2609.1394 5533.6548 184.6329 0.147 -0.850 0.506 210 146 122
-2588.8254 5535.4409 168.6470 0.146 -0.843 0.518 211 145 122
-2443.9961 5439.4180 87.2638 -0.558 -0.761 -0.330 184 119 92
-2314.2876 5443.4170 -12.5920 0.929 -0.321 -0.187 166 117 88
-2279.1038 5379.5269 -20.2070 0.942 -0.302 -0.148 166 117 88
-2254.4980 5367.0347 -35.1788 0.643 -0.253 0.723 173 126 97
-2202.0271 5357.7988 -72.3210 0.612 -0.265 0.745 200 159 141
-2133.2666 5303.4600 -108.3369 0.374 -0.719 -0.586 204 163 147
-1954.6984 5119.4253 -189.0074 0.284 -0.902 0.324 227 192 192
-1837.9645 5202.1465 -302.5854 0.719 -0.661 -0.214 247 227 232
-1835.0321 5220.9409 -310.4479 0.236 -0.892 -0.385 247 228 233
-1819.9327 5525.5903 -413.2274 0.775 -0.437 0.457 254 233 240
-1813.9318 5536.7681 -421.1414 0.780 -0.435 0.450 255 233 241
-992.8228 5842.2241 -1137.2203 0.040 -0.855 -0.517 224 141 130
-477.5192 3669.9526 -878.1964 0.915 -0.077 -0.397 255 69 104
-440.6357 4270.5649 -1086.2368 0.161 -0.624 -0.764 247 97 127
-152.4068 2410.3235 -748.0044 -0.309 -0.652 -0.692 236 79 92
-3395.5327 2863.4097 1572.1376 0.217 -0.869 0.445 38 31 28
-3392.2644 2868.6621 1568.0693 0.690 -0.175 0.703 41 34 32
-3373.0291 2859.2881 1556.2921 0.598 -0.219 0.771 40 33 31
-3372.4604 2867.0078 1553.5291 0.669 -0.166 0.725 33 27 24
-3056.9758 2668.4187 1373.9117 -0.516 -0.841 -0.165 37 30 22
-3042.3284 2662.2607 1364.6475 -0.492 -0.860 -0.137 38 31 22
-3045.0522 2704.1292 1354.0721 0.041 -0.748 0.662 16 15 11
-2974.7930 2659.5762 1314.1694 0.011 -0.733 0.680 16 13 11
-2938.9229 2632.3621 1295.1469 0.032 -0.742 0.670 18 14 13
-2986.0325 2702.1753 1309.8403 0.589 -0.761 -0.271 33 34 40
-2965.5576 2705.8735 1293.1742 0.358 -0.393 0.847 51 51 78
-2874.5730 2646.6819 1241.9529 0.820 -0.002 -0.573 43 88 129
-2880.0847 2675.9980 1237.2853 0.822 -0.001 -0.569 57 143 176
-2901.4360 2730.0125 1237.1881 0.769 -0.490 -0.410 55 106 150
-2898.4548 2735.1179 1233.3823 0.795 -0.454 -0.403 49 94 137
-3273.2876 3244.1191 1364.3281 -0.079 -0.645 0.760 61 46 63
-3200.3525 3204.7009 1320.8427 0.445 -0.577 -0.685 48 35 24
-3054.8630 3141.7378 1229.3673 0.317 -0.562 -0.764 27 21 13
-2795.3799 3508.0720 921.6757 0.359 -0.550 0.755 202 135 81
-2363.2283 3191.7515 689.0114 0.359 -0.831 -0.424 58 27 15
-2381.0674 3274.2434 677.6469 0.739 -0.011 -0.673 61 32 22
-2381.7292 3286.6472 674.4037 0.737 -0.013 -0.675 63 34 24
-2402.1108 3547.5479 611.0916 0.006 -0.641 0.768 153 133 118
-2117.0881 4903.8491 -14.9602 -0.158 -0.612 0.775 170 124 101
-2202.5344 5338.3262 -81.2789 0.255 -0.324 0.911 192 150 134
-2166.3052 5370.7935 -118.5978 0.545 -0.702 -0.459 204 162 147
-1904.9447 5300.2109 -295.7686 0.255 -0.967 -0.001 248 231 231
-1865.4392 5291.8467 -323.2445 0.823 -0.139 0.552 233 219 219
-1809.1869 5229.7266 -347.2046 0.798 -0.543 0.261 249 243 243
-1790.7902 5199.9629 -352.1873 0.865 -0.462 -0.197 249 244 244
-952.2133 5691.3496 -1137.4285 0.203 -0.613 -0.764 231 141 130
-3364.9592 2861.7800 1538.6223 -0.071 -0.671 0.738 34 24 20
-3060.3542 2673.2021 1365.0393 -0.185 -0.955 -0.231 42 35 29
-3069.7690 2697.8618 1364.6737 0.396 -0.751 -0.529 36 27 20
-2942.7000 2629.8594 1289.0162 0.044 -0.726 0.686 15 15 15
-2920.5745 2615.9817 1276.4625 0.303 -0.788 0.536 20 20 20
-2907.1350 2610.5276 1267.9316 0.354 -0.782 0.513 26 27 28
-2983.4055 2693.2329 1300.5962 0.585 -0.767 -0.263 32 30 37
-2965.8428 2707.7634 1282.8571 0.272 -0.495 0.825 42 54 81
-2906.6499 2728.8313 1231.5620 0.752 -0.495 -0.435 63 103 146
-2901.4949 2739.8799 1224.2909 0.791 -0.451 -0.413 42 75 109
-2869.9021 2748.2676 1197.7827 0.500 -0.651 -0.571 62 110 144
-3130.9753 3218.4470 1252.6613 0.720 -0.519 0.460 29 22 13
-2923.3975 3208.7178 1098.2235 0.974 0.071 0.213 41 41 36
-2750.1399 3483.4421 883.2454 0.417 -0.410 -0.811 199 129 77
-2748.6389 3492.9719 879.2070 0.417 -0.410 -0.811 202 132 82
-2761.4612 3557.6882 869.2355 -0.525 -0.742 0.417 213 146 100
-2450.7896 3255.2966 725.6876 -0.199 -0.783 0.589 77 44 30
-2434.8608 3254.4612 713.8636 -0.054 -0.695 0.717 62 30 19
-2381.9014 3210.3179 687.1400 0.431 -0.761 -0.485 50 17 4
-2375.1475 3211.4451 681.6757 0.410 -0.757 -0.509 53 21 10
-2563.9329 3676.8376 683.1978 0.328 -0.694 -0.641 210 177 168
-2518.7065 3632.2402 662.4763 -0.092 -0.864 -0.494 207 163 157
-2404.4866 3541.0676 603.6128 0.094 -0.629 0.772 33 19 8
-2286.6982 3426.0327 549.3053 0.512 -0.616 0.599 17 12 8
-2250.3115 3466.4429 509.4172 0.827 -0.027 -0.561 30 22 20
-2278.4116 3632.8044 480.0977 0.870 0.127 0.477 194 161 158
-2250.4580 5340.7798 -60.8641 0.625 -0.178 0.760 180 134 111
-2124.9612 5342.1426 -156.4386 0.256 -0.186 0.948 217 176 170
-1985.8540 5139.4922 -200.2485 0.055 -0.838 -0.543 227 188 189
-1896.2671 5223.9453 -293.8794 0.898 -0.176 0.403 254 232 234
-1852.9661 5230.4834 -328.7026 0.827 -0.136 0.545 239 223 223
-1806.8214 5227.3618 -362.7425 0.852 -0.495 -0.172 251 243 244
-956.0123 5613.6299 -1125.4275 0.334 -0.626 -0.705 232 150 140
-359.0843 3106.1350 -814.9827 0.665 -0.623 -0.411 250 77 116
-2919.4043 2616.3870 1265.7567 0.536 -0.806 -0.253 27 27 28
-2986.5452 2689.9783 1294.0225 0.578 -0.770 -0.270 31 31 37
-2966.5559 2678.2520 1282.4846 0.046 -0.941 0.335 51 52 64
-2838.6345 2582.8120 1214.9022 0.156 -0.610 -0.777 42 57 86
-2909.0613 2741.1011 1219.6840 0.769 -0.485 -0.417 114 141 169
-3126.5686 3186.2573 1247.8542 0.745 -0.446 0.496 38 31 21
-3186.3857 3261.9448 1269.9326 0.212 -0.452 0.866 32 29 21
-2999.2766 3179.9495 1153.4170 0.893 -0.380 0.241 25 24 19
-2711.0601 3420.7869 861.3609 0.511 -0.126 -0.850 190 117 60
-2717.0544 3440.3716 859.8937 0.483 -0.146 -0.863 190 117 64
-2488.5142 3278.3389 736.5536 -0.519 -0.824 -0.225 83 39 14
-2376.3784 3204.3188 674.3541 0.332 -0.739 -0.586 76 39 23
-2386.2544 3514.3040 586.7775 0.299 -0.685 0.665 17 13 5
-2367.6819 3497.1045 577.9906 0.301 -0.688 0.660 19 14 8
-2257.2314 3558.5830 475.5178 0.864 0.126 0.487 198 169 165
-2260.1248 3590.1973 468.0142 0.865 0.125 0.485 209 180 177
-2441.9138 5447.8433 36.0182 -0.187 -0.947 0.259 194 142 120
-2428.4822 5440.0786 28.2300 -0.190 -0.946 0.261 194 142 120
-2271.5227 5299.6216 -47.5329 0.703 0.009 0.711 182 136 113
-2175.0671 5300.9424 -120.9635 0.443 -0.318 0.838 204 162 146
-2157.4949 5305.3169 -135.6086 0.305 -0.401 0.864 204 162 147
-2145.5457 5299.0518 -142.7343 0.305 -0.401 0.864 194 154 147
-1948.2401 5063.8398 -219.9871 0.693 -0.439 0.572 230 191 192
-1936.1764 5080.6880 -234.2867 0.717 -0.429 0.549 230 191 192
-1803.2678 5165.1055 -360.7963 0.694 -0.710 0.119 253 241 243
-1763.4955 5095.7861 -369.6515 0.803 -0.507 0.313 252 242 243
-1015.3794 6146.9893 -1258.3831 0.540 -0.165 -0.826 220 131 117
-650.0544 6383.5142 -1607.4950 -0.416 -0.909 -0.030 255 117 135
-3652.1147 2947.7627 1707.5500 -0.195 -0.715 0.672 36 29 19
-3435.6582 2791.0864 1592.3334 0.040 -0.624 0.781 42 32 23
-3400.2354 2767.8198 1572.7451 0.161 -0.652 0.741 46 32 23
-3231.5442 2831.0598 1425.6896 -0.184 -0.754 -0.630 43 34 29
-2940.3408 2622.9414 1269.8643 0.226 -0.639 -0.735 19 20 23
-2937.6509 2628.0461 1266.2537 0.226 -0.639 -0.735 27 26 28
-2997.6558 2694.5320 1291.0709 0.354 -0.822 -0.446 29 32 36
-2876.5845 2606.6443 1226.7047 0.171 -0.673 -0.720 40 55 70
-2884.1384 2766.4358 1183.0457 0.728 -0.307 -0.613 87 133 163
-2971.4541 3140.2700 1133.5491 0.824 -0.175 0.539 25 24 19
-2942.5930 3126.5518 1115.9707 0.595 -0.579 -0.557 30 31 25
-2942.7515 3136.4329 1113.0376 0.606 -0.537 -0.587 31 32 26
-2934.4758 3146.3489 1103.7184 0.673 -0.642 -0.368 31 32 26
-2908.0520 3125.3884 1090.2200 0.500 -0.301 0.812 34 35 29
-2902.4133 3138.3083 1081.9659 0.808 -0.319 -0.494 34 34 28
-2908.2903 3204.7478 1065.8811 0.805 -0.240 -0.543 57 42 24
-2696.3486 3402.8892 844.4526 0.455 -0.129 -0.881 198 120 62
-2694.0786 3433.8821 833.1611 0.290 -0.426 -0.857 199 120 65
