ply
format ascii 1.0
element vertex 789
property float x
property float y
property float z
property float nx
property float ny
property float nz
property uchar diffuse_red
property uchar diffuse_green
property uchar diffuse_blue
end_header
-3601.9248 2898.5034 1294.4446 -0.355 -0.329 -0.875 82 128 171
-3602.2170 2909.4897 1292.2723 -0.353 -0.357 -0.865 72 92 114
-3142.0532 2645.4526 1116.8555 -0.211 -0.316 -0.925 108 52 26
-3138.7761 2652.3687 1113.7495 -0.211 -0.316 -0.925 108 52 26
-2872.2600 2634.9795 983.5426 0.823 -0.365 -0.436 151 131 124
-2873.0520 2654.9473 979.7255 0.582 -0.794 -0.176 155 132 124
-2868.2830 2669.7617 974.2028 0.384 -0.215 -0.898 165 116 86
-2902.6978 2722.1597 980.4297 0.626 -0.592 -0.508 171 113 76
-2834.0017 2675.7036 955.7283 0.629 -0.103 -0.771 167 109 72
-2878.7759 2788.6316 954.3820 0.957 0.054 -0.286 93 39 5
-2883.0955 2803.0120 953.5163 0.585 -0.653 -0.481 91 37 3
-2869.3323 2799.4453 947.3555 0.507 -0.788 0.349 100 44 9
-2778.5618 2911.4062 878.1259 0.378 -0.918 0.122 186 89 42
-2389.6858 3291.0449 602.6478 0.947 -0.032 0.319 146 102 75
-2390.2217 3303.7017 600.2453 0.946 -0.033 0.321 149 106 77
-2296.7896 3549.9358 501.3356 0.958 0.284 0.038 28 26 16
-2257.6616 3565.7468 478.3433 -0.581 -0.800 0.150 191 158 155
-2604.0371 5664.0864 209.4061 -0.423 -0.307 -0.852 144 99 76
-2395.3208 5703.4282 96.2585 0.546 0.143 -0.826 108 80 60
-2423.6580 5890.4019 71.0254 -0.242 -0.343 -0.907 109 82 62
-2394.7188 5842.7964 66.5373 -0.275 -0.390 -0.879 109 84 67
-1906.6893 5253.6445 -54.2499 -0.436 -0.900 0.001 222 200 203
-1905.8953 5296.7090 -63.7391 -0.258 -0.944 0.205 227 211 214
-1699.0746 4963.9780 -97.3953 0.822 0.176 -0.541 242 233 238
-1727.3937 5070.6553 -105.6880 0.822 0.176 -0.541 242 233 238
-4186.5869 2583.6714 1643.9070 0.635 -0.485 -0.601 7 20 32
-4195.7529 2599.6741 1645.0952 0.610 -0.471 -0.638 13 19 28
-4365.1172 2803.8340 1686.5024 0.829 -0.458 0.320 68 67 59
-3640.1943 2705.0039 1344.5687 -0.412 -0.863 0.293 112 153 189
-3519.9993 2703.5857 1284.6940 -0.324 -0.942 -0.086 62 41 34
-3769.2368 2997.4680 1347.0233 -0.219 -0.632 -0.744 130 180 216
-3176.7224 2661.1836 1121.8416 -0.168 -0.512 -0.843 105 51 33
-2991.7456 2693.0259 1022.4654 -0.118 -0.987 0.112 102 83 74
-2922.1340 2726.2905 980.5449 0.577 -0.059 -0.815 167 113 78
-2878.3000 2783.4285 946.4569 0.982 -0.125 -0.140 87 31 0
-2881.4387 2796.6055 945.2281 0.529 -0.765 0.366 110 54 19
-2869.7090 2795.0532 939.6854 0.516 -0.790 0.330 120 64 29
-2300.6155 3080.7825 594.0462 -0.152 -0.986 0.071 136 97 75
-2332.6785 3204.4524 583.8177 0.993 -0.068 0.093 153 109 80
-2338.4482 3235.8052 580.0436 0.992 -0.060 0.106 147 109 66
-2252.7373 3460.3496 489.4145 0.748 0.227 -0.624 29 29 24
-2316.0549 3585.6741 494.4822 0.953 0.275 0.126 28 15 10
-2606.4868 5654.5664 200.2304 -0.571 -0.433 -0.697 151 106 83
-2459.5510 5866.0225 81.7301 0.672 0.179 -0.718 111 80 58
-2441.3789 5845.6553 76.9604 -0.545 -0.463 -0.699 113 82 61
-1979.3413 5192.8267 -15.6290 0.828 0.189 -0.528 158 134 129
-1910.1786 5292.2798 -71.3903 -0.259 -0.946 0.193 218 199 203
-1901.4796 5336.1860 -85.0760 -0.405 -0.788 -0.464 233 221 225
-3754.7500 2981.0977 1332.7396 -0.082 -0.734 -0.675 131 182 208
-3749.6228 2987.9934 1328.7061 0.505 -0.818 0.276 116 169 194
-3118.9021 2646.1489 1087.1144 0.585 -0.186 -0.789 100 50 37
-2996.3611 2692.8394 1015.9794 -0.118 -0.987 0.112 111 88 78
-2869.1311 2661.6716 959.1608 0.736 -0.353 -0.577 168 116 90
-2870.2461 2770.7739 936.3770 0.944 -0.131 -0.304 106 50 12
-2873.4094 2783.9170 935.1437 0.550 -0.791 0.269 137 80 43
-2865.5164 2786.1401 930.7297 0.514 -0.826 0.232 143 86 49
-2854.2849 2785.0144 925.3661 0.070 -0.995 -0.074 149 92 56
-2400.8235 2946.5168 664.5441 -0.443 -0.892 0.092 170 98 47
-2426.3362 3131.7817 637.6412 0.571 -0.552 0.607 112 61 28
-2422.2981 3137.6990 634.3604 0.594 -0.546 0.591 105 61 33
-2444.5339 3178.4854 636.7303 -0.479 -0.878 -0.025 107 68 44
-2354.5928 3103.4006 607.9135 -0.586 -0.688 -0.429 147 115 98
-2298.6772 3083.0776 584.3601 -0.307 -0.933 -0.185 131 93 67
-2288.3115 3079.9390 579.8591 -0.314 -0.908 -0.278 131 93 67
-2276.3838 3074.5864 575.0525 -0.320 -0.942 -0.104 131 92 66
-2317.6467 3142.8145 581.0462 0.954 0.179 -0.241 126 88 62
-2299.2585 3139.8857 572.4973 0.594 -0.647 0.478 136 95 70
-2282.1589 3138.5767 564.2448 -0.059 -0.845 0.531 152 110 78
-2424.7893 3436.6460 571.6499 -0.064 -0.949 0.310 143 71 43
-2309.9456 3568.3379 486.1715 0.953 0.275 0.126 28 20 18
-2220.9153 3542.8386 447.2016 0.569 -0.822 0.027 190 160 156
-2691.9827 5737.0640 212.8500 -0.439 -0.388 -0.810 160 117 98
-2492.1951 5880.8003 82.4089 0.587 -0.056 -0.808 96 60 36
-2480.5146 5900.2324 72.4234 0.677 0.193 -0.710 97 65 40
-2281.8423 5622.6729 32.6664 0.868 -0.495 -0.024 112 84 62
-2239.5981 5539.5576 29.3678 0.879 -0.363 0.308 113 85 63
-2002.6230 5239.2852 -24.6429 0.798 0.155 -0.582 161 134 127
-1961.5073 5351.1841 -69.0976 -0.486 -0.874 -0.001 193 164 168
-1935.5817 5301.7510 -71.4590 -0.333 -0.939 0.091 199 171 176
-4113.4810 2451.4912 1614.7041 0.998 -0.032 0.055 1 22 31
-4142.8408 2489.0793 1621.2111 0.881 0.112 -0.459 4 21 28
-3719.6055 2980.9854 1304.7950 -0.095 -0.842 0.532 61 100 125
-3552.2258 2897.3413 1239.5657 -0.119 -0.827 0.550 184 166 158
-3168.0161 2635.6021 1104.8533 0.483 -0.568 0.667 110 61 49
-2876.4763 2654.5623 955.7803 0.608 -0.082 -0.790 162 130 122
-2856.0054 2644.8264 947.6962 0.178 -0.981 0.076 167 119 94
-2844.8257 2721.3684 925.6532 0.408 -0.881 0.240 95 43 10
-2858.2402 2774.2012 920.9472 0.992 -0.126 0.002 154 101 67
-2849.5027 2775.5239 916.3168 0.512 -0.829 0.225 152 101 67
-2844.2717 2780.3179 912.6831 0.187 -0.966 0.177 153 101 69
-2787.3057 2772.9172 885.9461 0.553 -0.812 -0.185 112 59 37
-2745.0439 2850.1987 848.2859 0.842 -0.087 0.532 170 93 48
-2422.5496 3131.9065 627.2367 0.575 -0.549 0.607 101 56 26
-2438.3401 3164.0676 628.1639 -0.658 -0.595 -0.461 100 59 34
-2359.1855 3125.8167 597.0356 -0.668 -0.681 -0.302 140 109 89
-2285.1519 3125.1731 560.3555 0.696 -0.650 0.306 141 103 73
-2330.6814 3439.9583 515.2104 -0.272 -0.940 0.205 13 6 4
-2154.8496 3257.0120 467.1617 0.007 -0.961 -0.275 13 12 10
-2201.3193 3503.2676 437.2420 0.734 -0.618 -0.280 190 160 156
-2194.9436 3505.7354 433.5397 0.762 -0.580 -0.287 192 159 154
-2157.5625 3457.4646 425.3441 0.723 -0.690 0.024 192 159 152
-2689.8459 5784.8545 188.8658 -0.517 -0.388 -0.763 149 107 85
-2619.4651 5697.8125 172.6079 -0.550 -0.460 -0.697 145 100 77
-2601.4575 5680.3042 167.4227 -0.525 -0.420 -0.741 143 98 75
-2407.7163 5528.2632 103.8119 -0.628 -0.717 -0.303 133 91 67
-2509.5437 5882.2466 78.2241 0.675 -0.102 -0.731 118 79 54
-2169.1953 5391.2163 14.7020 -0.124 -0.652 -0.748 113 85 63
-2014.0826 5254.0815 -32.9077 0.742 0.142 -0.655 161 134 127
-1828.8314 6092.8096 -305.6552 -0.058 -0.189 -0.980 245 236 241
-4211.9692 2438.6289 1655.9917 0.566 -0.088 -0.820 5 27 35
-4117.5693 2450.5476 1606.6173 0.999 -0.039 0.018 0 12 16
-3556.7820 2709.7322 1272.4736 0.117 -0.621 0.775 72 38 19
-3505.2466 2864.3337 1213.4177 -0.153 -0.835 0.529 185 164 148
-3398.5283 2785.6846 1177.5693 -0.282 -0.836 0.470 191 165 144
-3162.0090 2626.3303 1094.8772 0.469 -0.527 0.708 129 85 72
-2872.3960 2646.3213 946.9931 0.591 -0.786 -0.181 161 131 123
-2834.6917 2706.9011 915.1729 0.204 -0.953 0.225 106 58 30
-2846.1667 2777.4797 905.5620 0.403 -0.877 0.263 131 87 57
-2781.9441 2822.8914 863.8855 0.646 -0.515 0.564 51 28 17
-2428.2725 3155.8687 616.4063 -0.650 -0.539 -0.536 109 75 54
-2276.9658 3074.1538 559.1216 0.493 -0.789 -0.367 133 94 69
-2298.2385 3217.1807 538.6630 0.369 -0.660 0.654 158 83 51
-2181.7847 3291.5986 464.8100 -0.124 -0.970 -0.210 15 11 10
-2256.6526 3469.4570 463.3665 0.789 0.438 -0.432 32 22 23
-2208.2458 3506.8452 431.2685 0.604 -0.751 -0.265 189 160 156
-2185.7451 3483.1082 425.2610 0.742 -0.667 -0.070 190 159 154
-2726.1821 5871.7080 175.3787 -0.520 -0.347 -0.781 152 107 84
-2551.6108 5643.1602 138.3904 -0.608 -0.447 -0.656 143 97 73
-2409.2410 5538.7871 90.4469 -0.630 -0.714 -0.306 136 91 68
-2323.3264 5670.7471 19.2582 0.388 -0.876 0.285 110 84 61
-2216.7146 5473.0176 9.2748 -0.298 -0.659 -0.691 113 85 61
-1932.2571 5396.5229 -115.1396 -0.434 -0.245 -0.867 203 188 193
-4202.2339 2429.5120 1642.7274 0.504 -0.186 -0.843 0 16 20
-3502.7065 2857.7283 1203.7301 -0.153 -0.835 0.529 183 159 144
-2912.7090 2584.4026 971.8998 -0.336 -0.938 -0.087 78 56 45
-2872.0662 2641.6311 939.3361 0.405 -0.913 -0.042 161 129 122
-2857.2029 2694.9634 920.3578 0.825 -0.210 -0.524 89 46 25
-2831.1743 2698.9253 906.6352 0.246 -0.924 0.292 118 74 50
-2299.0005 3120.6851 551.7203 0.505 -0.818 0.275 139 99 78
-2395.9749 3460.4478 525.4988 0.100 -0.698 0.709 90 48 29
-2387.1965 3459.9827 521.2635 0.099 -0.707 0.701 65 26 13
-2379.7256 3461.4146 517.2605 0.093 -0.712 0.696 43 11 1
-2368.4084 3457.0916 512.6130 -0.029 -0.699 0.715 37 8 0
-2361.9851 3460.0088 508.8033 -0.095 -0.717 0.691 30 6 0
-2348.3459 5693.3726 14.8022 0.716 -0.536 0.447 95 67 46
-2286.3882 5563.3545 12.5612 0.381 -0.897 0.225 103 77 54
-1964.0752 5469.8887 -126.2717 -0.440 -0.290 -0.850 220 205 210
-1916.5507 5358.1172 -125.3635 -0.478 -0.297 -0.827 212 197 202
-4163.5811 2471.5845 1604.0621 -0.038 -0.796 -0.604 8 15 10
-4552.3730 2739.4712 1736.6609 -0.139 -0.393 -0.909 11 14 9
-4552.2109 2750.2300 1734.2188 -0.138 -0.397 -0.908 11 14 9
-4509.2676 2734.5938 1716.5088 -0.043 -0.536 -0.843 17 18 13
-4449.2319 2761.9580 1680.9414 0.292 -0.090 -0.952 59 58 44
-4317.4897 2973.0962 1569.7151 0.532 0.161 -0.831 111 161 206
-3569.5618 2721.4880 1256.7201 0.035 -0.944 0.328 65 41 31
-3439.1299 2649.4797 1208.3135 0.965 -0.232 -0.122 73 77 94
-3118.3044 2590.5642 1063.2911 0.665 -0.489 0.565 189 160 141
-2962.4492 2577.9297 989.3298 0.496 -0.610 0.618 84 60 48
-2922.4463 2589.0117 967.2007 0.991 -0.129 0.033 75 55 46
-2874.6594 2639.6990 932.5426 0.407 -0.913 -0.019 150 116 112
-2868.2336 2701.0713 915.9025 0.894 -0.281 -0.349 98 61 43
-2851.9143 2773.7761 891.9027 0.693 -0.657 0.297 65 37 13
-2362.6934 3429.0374 507.1481 0.758 -0.449 -0.473 81 33 15
-2351.8369 3437.6890 499.9032 -0.104 -0.736 0.669 41 7 0
-2191.8596 3257.5505 460.6936 -0.322 -0.770 -0.551 10 11 8
-2328.9929 5629.8071 7.3003 0.832 -0.455 0.318 79 51 29
-2254.6682 5491.6748 1.0381 0.248 -0.907 0.340 91 63 41
-1957.6649 5458.0854 -137.8166 -0.479 -0.298 -0.826 224 209 214
-4466.0332 2747.0308 1681.2314 -0.178 -0.572 -0.801 57 60 41
-4294.0317 2929.9290 1556.4110 0.976 0.148 -0.157 110 161 203
-3552.7573 2694.2490 1244.7502 -0.555 -0.738 -0.384 76 38 21
-3854.0493 3004.2898 1324.0780 -0.176 -0.834 0.523 79 99 130
-3342.9795 2736.4004 1132.4967 0.316 -0.749 0.582 188 156 136
-3110.4429 2579.8101 1052.9960 0.381 -0.627 0.679 185 162 141
-2856.9246 2685.7073 905.1919 0.471 -0.413 -0.779 94 62 49
-2766.2129 2822.2285 830.5093 0.564 -0.783 0.262 61 29 10
-2769.7061 2835.9910 829.1820 0.214 -0.972 0.098 79 42 19
-2761.5415 2837.5833 824.8238 0.085 -0.991 0.108 97 49 24
-2743.5640 2828.8179 817.9393 0.347 -0.918 0.191 152 78 35
-2296.8674 3116.4517 535.1800 0.505 -0.818 0.275 148 108 79
-2360.9287 3419.3474 499.6773 0.723 -0.355 -0.593 119 62 36
-2346.8699 3423.1694 491.9339 -0.119 -0.740 0.662 64 24 5
-2334.4138 3416.9392 487.1985 -0.119 -0.740 0.662 49 22 5
-2170.4331 3253.3989 442.8742 -0.244 -0.907 -0.344 14 10 9
-2249.7913 3461.6426 435.7951 0.972 0.142 -0.189 30 20 18
-2598.1353 5792.3560 91.6585 -0.541 -0.394 -0.743 147 100 76
-2344.1326 5560.6768 18.2183 0.808 -0.295 -0.509 133 97 73
-2343.5247 5581.6187 13.2921 0.812 -0.275 -0.514 130 96 71
-2323.3743 5600.2271 -0.7081 0.790 -0.562 0.245 101 73 51
-2266.6091 5483.3701 -2.7383 0.670 -0.561 0.486 86 60 37
-2262.1873 5494.7139 -7.4151 0.392 -0.806 0.444 84 56 34
-2003.6060 5407.9199 -115.1204 -0.464 -0.886 0.029 181 151 155
-4069.6240 2427.1641 1547.2643 0.986 0.003 -0.168 20 13 0
-4605.6064 2764.3701 1734.3945 0.577 -0.583 0.572 21 15 4
-4468.8994 2744.9648 1671.8530 0.193 -0.837 -0.512 70 69 46
-4410.7876 2719.2625 1649.1495 0.285 -0.846 -0.451 77 76 51
-4353.5645 2833.5251 1595.7528 -0.279 -0.822 0.496 114 104 89
-3689.7693 2713.7402 1297.7616 -0.434 -0.859 0.272 110 153 192
-3589.3884 2718.4460 1247.6235 -0.521 -0.744 -0.419 75 39 21
-3546.7922 2695.5562 1231.8824 -0.539 -0.746 -0.391 66 40 31
-3032.9624 2622.5771 996.8226 -0.125 -0.199 -0.972 89 57 39
-3017.0017 2617.9829 990.0388 -0.414 -0.416 -0.810 94 68 54
-3016.9402 2627.4595 987.9012 -0.309 -0.421 -0.853 91 67 54
-3012.5349 2633.0872 984.4952 -0.281 -0.464 -0.840 84 61 48
-3005.4138 2636.2834 980.3018 -0.270 -0.460 -0.846 78 55 43
-2902.1458 2628.0715 931.6245 0.462 -0.525 -0.715 125 93 89
-2876.8125 2633.0168 918.1354 0.453 -0.890 0.051 94 66 59
-2844.6140 2621.7644 904.8911 0.795 -0.332 -0.508 75 49 38
-2871.7922 2666.5200 908.2292 0.873 -0.336 -0.355 64 38 27
-2877.1299 2690.9004 905.4174 0.438 -0.356 -0.825 71 45 35
-2874.6721 2698.2493 902.5811 0.439 -0.367 -0.820 71 46 34
-2820.9688 2685.1279 879.2355 0.271 -0.869 0.413 64 39 27
-2779.5110 2831.1824 826.4783 -0.021 -0.999 -0.035 91 49 21
-2775.4790 2837.1091 823.1884 0.036 -0.990 -0.133 110 61 30
-2767.1421 2838.5312 818.7949 0.080 -0.997 -0.006 125 69 34
-2749.3340 2829.9714 811.9895 0.399 -0.884 0.243 153 78 32
-2293.8835 2943.9414 563.9035 0.991 0.098 0.095 124 78 50
-2288.4163 3120.8289 521.8905 0.292 -0.762 0.578 131 90 54
-2183.5007 3290.2422 432.9041 0.587 0.124 -0.800 21 22 17
-2354.6738 3644.9158 437.7385 0.917 0.397 0.052 29 20 21
-2318.6750 5550.6333 -3.6929 0.909 -0.328 -0.259 126 96 72
-2074.0269 5289.7900 -65.3281 -0.116 -0.158 -0.981 169 142 133
-1234.0851 3189.0403 -8.9033 -0.209 -0.128 -0.969 194 165 159
-2014.7098 5421.9214 -123.7228 -0.488 -0.873 0.014 194 162 164
-2035.4668 5619.7104 -157.5594 -0.080 -0.889 -0.451 240 222 225
-1630.5974 4619.3442 -133.0833 0.643 -0.558 -0.525 230 219 225
-4415.6416 2592.6392 1668.7642 -0.422 -0.322 -0.847 19 20 7
-4509.2632 2691.0569 1692.3702 0.769 -0.445 0.458 30 20 8
-4307.8394 2734.9492 1584.3717 0.751 -0.661 0.004 120 106 95
-4304.8828 2797.2561 1568.9863 0.715 -0.374 0.591 114 106 80
-3622.9001 2740.1648 1249.3600 -0.467 -0.729 -0.501 73 38 23
-3594.4275 2728.3298 1238.1309 -0.520 -0.816 -0.252 67 41 33
-3507.7913 2671.1790 1208.6941 -0.533 -0.760 -0.372 84 68 70
-3058.1724 2640.5996 996.3900 -0.125 -0.199 -0.972 84 52 34
-3045.0273 2638.5779 990.4356 -0.374 -0.415 -0.830 85 56 41
-3025.4932 2640.3936 980.5081 -0.214 -0.362 -0.907 84 57 43
-2900.6377 2622.3767 923.6848 0.585 -0.490 -0.646 126 86 80
-2899.0669 2630.4087 921.1216 0.582 -0.489 -0.650 120 84 77
-2894.1870 2635.3813 917.6302 0.584 -0.509 -0.632 108 75 67
-2876.0911 2628.0132 910.4591 0.489 -0.872 0.003 91 62 53
-2867.7969 2629.7385 906.0304 0.126 -0.987 0.095 82 61 50
-2864.1394 2635.7979 902.8915 0.145 -0.986 0.082 78 57 47
-2864.2405 2664.5339 896.5098 0.996 0.009 -0.083 56 35 27
-2908.6448 2716.4907 906.5249 0.975 -0.089 -0.205 54 33 24
-2898.1914 2716.2744 901.4782 0.935 -0.317 0.157 53 33 23
-2921.9990 2748.9263 905.7747 0.689 -0.668 0.279 50 32 21
-2834.9160 2674.8828 879.9006 0.296 -0.915 0.276 44 39 24
-2707.6294 2626.5845 828.6694 0.652 -0.757 0.036 40 30 15
-2784.8704 2831.8645 820.3756 0.014 -1.000 0.017 131 75 38
-2777.0391 2833.8345 816.1178 0.015 -1.000 0.016 141 81 41
-2768.9658 2835.5271 811.8039 0.097 -0.995 0.009 149 84 41
-2741.0247 2816.3491 802.4773 0.480 -0.855 0.196 162 85 38
-2283.4929 2914.2305 557.5670 0.970 -0.002 0.243 136 77 40
-2280.1094 2920.2126 554.5791 0.970 0.001 0.243 128 74 41
-2270.1689 2917.5874 550.3215 0.992 0.049 0.114 121 80 51
-2379.8423 3195.6636 541.5438 -0.667 -0.608 -0.430 120 96 80
-2371.0613 3195.0273 537.4062 -0.616 -0.690 -0.380 124 99 83
-2297.8416 3127.7014 516.7860 0.310 -0.868 0.387 131 97 67
-2220.5684 3041.9893 498.3048 -0.287 -0.811 -0.509 129 83 50
-2210.6665 3038.9949 494.1487 -0.295 -0.911 -0.288 137 80 47
-2198.4136 3032.6292 489.6012 -0.360 -0.902 -0.240 149 82 49
-2188.7275 3255.8469 434.9241 0.927 -0.017 0.374 14 10 7
-2306.3032 5617.3647 -36.2753 -0.289 -0.284 -0.914 127 99 75
-2000.9017 5148.5566 -80.2112 0.338 0.064 -0.939 187 160 153
-2023.7634 5430.2412 -132.1092 -0.486 -0.874 0.011 189 156 155
-4517.6289 2703.0676 1682.5376 0.549 -0.422 0.722 40 30 18
-3629.4214 2741.0359 1242.5271 -0.330 -0.695 -0.639 72 40 27
-3589.9468 2720.7280 1227.9249 -0.485 -0.818 -0.310 71 39 36
-3535.5967 2688.6877 1208.7390 -0.524 -0.811 -0.260 88 66 72
-3818.9531 2962.7893 1284.6562 -0.108 -0.792 0.601 115 172 213
-3772.6936 2937.0696 1267.9771 0.432 -0.616 0.658 117 170 208
-3855.2495 3149.3499 1260.2744 -0.531 -0.478 -0.700 180 157 141
-3322.2441 2766.3623 1087.6077 -0.548 -0.522 -0.654 192 165 148
-3087.9587 2643.3174 1001.5096 -0.247 -0.260 -0.934 145 117 98
-3084.5388 2649.9409 998.3566 -0.252 -0.262 -0.932 112 84 66
-2898.6804 2616.2864 915.6522 0.712 -0.566 -0.415 118 72 63
-2895.3706 2622.6826 912.6039 0.712 -0.566 -0.415 108 69 60
-2891.6936 2628.7454 909.4523 0.734 -0.591 -0.335 98 65 54
-2816.8345 2587.0503 882.4782 0.816 -0.571 0.095 70 54 46
-2940.0088 2741.8533 907.4504 0.768 -0.606 0.206 47 32 24
-2276.3311 2909.6360 547.2744 0.838 -0.379 0.393 125 65 24
-2264.7495 2904.8359 542.7294 0.876 -0.202 0.437 103 57 22
-2207.2136 3038.9216 484.5845 -0.286 -0.859 -0.425 147 81 49
-2407.5164 3417.2925 496.6756 0.042 -0.271 -0.962 161 80 31
-2163.3108 3233.7600 419.3806 -0.422 -0.795 -0.436 17 13 10
-2230.2927 3384.5908 417.9510 0.582 0.175 -0.794 33 32 30
-2240.6531 3412.9578 416.5955 0.582 0.175 -0.794 29 29 31
-2163.1819 3489.5779 361.7079 0.377 -0.767 0.519 193 159 150
-2087.6453 5316.0024 -86.2950 -0.140 -0.958 0.248 176 147 141
-2016.4064 5152.6538 -84.1143 0.255 -0.163 -0.953 182 153 147
-2045.1533 5270.7729 -96.7504 0.108 -0.333 -0.937 190 163 156
-2009.2588 5397.0029 -142.6137 -0.428 -0.773 -0.467 188 157 157
-1700.3480 4938.0190 -189.3088 0.304 -0.937 0.171 227 216 222
-1689.3828 4926.9307 -192.1383 0.140 -0.983 0.117 227 216 222
-4570.7363 2625.1760 1714.6963 0.214 -0.958 0.192 27 25 13
-4225.5698 2684.5396 1534.1407 0.563 -0.469 -0.681 128 113 95
-4208.2935 2704.5776 1521.2362 0.960 0.074 -0.271 132 117 99
-3754.7727 2719.3984 1298.3170 0.740 -0.040 -0.671 117 168 216
-3725.8950 2718.3550 1284.5730 -0.440 -0.883 0.163 118 171 219
-3634.4265 2740.7385 1235.2188 -0.004 -0.784 -0.621 70 41 27
-3583.2634 2721.5271 1214.8026 -0.438 -0.875 0.205 89 65 72
-3812.7751 2953.3938 1273.3749 -0.108 -0.792 0.601 122 180 222
-3628.7373 2934.9128 1188.4651 0.633 -0.480 -0.607 172 150 136
-3625.6965 2943.1604 1185.1241 0.633 -0.480 -0.607 172 150 136
-3724.1863 3057.9392 1206.7970 -0.512 -0.438 -0.739 174 148 131
-3405.3323 2842.8096 1101.1794 -0.544 -0.473 -0.693 179 152 135
-3355.4539 2810.5789 1084.3352 -0.532 -0.455 -0.714 179 152 135
-3326.3918 2795.9175 1073.5879 -0.537 -0.465 -0.704 184 157 138
-3268.4590 2756.2703 1054.5250 -0.533 -0.462 -0.709 186 159 140
-3178.8806 2708.5967 1021.9605 -0.560 -0.486 -0.671 185 158 139
-3120.5986 2667.5894 1003.0369 -0.560 -0.486 -0.671 175 148 129
-2895.0232 2618.0759 905.0497 0.654 -0.606 -0.453 86 53 38
-2888.3123 2621.3079 901.0684 0.667 -0.591 -0.454 76 47 31
-2876.8445 2620.0986 895.7905 0.539 -0.654 -0.530 69 43 29
-2707.7493 2627.2454 812.3077 0.293 -0.645 -0.706 35 17 0
-3042.0686 3055.4080 877.1400 -0.133 0.076 -0.988 145 80 34
-2308.6145 2666.9897 610.0704 0.975 -0.164 0.150 169 98 54
-2270.1792 2906.3328 537.2286 0.888 -0.152 0.435 91 43 11
-2358.9182 3177.0752 518.8401 -0.679 -0.610 -0.408 89 71 57
-2383.8059 3400.3726 480.2903 0.690 -0.553 -0.467 171 85 38
-2154.9539 3202.6804 414.2937 -0.099 -0.769 0.631 14 10 7
-2165.9976 3231.0769 413.2055 -0.329 -0.901 -0.285 17 13 10
-2176.9639 3259.5229 412.0690 0.485 -0.642 -0.594 21 17 14
-2191.3738 3293.4202 411.3641 0.354 -0.920 -0.169 28 24 21
-2431.3618 5639.6387 -4.0972 0.928 -0.370 0.051 135 99 75
-2332.4319 5695.9263 -64.7464 -0.332 -0.385 -0.861 145 120 100
-2027.6223 5430.7734 -152.2296 -0.425 -0.780 -0.459 188 157 158
-1649.5221 5213.5347 -286.0521 0.073 -0.986 0.150 230 215 222
-4202.9023 2697.2065 1509.6379 0.957 -0.155 -0.244 131 117 98
-4188.2847 2698.0422 1502.3947 0.681 -0.700 -0.214 127 115 97
-4197.7329 2725.1667 1500.7692 0.624 -0.390 -0.677 88 82 65
-3761.1238 2720.0381 1291.2793 0.740 -0.040 -0.671 116 168 215
-3741.6172 2725.9797 1280.5131 -0.428 -0.884 0.188 119 171 217
-3647.6902 2746.7822 1230.4514 0.805 -0.353 0.477 70 41 27
-3616.0652 2732.6230 1218.4209 -0.171 -0.900 0.400 70 40 37
-3579.2795 2714.3237 1204.8442 -0.167 -0.897 0.408 89 66 73
-3505.8464 2697.1738 1173.3237 0.200 -0.737 -0.645 111 164 198
-3850.5859 2978.6721 1275.4774 -0.137 -0.798 0.587 109 166 211
-3701.8337 3001.4475 1198.5135 0.560 -0.802 0.207 167 145 131
-3399.1753 2874.6165 1081.4005 -0.555 -0.477 -0.681 189 162 143
-3211.8787 2742.8813 1021.0665 -0.545 -0.465 -0.698 187 160 141
-3169.8062 2716.0576 1006.8826 -0.542 -0.466 -0.699 179 152 133
-2767.5537 2682.0366 820.5566 -0.116 0.097 -0.988 55 26 1
-2930.9546 2874.4626 855.5242 -0.136 0.060 -0.989 97 51 26
-2781.8835 2735.0408 815.3862 0.538 -0.598 -0.594 104 54 31
-2751.4207 2723.8303 803.2440 0.958 0.285 -0.021 122 62 36
-2710.3972 2759.9639 775.2126 0.947 -0.069 0.315 157 85 37
-2417.4890 2751.2522 635.8737 -0.120 -0.890 0.439 153 75 32
-2268.9761 2909.4905 528.1409 0.737 -0.349 0.578 87 45 18
-2179.2917 3221.2568 413.7891 -0.077 -0.772 0.631 14 10 7
-2169.2617 3229.2834 407.1196 -0.117 -0.935 0.335 16 12 9
-2175.4465 3250.3772 405.2945 0.148 -0.683 -0.715 21 17 14
-2185.2844 3277.1804 403.9303 0.103 -0.932 -0.347 28 24 21
-2243.9299 3379.1548 408.9768 0.749 -0.652 0.117 33 29 28
-2186.9746 4669.3149 87.3508 0.889 -0.380 0.256 166 129 111
-2114.3691 4582.2046 72.1798 0.986 0.084 -0.146 166 130 108
-2394.9438 5695.4448 -46.2556 -0.344 -0.279 -0.897 127 100 79
-2249.5938 5387.4858 -46.1733 -0.416 -0.615 -0.670 130 102 80
-2122.6763 5375.4238 -104.6595 -0.094 -0.994 0.059 174 143 138
-1998.9305 5358.8945 -160.5970 0.137 -0.988 0.071 194 166 168
-1602.4661 4678.9844 -196.8728 0.584 -0.670 -0.458 221 210 216
-4021.3376 2371.7534 1486.3461 0.572 -0.612 0.547 45 35 23
-4202.1328 2703.2834 1497.2346 0.298 -0.886 -0.354 78 65 51
-4112.9766 2908.8728 1407.2043 0.772 -0.384 -0.506 102 152 200
-3755.2913 2732.0630 1275.7668 -0.408 -0.876 0.257 109 163 210
-3609.1301 2723.1604 1207.5266 -0.154 -0.901 0.405 69 39 36
-3846.6953 2971.0798 1264.8923 0.893 -0.180 -0.414 108 166 211
-3973.5320 3256.1963 1260.4813 -0.486 -0.377 -0.788 155 128 111
-3932.4211 3233.6953 1245.8744 -0.486 -0.377 -0.788 156 129 112
-3225.1162 2770.0452 1012.1168 -0.347 -0.207 -0.915 168 141 122
-2756.1311 2723.9644 797.1730 0.887 0.402 -0.228 140 68 40
-2240.5142 2876.8508 514.1661 -0.008 -0.765 0.644 72 36 9
-2231.9097 3055.2664 469.1030 0.008 -0.969 -0.246 147 81 49
-2174.0898 3229.8706 401.2485 -0.060 -0.920 0.388 16 11 8
-2177.7405 3247.0742 399.0577 0.228 -0.714 -0.662 15 11 8
-2145.9204 3476.2861 331.1792 0.454 -0.631 0.629 194 161 152
-2168.5862 4635.3145 76.2157 0.807 -0.305 0.505 174 137 118
-2127.7317 5372.8804 -112.6153 -0.061 -0.995 0.085 169 138 133
-2088.3604 5293.4033 -113.3165 -0.190 -0.982 0.011 176 145 140
-2015.0579 5364.1885 -164.8013 -0.022 -0.999 0.039 184 153 154
-1605.7740 4673.8267 -203.2497 0.599 -0.680 -0.423 229 218 224
-4209.6328 2403.9475 1559.2802 0.260 -0.526 -0.810 33 31 19
-4350.6611 2679.9119 1563.1792 0.371 -0.120 -0.921 117 101 78
-4172.1787 2648.9751 1484.7854 0.115 -0.155 -0.981 98 86 68
-4210.3818 2704.8445 1490.2000 0.224 -0.901 -0.371 54 40 31
-4201.8281 2720.1084 1482.5784 0.254 -0.874 -0.415 39 28 26
-3886.1770 2803.9048 1311.9725 -0.443 -0.872 0.210 107 159 210
-3826.1294 2770.0977 1290.9980 0.381 0.058 -0.923 106 164 217
-3763.7974 2734.3013 1269.3878 -0.411 -0.876 0.252 105 161 210
-3579.1638 2706.0361 1187.4298 -0.165 -0.894 0.416 80 56 63
-3841.0344 3129.4705 1215.2070 0.996 -0.078 -0.032 152 126 109
-3966.6606 3257.2529 1245.9214 0.503 -0.692 0.517 149 122 105
-3645.4597 3043.8857 1141.2334 0.700 -0.692 0.179 149 122 105
-3080.5569 2667.9785 957.2676 0.975 -0.213 0.071 156 123 106
-2841.2832 2726.2583 829.1523 -0.094 0.100 -0.991 97 37 23
-2819.1475 2723.9526 819.0765 0.897 -0.440 0.039 120 67 33
-2808.4756 2742.6228 809.6536 0.233 -0.937 -0.259 143 71 40
-2789.3296 2733.2571 802.6396 0.610 -0.611 -0.505 148 68 41
-2436.6890 2753.7739 628.9109 -0.174 -0.895 0.410 144 63 18
-2253.4685 2878.0444 512.4287 -0.165 -0.812 0.559 97 52 24
-2182.5400 3235.9404 395.8450 -0.091 -0.931 0.354 14 10 7
-2198.1599 3283.1140 392.4439 -0.038 -0.300 -0.953 15 11 8
-2404.9504 4905.0449 117.2437 0.381 -0.913 -0.146 176 139 121
-2739.2720 6263.6025 -36.0607 -0.204 -0.245 -0.948 147 111 85
-2199.4309 5299.5630 -72.2906 0.621 0.160 -0.767 151 124 103
-2249.5884 5444.2905 -81.6534 0.613 0.159 -0.774 154 129 109
-2033.4349 5397.7915 -174.5087 -0.204 -0.972 0.114 185 154 154
-1963.9680 5231.9570 -169.5287 0.777 -0.149 0.612 186 158 160
-1589.2832 4610.0303 -205.5625 0.398 -0.880 -0.258 235 224 230
-1945.1860 5970.2578 -348.9100 0.189 -0.975 -0.119 235 220 227
-1851.6759 5728.9419 -338.0330 -0.547 -0.777 -0.313 223 208 215
-4021.7625 2318.9348 1479.0853 -0.202 -0.927 0.316 30 26 15
-4017.9124 2325.9155 1475.6259 0.148 -0.988 0.048 30 26 14
-4235.7861 2707.1621 1491.1710 0.147 -0.822 -0.551 44 30 13
-4235.9951 2717.7522 1488.8123 -0.087 -0.845 -0.528 39 25 16
-4223.2271 2719.8564 1482.2256 -0.055 -0.857 -0.512 41 27 24
-4223.5151 2741.0342 1477.4468 0.290 -0.902 -0.319 36 30 31
-4223.4272 2751.5127 1474.9718 0.604 -0.746 -0.281 27 29 28
-4240.6797 3014.5503 1422.1444 0.970 -0.186 -0.159 100 154 203
-3985.3115 2840.4702 1340.5961 0.777 -0.407 -0.479 105 158 205
-3902.4451 2811.6978 1307.6991 -0.429 -0.873 0.234 105 160 208
-3692.3242 2687.3984 1236.2036 -0.430 -0.863 0.265 99 146 188
-3613.7358 2638.8916 1209.9314 -0.424 -0.863 0.273 99 132 163
-3769.8086 3021.2480 1195.7029 0.440 -0.885 0.152 153 132 115
-3087.9067 2699.2866 944.7756 -0.507 -0.859 -0.066 152 121 103
-2728.7002 2687.1484 776.0377 0.653 -0.749 -0.113 167 70 40
-2455.1162 2760.2695 628.3989 -0.273 -0.942 0.194 150 69 24
-2442.1875 2755.1453 623.4138 -0.393 -0.897 0.203 143 63 18
-2426.8760 2747.1926 617.9473 -0.393 -0.897 0.203 138 61 15
-2335.1250 2669.2043 592.2332 -0.595 -0.802 0.050 160 89 46
-2225.4277 3189.5173 419.0456 0.947 -0.099 0.306 160 84 49
-2255.7329 3375.9966 390.2260 0.661 -0.743 0.105 13 12 10
-2208.1375 3524.9819 332.9060 -0.579 -0.661 -0.478 174 138 130
-2410.3916 4904.0376 109.3387 0.381 -0.913 -0.146 177 139 124
-2745.0857 6260.2368 -45.6694 -0.164 -0.731 -0.662 153 117 93
-2196.2473 5277.0137 -79.5266 0.659 0.164 -0.734 151 124 103
-2203.9626 5317.1641 -85.1632 0.609 0.121 -0.784 153 128 108
-2206.3889 5344.5557 -90.3636 0.547 0.077 -0.834 153 130 112
-1885.5348 5816.2075 -353.1018 -0.507 -0.849 -0.146 223 208 215
-3952.0381 2302.0579 1440.0760 -0.250 -0.934 0.254 69 63 49
-4217.2202 2499.1113 1520.2743 0.550 0.309 -0.776 97 85 71
-4248.6416 2538.0244 1526.1420 -0.095 -0.805 -0.585 118 106 92
-4208.8945 2654.9133 1479.9243 0.995 0.091 -0.049 48 38 24
-4315.2529 2755.0110 1507.1708 0.893 -0.281 -0.351 38 27 14
-4280.7217 2743.1003 1493.5165 0.111 -0.806 -0.582 35 26 19
-4220.1230 2713.9668 1471.4773 0.464 -0.682 -0.565 38 28 26
-4313.0137 2839.3687 1486.4034 0.804 -0.232 -0.547 14 27 18
-4309.4272 2880.5449 1475.0798 -0.169 -0.986 -0.009 9 19 19
-4312.1440 2893.3708 1473.3776 -0.204 -0.972 -0.113 6 18 16
-4253.0327 2974.0852 1426.3917 0.912 -0.402 0.076 72 99 121
-4262.1401 2991.7837 1426.5931 0.826 -0.493 0.274 82 120 155
-4197.0464 2967.4734 1401.2878 0.357 -0.750 0.557 92 142 187
-3910.8384 2813.6963 1300.9749 -0.432 -0.874 0.223 109 159 206
-3837.4956 2770.2615 1276.2097 -0.439 -0.872 0.218 111 163 209
-3768.6113 2729.7510 1252.8838 -0.440 -0.872 0.216 110 160 204
-3700.4534 2689.4333 1229.8585 -0.428 -0.874 0.229 103 146 184
-3624.2686 2642.8022 1204.4872 -0.437 -0.877 0.199 101 132 159
-3651.5977 2733.2708 1196.3666 0.275 -0.248 -0.929 71 39 26
-3652.4763 2795.2104 1182.3190 0.701 -0.201 -0.685 97 148 181
-3838.1824 2950.9126 1234.3463 -0.171 -0.914 0.367 98 152 194
-3842.8555 3213.2817 1175.2953 0.232 -0.973 -0.003 146 119 100
-3710.4351 3111.8992 1135.9442 0.361 -0.933 -0.014 147 120 101
-2443.7732 2752.0066 617.1000 -0.400 -0.901 0.166 141 64 21
-2429.9744 2745.8137 611.9784 -0.394 -0.903 0.172 135 61 17
-2214.4233 2856.4412 483.5455 0.471 -0.488 0.735 57 35 21
-2187.0444 3071.6160 420.2607 0.614 0.257 -0.746 182 104 56
-2218.4543 3184.1877 408.9202 0.899 -0.435 -0.058 115 57 37
-2247.5002 3368.4756 379.7055 -0.451 -0.487 -0.748 22 21 19
-2237.6663 3365.4968 375.7206 -0.451 -0.487 -0.748 23 24 26
-2771.0808 6303.4214 -56.5298 -0.120 -0.651 -0.750 157 123 102
-2218.5281 5316.6304 -89.0684 0.552 0.119 -0.825 143 116 95
-2234.9934 5378.2500 -95.6223 0.551 0.095 -0.829 148 123 103
-2246.2261 5471.2676 -111.9998 0.536 0.078 -0.841 158 135 119
-2299.6890 5626.2329 -122.7445 0.385 -0.458 -0.801 158 135 119
-2035.5874 5416.3477 -199.4316 -0.030 -0.958 0.284 169 144 144
-2011.8401 5374.4111 -200.9406 -0.137 -0.990 -0.044 169 147 149
-1948.4808 5223.9438 -195.9567 -0.369 -0.318 -0.874 172 151 150
-4035.2942 2357.7090 1456.8844 -0.504 -0.771 -0.389 126 119 101
-4320.1177 2567.8801 1542.6152 0.227 0.054 -0.972 127 118 101
-4212.0908 2973.9395 1395.9778 0.313 -0.764 0.565 69 103 134
-4199.7910 2976.2256 1389.6063 0.321 -0.770 0.551 81 115 148
-4053.4927 2881.4802 1342.4680 0.841 -0.523 -0.136 101 134 163
-3873.0642 2792.2976 1277.8333 -0.444 -0.860 0.250 114 158 197
-3787.2368 2739.4443 1249.5378 -0.445 -0.862 0.240 107 150 188
-3714.2039 2695.6228 1225.1895 -0.445 -0.869 0.215 98 135 169
-3731.4453 3035.5483 1153.5098 0.882 0.381 -0.276 141 115 98
-2711.8191 2623.5410 766.6420 -0.262 -0.097 -0.960 166 76 38
-2717.1758 2638.2158 765.7354 -0.281 -0.119 -0.952 174 80 46
-2459.4053 2755.2695 615.9626 -0.134 -0.978 -0.161 144 72 30
-2444.5437 2747.9421 610.6345 -0.284 -0.938 -0.197 138 66 24
-2387.2383 2710.6709 592.2077 -0.601 -0.791 0.114 138 74 35
-2362.8481 2691.8418 585.0618 -0.613 -0.779 0.135 152 88 49
-2224.2656 3174.8491 405.8529 0.921 -0.349 -0.170 96 48 22
-2212.5398 3180.3811 398.9910 0.841 -0.448 -0.303 39 7 2
-2253.3950 3506.3977 341.7802 0.935 0.342 -0.093 26 28 28
-2267.0688 3540.8455 340.1736 0.936 0.341 -0.092 33 33 32
-2213.0449 3543.2734 313.9770 -0.509 -0.798 -0.322 169 151 146
-2251.3245 5381.5781 -99.7353 0.569 0.130 -0.812 135 108 89
-2273.7371 5457.8125 -107.0135 0.554 0.079 -0.829 140 115 95
-2312.0823 5596.0073 -121.2904 0.607 0.038 -0.794 155 132 116
-2270.2197 5559.7319 -132.6257 0.547 -0.257 -0.797 158 135 117
-2128.1204 5290.9863 -136.8946 0.058 -0.666 -0.743 158 133 125
-2076.9050 5182.4619 -135.6931 -0.143 -0.972 -0.188 160 132 128
-1945.2572 5156.4033 -192.0185 0.702 0.161 -0.694 184 159 159
-1948.8168 5187.5449 -197.6460 0.681 0.138 -0.719 181 159 161
-1872.0300 5149.2373 -225.0703 -0.233 -0.966 -0.108 232 220 222
-1599.3585 5017.3989 -323.4395 0.233 -0.946 -0.225 236 216 227
-4300.7871 2552.6436 1526.5221 0.120 -0.693 0.711 128 117 98
-4197.5527 2959.1616 1381.6562 0.331 -0.760 0.559 31 53 72
-4191.5156 2965.9097 1377.2078 0.337 -0.768 0.545 40 64 84
-3725.5227 2699.9971 1219.7556 -0.447 -0.867 0.219 108 136 161
-3580.9858 2691.1816 1153.5117 -0.036 -0.950 -0.311 84 55 63
-3557.2827 2692.8186 1141.9197 -0.020 -0.965 -0.261 99 113 131
-3720.0066 3010.4307 1143.7899 0.885 0.381 -0.268 135 110 91
-2912.2729 2718.4832 830.9385 -0.134 -0.034 -0.990 131 63 28
-2466.8372 2758.8279 610.8333 -0.139 -0.978 -0.153 138 70 29
-2348.1689 2679.3418 573.5184 -0.615 -0.776 0.137 149 92 56
-2276.1272 3075.3833 445.8741 0.823 0.363 -0.436 144 84 53
-2283.4517 3096.4626 444.3554 0.783 0.392 -0.483 156 90 53
-2282.6804 3106.4014 441.6422 0.917 0.271 -0.292 167 95 55
-2164.5906 3137.0605 378.5724 0.908 -0.112 -0.403 13 4 2
-2141.1396 3297.2854 329.6239 0.950 -0.210 -0.229 12 16 18
-2242.3135 5302.4575 -96.3871 0.268 -0.820 -0.505 141 114 93
-2246.8188 5334.4810 -101.8247 0.640 0.164 -0.750 141 114 95
-2279.8643 5435.8560 -110.1588 0.586 0.130 -0.800 141 114 95
-2259.2505 5539.1450 -144.3118 0.539 -0.505 -0.674 158 135 119
-2027.8237 5430.5820 -228.0601 -0.591 -0.407 -0.697 204 180 180
-1688.4341 5308.5288 -359.6580 -0.101 -0.935 -0.339 237 214 227
-4232.6064 2527.7107 1489.8427 0.160 -0.677 0.719 108 97 79
-4205.8525 2521.2852 1478.7657 0.161 -0.675 0.720 104 96 80
-4040.9543 2863.9919 1319.6232 0.792 -0.608 -0.064 11 31 47
-3949.5142 2829.5056 1284.7412 -0.436 -0.871 0.224 68 89 107
-3734.7239 2702.7959 1213.6674 -0.448 -0.868 0.216 89 110 130
-3633.6985 2717.4385 1162.5924 -0.293 -0.778 -0.556 75 38 32
-2861.4055 2637.2153 817.8214 0.456 -0.877 0.150 80 47 28
-2295.2678 2631.3562 552.4979 -0.613 -0.777 0.141 152 96 60
-2177.7344 2592.1941 506.4344 0.857 -0.090 0.507 168 96 51
-2097.7468 2584.3994 470.6037 0.623 -0.780 -0.055 171 97 52
-2091.5652 2594.8777 465.2010 0.631 -0.770 -0.096 173 99 55
-2191.3376 2799.7822 463.5023 -0.106 -0.809 0.579 87 33 7
-2161.2209 2780.0115 454.0131 0.115 -0.796 0.595 79 35 16
-2331.2383 3035.8594 473.2995 0.507 -0.798 0.326 82 48 30
-2304.9529 3011.5254 466.6998 0.551 -0.733 0.398 89 55 36
-2266.5076 2970.6963 458.2922 -0.018 -0.999 0.027 95 63 38
-2269.4624 3060.1458 438.4234 0.812 0.360 -0.460 146 84 47
-2144.8926 3296.2007 323.6298 0.947 -0.218 -0.235 13 17 18
-2225.0042 3560.2710 298.6057 -0.220 -0.970 0.101 172 153 151
-2283.6016 5429.9043 -118.1735 0.632 0.130 -0.764 148 121 104
-2319.0940 5582.0635 -137.6186 0.899 -0.417 -0.134 130 107 93
-2000.4199 5317.7749 -224.9331 0.444 0.033 -0.896 172 151 150
-2033.4419 5452.2671 -241.3429 -0.161 -0.964 0.209 202 178 178
-2001.1989 5386.7217 -240.9539 -0.429 -0.903 -0.014 221 197 197
-1989.9122 5378.2168 -244.2496 -0.433 -0.901 -0.003 235 213 215
-1971.0446 5348.6455 -246.1099 -0.059 -0.956 0.287 238 220 221
-1878.1311 5266.6870 -270.4024 0.253 -0.030 -0.967 208 194 199
-4146.6323 2471.9336 1452.4902 0.422 -0.548 0.722 79 70 53
-4133.2485 2473.4736 1445.8384 0.422 -0.548 0.722 79 71 56
-4172.0659 2516.7981 1453.7061 0.914 0.074 0.400 76 73 61
-4084.2686 2560.3560 1402.0720 0.824 -0.535 -0.189 29 28 23
-4127.1406 2900.1599 1340.9667 0.665 -0.557 0.497 9 22 33
-3984.8865 2851.1272 1285.8999 -0.445 -0.863 0.239 17 31 45
-3819.2539 2750.8391 1232.1101 -0.445 -0.863 0.239 41 58 74
-3749.9392 2710.0178 1209.3254 -0.450 -0.868 0.210 44 58 70
-3650.5916 2726.2400 1158.8035 -0.272 -0.597 -0.755 71 39 33
-3600.8420 2708.2673 1139.7424 -0.339 -0.830 -0.443 89 82 99
-3359.8230 2897.6646 981.3061 -0.512 -0.510 -0.691 152 119 102
-2511.8022 2761.0000 615.8299 0.732 0.259 -0.631 148 81 39
-2436.0298 2723.4590 589.2291 0.853 0.274 -0.443 117 52 10
-2105.2554 2589.0000 466.0737 0.653 -0.757 -0.030 167 98 57
-2106.0798 2608.3972 461.8236 0.609 -0.754 -0.248 169 99 61
-2194.5637 2828.4614 450.7583 0.308 -0.769 0.561 90 40 15
-2421.3870 3205.8320 467.0378 -0.119 -0.977 0.174 100 52 28
-2231.4941 3088.2939 405.9814 0.403 -0.371 -0.837 178 110 69
-2134.3623 3296.3433 310.6414 0.965 -0.079 -0.250 24 28 27
-2282.7488 5391.4717 -120.5539 0.636 0.164 -0.754 156 127 111
-2357.2871 5682.3726 -155.1010 0.960 0.179 -0.216 120 97 81
-2052.0029 5396.2988 -230.0436 0.608 0.040 -0.793 163 137 138
-2028.7286 5378.3433 -236.6784 0.055 -0.794 0.605 150 126 126
-2022.0616 5382.6318 -240.8339 0.068 -0.790 0.609 159 135 135
-2021.1301 5402.5000 -246.0208 -0.005 -0.815 0.580 174 150 150
-1997.9581 5361.7368 -247.1553 -0.078 -0.847 0.526 190 166 166
-1984.6002 5347.4932 -250.0218 -0.091 -0.846 0.526 203 182 184
-1788.2893 5212.7559 -309.9797 0.672 -0.740 0.034 241 228 238
-1717.9083 5366.8975 -379.8729 -0.202 -0.950 -0.236 226 204 216
-4115.0225 2449.3301 1433.0468 0.718 -0.262 0.645 119 108 90
-4133.2856 2470.0872 1436.6013 0.453 -0.555 0.698 113 106 88
-4125.8735 2475.2388 1431.8947 0.471 -0.543 0.696 85 79 65
-4162.2998 2507.3198 1441.2249 0.915 0.077 0.397 70 66 54
-3445.4973 2537.9265 1098.4800 -0.333 -0.930 0.158 62 41 16
-3619.4702 2708.4802 1138.8737 0.034 0.024 -0.999 82 54 61
-2311.1660 2640.4268 543.0914 -0.620 -0.776 0.118 133 77 42
-2143.4458 2650.8103 462.1199 0.259 -0.696 0.670 140 78 43
-2154.2031 2769.9143 438.5167 0.546 -0.551 0.631 99 39 9
-2324.5364 3090.7625 441.0716 0.008 -0.980 -0.198 150 73 33
-2138.2046 3295.4192 304.6822 0.968 -0.120 -0.220 13 17 16
-2224.7576 3557.3418 282.2046 -0.559 -0.793 -0.241 155 127 129
-2314.6887 5562.6304 -157.8556 0.904 0.227 -0.362 124 101 84
-2066.8997 5420.1499 -239.5370 0.730 0.072 -0.679 178 152 153
-2056.8320 5415.5850 -243.1500 0.111 -0.792 0.601 163 139 139
-2036.4497 5383.1846 -244.8966 0.124 -0.747 0.653 151 127 127
-2038.6550 5411.4614 -250.6633 0.122 -0.762 0.636 145 121 121
-2027.4084 5403.4375 -253.9963 0.007 -0.800 0.600 147 123 123
-2003.2211 5360.0547 -254.8827 -0.083 -0.846 0.526 154 130 130
-1991.5118 5350.3745 -258.0339 -0.094 -0.847 0.523 157 136 138
-1931.6473 5340.9512 -283.7784 0.512 -0.493 0.703 224 209 212
-1730.1523 5411.8638 -395.1060 -0.239 -0.945 -0.222 224 204 215
-1771.4360 5568.2104 -413.3806 0.338 -0.904 -0.261 227 205 217
-4134.1758 2447.9590 1432.3210 0.846 -0.182 0.501 117 106 86
-4132.5151 2466.2183 1427.1316 0.658 -0.446 0.607 97 88 71
-4145.4595 2493.5259 1426.5641 0.915 0.088 0.393 45 42 27
-4141.6997 2500.9612 1423.0132 0.914 0.083 0.398 36 32 20
-3921.2666 2806.9741 1246.2336 -0.447 -0.862 0.240 17 13 10
-3837.3462 2766.2581 1216.9482 -0.512 -0.859 -0.004 27 18 14
-3597.3533 2618.9443 1140.6642 -0.379 -0.925 0.007 51 33 26
-3700.2268 2755.7979 1155.5409 -0.255 -0.285 -0.924 76 36 31
-3681.8945 2752.0034 1147.9103 -0.296 -0.372 -0.880 84 51 57
-3675.0686 2756.9360 1143.5348 -0.296 -0.372 -0.880 99 85 97
-3559.6770 2829.6260 1072.1528 -0.466 -0.401 -0.788 135 114 95
-4128.2803 3498.6428 1175.5129 0.645 -0.646 -0.409 145 118 99
-2429.9229 2706.7896 575.0686 0.707 0.391 -0.589 117 52 10
-2445.9172 2734.6155 575.7981 0.758 0.376 -0.533 112 48 7
-2440.4497 2737.9814 572.4348 0.966 0.215 -0.141 104 47 11
-2421.0588 2725.3093 566.4573 -0.533 -0.821 0.205 103 47 12
-2362.6721 2705.2803 544.0756 -0.703 -0.611 -0.363 111 55 20
-2177.3091 2707.6536 457.0699 0.411 -0.909 -0.073 112 56 27
-2155.4131 2766.1936 432.7049 0.554 -0.522 0.648 114 46 12
-2304.1809 2972.0674 452.2920 0.339 -0.707 0.621 119 51 20
-2206.4058 2873.4460 430.5480 0.993 -0.119 0.011 140 70 45
-2136.5623 2790.2527 418.0975 0.474 -0.878 0.067 144 74 50
-2374.8806 3119.7800 449.5407 -0.512 -0.421 -0.749 146 74 49
-2349.0522 3096.0422 443.2373 -0.501 -0.440 -0.746 149 73 44
-2339.6641 3094.3074 439.2791 -0.402 -0.686 -0.607 153 75 35
-2252.2698 3007.9749 419.4041 -0.204 -0.978 -0.029 174 91 42
-2236.6934 3072.4412 396.5529 0.774 -0.220 -0.593 143 77 41
-2255.1885 3142.6174 388.2081 0.716 0.173 -0.677 67 27 7
-2324.4780 3275.8953 388.2897 0.454 0.236 -0.859 29 9 0
-2141.3896 3281.6833 301.5189 0.610 -0.213 -0.763 13 17 18
-2043.3184 4752.7612 -99.9220 0.340 -0.832 -0.438 170 145 125
-2305.9592 5548.0635 -169.7635 0.931 0.302 -0.204 147 124 108
-2127.9868 5566.7183 -257.2600 0.266 -0.061 -0.962 194 168 169
-2054.9907 5394.7261 -249.7086 0.047 -0.874 0.484 186 162 162
-2030.0378 5372.2378 -255.9061 0.127 -0.762 0.634 172 148 148
-2021.2017 5370.6138 -259.6334 0.127 -0.762 0.634 168 144 144
-2004.7771 5348.3188 -261.9010 -0.081 -0.847 0.525 169 145 145
-1979.5052 5301.6660 -262.4040 -0.563 -0.480 -0.673 167 146 148
-1917.7717 5308.0117 -292.7238 0.675 -0.342 0.653 228 213 216
-1913.9763 5342.1812 -302.7558 0.637 -0.396 0.661 227 214 221
-1822.3574 5562.7461 -398.8097 -0.166 -0.890 0.425 232 215 225
-4132.9907 2443.8875 1422.7611 0.789 -0.237 0.567 99 90 72
-4116.9414 2443.7673 1415.3325 0.713 -0.277 0.644 65 57 40
-4123.5039 2466.9785 1412.7375 0.653 -0.457 0.604 35 29 15
-4108.8706 2496.6848 1398.7140 0.864 -0.161 0.476 34 28 15
-4074.7261 2494.8289 1383.2991 0.912 -0.252 0.324 32 28 16
-3934.7991 2812.7183 1240.9763 -0.454 -0.859 0.238 25 10 5
-3642.0635 2648.2397 1144.9446 -0.440 -0.896 -0.055 51 34 23
-3712.2417 2770.9929 1147.7050 -0.311 -0.325 -0.893 83 53 60
-3706.3389 2776.7012 1143.5739 -0.311 -0.325 -0.893 95 87 100
-2771.2419 2636.8433 743.0628 0.566 -0.666 0.485 128 64 23
-3047.7573 2947.1682 796.0917 0.654 -0.729 0.200 149 85 40
-2521.6711 2757.4136 597.7731 0.684 0.165 -0.710 141 74 32
-2428.1267 2738.1631 558.9861 -0.623 -0.780 0.060 104 48 13
-2304.0000 2966.1372 445.8702 0.342 -0.710 0.615 139 61 28
-2239.2131 3091.6877 385.2348 0.719 -0.144 -0.680 74 25 4
-2243.2583 5401.3545 -174.5296 0.939 0.303 -0.159 167 143 129
-2163.2141 5375.0630 -205.3311 0.550 -0.823 0.143 157 130 123
-2152.4482 5369.4766 -208.9754 0.455 -0.883 0.117 164 137 130
-1967.3704 5274.7334 -271.9384 -0.513 -0.358 -0.780 174 155 156
-1945.3508 5899.8257 -434.1749 -0.278 -0.953 0.119 245 228 238
-3575.7622 2031.1233 1255.6825 -0.449 -0.889 -0.090 56 53 43
-3502.1726 1996.2252 1230.1385 -0.455 -0.883 -0.115 60 55 45
-3714.5122 2658.2732 1166.5736 0.514 -0.629 0.584 27 11 4
-3730.5437 2709.8669 1161.3810 0.731 0.252 -0.635 53 34 21
-3804.2717 2826.3696 1167.0336 -0.397 -0.411 -0.821 72 38 31
-3788.8936 2825.1057 1160.2214 -0.397 -0.411 -0.821 80 53 54
-3773.5959 2823.8481 1153.4449 -0.397 -0.411 -0.821 98 84 94
-2646.8682 2538.6038 701.4349 0.625 -0.588 0.514 144 85 43
-2399.6968 2681.6338 551.9991 0.767 -0.587 -0.261 102 48 14
-2399.9602 2691.3730 549.7396 -0.312 -0.950 -0.005 102 48 16
-2230.4495 2650.6775 481.1945 0.957 0.126 -0.261 92 46 20
-2300.9250 2956.4290 439.0627 0.346 -0.714 0.608 156 69 33
-2134.5178 2776.7754 405.9352 0.492 -0.722 -0.487 171 83 49
-2243.7900 3081.0891 382.1209 0.832 -0.261 -0.490 58 13 0
-2236.4160 3081.6177 378.5769 0.823 -0.121 -0.555 55 13 0
-2224.3938 5340.3906 -179.3422 0.939 0.303 -0.159 173 145 133
-2178.5605 5442.2261 -225.4690 0.680 -0.732 -0.029 160 131 125
-1976.0919 5348.9932 -296.4290 -0.521 -0.464 -0.717 214 196 200
-1941.5442 5297.8208 -299.9137 -0.400 -0.917 -0.009 235 216 218
-1838.6718 5250.0967 -335.8814 0.628 -0.507 0.590 220 205 212
-3523.8250 2006.1472 1229.3533 -0.447 -0.888 -0.111 55 55 46
-3466.6682 1980.6520 1209.2458 -0.454 -0.883 -0.116 57 55 46
-3725.9749 2692.5181 1153.8632 0.140 -0.977 -0.163 48 27 13
-3807.9565 2835.3718 1156.5685 -0.476 -0.616 -0.628 78 42 30
-3793.9695 2835.1602 1150.1658 -0.450 -0.640 -0.623 78 50 40
-3719.8828 2788.9766 1127.3328 0.230 -0.665 -0.711 72 53 45
-2262.1287 2972.2490 409.5434 -0.396 -0.754 -0.524 181 84 41
-2249.6855 3018.6785 392.3842 0.893 0.065 -0.446 152 92 50
-2256.2671 3049.1304 387.9333 0.489 0.129 -0.863 93 45 14
-2213.2314 5492.4878 -232.7460 0.256 -0.730 0.634 154 125 119
-2066.4546 5535.0938 -310.9572 -0.470 -0.403 -0.785 177 157 159
-1988.9585 5368.3198 -305.7105 -0.570 -0.600 -0.561 202 182 184
-1873.8525 5381.3979 -362.0452 -0.043 -0.855 0.517 221 204 214
-3533.6880 2009.1736 1224.7698 -0.280 -0.936 -0.213 54 55 49
-3732.8337 2683.6609 1149.5802 0.600 -0.777 -0.191 33 21 14
-3730.8584 2692.1609 1146.5702 0.604 -0.776 -0.181 44 27 16
-3785.0974 2824.2051 1138.8646 0.324 -0.554 -0.767 73 40 22
-3115.7554 2814.0347 833.5602 -0.391 -0.771 -0.504 133 104 103
-2618.1912 2910.7751 580.8190 0.494 -0.444 -0.748 108 46 10
-2293.1455 2934.9905 425.3485 0.008 -0.979 0.205 178 84 42
-2210.4375 2856.7566 406.6566 0.685 -0.722 0.101 181 85 47
-2255.4922 3010.1199 389.4560 -0.275 -0.614 -0.740 153 94 54
-2246.9375 3009.0298 385.7914 0.880 0.049 -0.473 127 74 35
-2253.5657 3028.7500 383.9636 0.562 0.241 -0.791 101 54 18
-2267.6350 3058.8291 382.9965 0.482 0.124 -0.867 76 34 4
-2006.7227 5400.9453 -316.1028 -0.587 -0.601 -0.542 172 152 154
-1976.7253 5340.9082 -315.0533 -0.554 -0.650 -0.521 196 176 178
-1699.2195 5225.8730 -414.2301 -0.154 -0.910 0.385 237 207 219
-3388.9790 1945.2520 1165.9674 -0.445 -0.881 -0.159 51 52 46
-3734.7747 2681.1553 1141.4836 0.556 -0.818 -0.148 33 22 15
-3728.2988 2686.3359 1137.2278 0.556 -0.818 -0.148 44 28 17
-3686.3992 2724.9951 1108.4143 0.767 -0.605 0.215 68 35 16
-3688.5095 2736.6245 1106.4901 0.767 -0.609 0.202 68 35 16
-3804.6099 2834.8298 1135.2822 0.368 -0.553 -0.748 66 33 14
-3259.5383 2920.9595 864.0682 -0.584 -0.807 -0.086 126 98 97
-3491.7722 3223.2263 895.3499 -0.452 -0.340 -0.825 57 47 48
-2696.0742 3467.6631 469.9184 0.692 0.287 -0.663 176 84 44
-2251.0928 3008.8481 380.0573 -0.249 -0.510 -0.823 97 48 16
-2265.6287 3039.3789 379.1285 0.572 0.240 -0.785 77 34 4
-2278.9785 3068.4563 378.0174 0.514 0.136 -0.847 68 27 3
-2292.7297 3098.2566 376.9107 0.554 0.190 -0.810 59 25 10
-2357.6992 3210.4539 378.7913 -0.065 -0.127 -0.990 59 26 9
-2315.3845 3241.7769 351.6115 0.679 0.259 -0.687 11 3 1
-2171.5637 5335.7358 -234.8946 0.081 -0.994 -0.069 182 149 144
-2197.3616 5487.5347 -260.8115 -0.200 -0.959 0.199 176 150 146
-3732.0522 2675.2480 1132.1252 0.788 -0.609 -0.090 33 22 14
-3731.4368 2684.7080 1129.4795 0.564 -0.811 -0.152 44 28 17
-3689.7024 2773.8511 1088.1360 -0.394 -0.346 -0.852 44 17 0
-3933.8760 3015.4851 1139.2480 0.460 -0.768 -0.445 86 59 38
-2625.2896 2898.3694 570.8932 0.819 -0.375 0.433 115 50 9
-2708.6116 3477.4805 464.1843 0.742 0.278 -0.610 171 87 41
-2266.0371 3023.3767 375.5743 -0.249 -0.510 -0.823 74 30 3
-2291.0430 3068.2329 375.7817 0.615 0.320 -0.721 61 20 0
-2026.7233 4862.2129 -193.3791 0.620 -0.588 0.519 196 163 156
-2232.4680 5538.6577 -268.5085 -0.077 -0.323 -0.943 194 165 161
-3738.7192 2666.3293 1127.8385 0.865 -0.481 -0.145 29 23 18
-3735.2224 2673.6589 1124.4050 0.865 -0.481 -0.145 33 22 14
-3732.3870 2681.4819 1121.1484 0.557 -0.815 -0.160 43 27 14
-3738.8049 2696.1213 1120.3900 0.823 0.123 -0.555 54 32 16
-3762.7898 2805.0513 1103.9290 -0.306 -0.261 -0.916 66 33 16
-3786.7644 2833.6182 1107.6605 -0.334 -0.264 -0.905 65 32 15
-3515.0659 3280.6394 871.6592 0.231 -0.828 0.511 38 42 38
-2645.7290 2906.0959 570.1463 0.582 -0.622 0.523 128 61 19
-2668.3887 3430.3630 448.6971 0.386 -0.072 -0.920 176 100 52
-2297.0017 3070.4099 370.1400 0.524 0.212 -0.825 56 22 1
-2180.0447 5412.9380 -271.8266 -0.080 -0.141 -0.987 200 174 170
-2093.5217 5215.3999 -261.5577 -0.216 -0.953 0.212 199 174 170
-1806.8861 5209.0732 -390.4190 -0.025 -0.980 -0.199 240 220 231
-1787.4886 5196.2329 -396.0199 0.576 -0.781 0.244 243 223 234
-1771.1602 5169.9248 -396.8392 0.775 -0.600 0.199 240 220 231
-1781.6914 5223.5952 -405.5351 0.814 -0.522 0.253 240 220 231
-1679.4344 5113.3604 -424.3686 0.287 -0.135 -0.948 244 214 226
-3427.9187 2046.6012 1133.9290 0.340 -0.629 0.700 30 31 25
-3405.0942 2040.5656 1125.1025 0.981 -0.028 0.190 30 31 25
-3404.4570 2048.1206 1122.9047 0.981 -0.028 0.190 30 31 25
-3739.2981 2662.8706 1119.4312 0.744 -0.663 0.077 30 24 19
-3737.8979 2671.7139 1116.5616 0.868 -0.475 -0.144 32 21 13
-3852.6003 2869.0310 1118.7247 -0.309 -0.326 -0.893 72 39 22
-3834.7654 2865.9666 1111.4104 -0.304 -0.356 -0.884 73 39 22
-3907.4514 2942.7229 1124.9811 -0.154 -0.980 -0.122 92 51 35
-3891.3970 2941.1228 1118.1041 -0.157 -0.978 -0.134 92 50 34
-3679.5701 2839.4636 1047.7218 0.952 -0.158 0.263 91 58 39
-2417.3018 3084.7749 413.2646 0.474 0.028 -0.880 171 100 58
-2668.9131 3424.5515 441.5235 0.518 -0.049 -0.854 177 107 60
-2382.1270 3294.0913 344.4225 0.038 -0.545 -0.838 23 15 7
-2379.1418 3301.4644 341.2057 0.071 -0.499 -0.864 17 10 4
-2345.4194 3265.1790 335.0801 0.547 0.174 -0.819 12 4 1
-2233.5906 3381.2219 255.0413 0.635 0.284 -0.718 13 17 20
-2134.9463 3393.9902 207.0773 0.700 -0.286 -0.655 192 157 152
-3464.4822 2026.1888 1147.4392 0.328 -0.609 0.722 49 50 42
-3451.3306 2026.2236 1141.4866 0.328 -0.609 0.722 49 50 42
-3737.2288 2667.3398 1107.8372 0.744 -0.666 0.047 32 21 13
-3732.6926 2693.6838 1099.0951 0.976 0.066 -0.208 57 30 9
-3916.0989 2955.7410 1115.4156 -0.418 -0.885 -0.206 96 49 35
-3313.9297 2951.7515 844.2817 -0.445 -0.455 -0.771 75 70 62
-3052.5000 2782.5737 769.1051 0.296 -0.859 -0.418 28 42 33
-2427.1736 3091.7854 407.9444 0.368 -0.077 -0.927 175 110 61
-2676.1453 3427.5159 435.1820 0.756 -0.065 -0.651 180 116 64
-2651.7288 3407.5261 429.2250 0.582 -0.302 -0.755 187 122 71
-2676.0520 3451.4055 429.0713 0.872 -0.436 -0.221 183 117 70
-2393.2827 3303.3123 338.8945 0.068 -0.502 -0.862 24 16 8
