ply
format ascii 1.0
element vertex 788
property float x
property float y
property float z
property float nx
property float ny
property float nz
property uchar diffuse_red
property uchar diffuse_green
property uchar diffuse_blue
end_header
-3012.2234 2883.8125 327.1536 0.426 -0.378 0.822 11 72 77
-2697.9043 3009.1914 90.5403 0.815 -0.200 0.544 193 163 175
-2696.1213 3015.7756 86.2829 0.838 -0.217 0.501 197 168 180
-2663.1428 3084.2205 34.0131 0.870 -0.306 -0.386 123 108 111
-2664.2800 3094.1333 29.7236 0.871 -0.310 -0.381 126 108 110
-2663.6731 3111.0166 21.0064 0.800 -0.585 -0.135 127 107 109
-2668.7151 3125.2148 16.7560 0.794 -0.592 -0.136 132 110 113
-2869.2156 3377.7126 2.6579 0.342 -0.899 -0.275 148 111 115
-2758.2417 3333.2712 -36.8492 0.952 -0.262 0.155 152 111 113
-2752.2168 3336.1838 -41.6373 -0.044 -0.994 0.096 152 112 113
-2760.7380 3355.3313 -46.4141 0.019 -0.795 0.606 152 112 113
-2750.7617 3353.8621 -51.2195 0.057 -0.825 0.562 152 112 113
-2741.4111 3353.0632 -56.0106 0.026 -0.809 0.588 140 100 101
-2706.9500 3323.9329 -60.6697 0.309 -0.884 0.351 139 99 100
-2688.0737 3350.8462 -84.5008 0.940 -0.144 0.310 103 69 70
-2689.7783 3362.5620 -89.3704 0.914 -0.305 -0.268 94 60 61
-2652.5703 3329.4712 -93.5875 0.894 -0.098 0.438 67 33 34
-2651.5388 3337.9834 -98.3850 0.629 -0.621 0.469 59 25 26
-2624.3608 3316.1907 -102.6456 0.017 -0.698 0.716 50 16 17
-2607.7827 3306.5728 -107.0689 0.041 -0.743 0.668 42 9 10
-2602.4456 3309.9976 -111.7297 0.043 -0.743 0.668 44 13 18
-2590.7395 3305.9600 -116.2200 0.317 -0.563 0.763 67 36 41
-2578.0876 3300.7622 -120.6590 0.976 0.121 0.183 100 69 74
-2578.4387 3310.8418 -125.4674 0.976 0.121 0.183 125 94 99
-2578.7917 3320.9668 -130.2973 0.976 0.121 0.183 150 118 123
-2578.8281 3330.7590 -135.1378 0.974 0.106 0.200 160 128 133
-2593.3469 3407.6997 -165.2740 0.531 -0.549 -0.646 196 146 155
-2540.7688 3404.0466 -192.6302 0.833 -0.352 -0.426 194 143 150
-2466.4944 3322.2070 -193.2136 0.406 -0.820 -0.403 183 132 139
-2687.6877 3683.8254 -249.9958 0.863 -0.422 0.279 219 177 178
-2683.9370 3690.2158 -255.2486 0.858 -0.421 0.295 219 177 178
-2720.3662 3770.9407 -275.1078 0.763 -0.610 0.212 230 188 189
-1859.8397 3407.9954 -572.3584 0.033 -0.999 -0.018 241 209 210
-1736.5991 3376.7952 -625.2434 0.201 -0.608 0.768 234 192 194
-1732.0690 3380.2629 -629.4780 0.221 -0.625 0.748 234 192 194
-1651.4519 3313.5371 -641.0822 0.234 -0.668 -0.707 121 94 90
-1625.6205 3323.1965 -660.2076 0.335 -0.412 0.847 77 52 45
-1628.3088 3340.0774 -667.0955 0.469 -0.339 0.816 69 44 37
-1578.3130 3539.9336 -794.0350 -0.006 -0.627 0.779 62 37 33
-1455.8119 3369.8567 -777.5754 0.710 -0.676 0.199 94 70 68
-1510.4324 3800.6936 -961.1274 0.742 0.010 0.671 183 134 137
-1507.3717 3808.7444 -966.8216 0.729 0.003 0.684 219 170 173
-1499.6559 3805.6838 -969.5830 0.720 0.007 0.694 232 186 188
-1498.3867 3818.0811 -976.4407 0.772 -0.246 0.586 240 194 196
-1194.1152 3225.8743 -851.2917 0.949 -0.216 -0.229 78 42 42
-1200.0569 3254.2571 -862.0837 0.994 0.068 -0.086 77 47 42
-1207.5253 3300.4138 -880.8514 0.974 -0.011 -0.225 63 39 29
-1210.9790 3323.0520 -890.1722 0.919 -0.131 -0.371 58 34 24
-1197.7485 3430.9763 -951.0826 -0.088 -0.854 0.513 47 32 29
-1187.4677 3417.8953 -950.2932 -0.117 -0.804 0.582 49 31 31
-1169.8438 3384.6528 -943.5701 -0.100 -0.897 0.431 49 28 33
-1180.9613 3429.7566 -959.7905 0.805 -0.015 0.593 65 40 49
-1176.5798 3432.6279 -963.6464 0.749 -0.031 0.662 76 51 63
-1171.3108 3433.0452 -966.7768 0.751 -0.020 0.660 109 88 100
-1166.9103 3435.8518 -970.6112 0.717 0.144 0.683 145 131 140
-1163.3381 3440.9700 -975.1334 0.718 0.146 0.680 176 168 175
-1160.4824 3448.1196 -980.2666 0.722 0.147 0.676 176 176 180
-1156.5103 3452.1643 -984.4780 0.910 0.213 0.355 182 183 187
-1155.8176 3465.5095 -991.4864 0.925 0.218 0.311 182 186 187
-1156.7961 3499.2708 -1007.7017 0.929 0.235 0.284 158 154 156
-1160.2905 3524.9971 -1018.5328 0.961 0.159 0.225 155 141 148
-1163.2817 3549.4963 -1029.0339 0.949 0.141 0.283 154 128 139
-1169.0681 3582.3245 -1042.1187 0.970 -0.039 0.238 145 106 119
-1168.2120 3596.0713 -1049.4172 0.953 0.161 0.257 158 105 125
-1168.0868 3612.0693 -1057.4276 0.996 0.056 -0.073 165 106 129
-1168.4369 3629.5986 -1065.9343 0.969 0.009 -0.246 170 107 124
-1171.4906 3655.2815 -1076.9885 0.969 0.009 -0.246 174 113 119
-1136.1373 3684.8154 -1111.2616 0.139 -0.981 -0.133 252 192 199
-1129.7584 3682.4612 -1113.6320 0.161 -0.985 -0.055 249 188 195
-1122.9780 3678.7996 -1115.5760 0.176 -0.934 -0.309 246 183 191
-1117.7839 3680.0386 -1119.0726 0.185 -0.925 -0.333 246 181 187
-1114.4067 3686.9819 -1124.3927 0.204 -0.917 -0.342 244 181 189
-1113.3866 3701.4297 -1132.1302 0.151 -0.954 -0.260 244 181 189
-3801.6028 2256.7402 1067.1190 0.011 -0.780 0.625 89 81 73
-2972.2957 1972.1956 750.0122 -0.154 -0.981 -0.116 106 92 81
-2948.3184 1973.4241 736.1306 -0.019 -0.996 -0.092 125 106 91
-3431.4233 2610.4509 685.9413 0.486 -0.483 0.728 120 85 66
-3422.6365 2611.3154 680.6477 0.486 -0.483 0.728 120 85 66
-3426.5144 2620.7649 678.0834 0.549 -0.510 0.662 120 85 66
-3515.8567 2738.2449 668.9651 0.655 -0.725 -0.214 112 75 56
-3304.4441 2752.1853 545.0186 0.415 -0.773 0.479 85 50 30
-3296.9160 2753.8276 540.0336 0.914 -0.400 -0.070 84 49 29
-3298.9663 2762.6372 536.7770 0.888 -0.459 -0.023 86 49 30
-3231.3342 2769.8005 495.7779 0.511 -0.829 0.227 101 55 35
-3114.6086 2715.7810 458.1085 0.336 -0.939 0.071 112 65 43
-3111.8049 2720.7732 454.0685 0.378 -0.900 0.218 113 65 43
-3100.6360 2719.2190 448.6622 0.392 -0.886 0.247 114 65 41
-3110.7878 2778.2261 424.8665 0.822 -0.319 0.471 135 78 49
-3026.4495 2806.0415 364.3276 0.657 -0.391 0.644 146 79 54
-2564.2690 2722.3347 150.2788 0.594 -0.791 0.148 150 79 49
-2695.8320 3000.7202 84.3178 0.815 -0.200 0.544 186 149 153
-2694.4949 3007.7319 80.0827 0.838 -0.217 0.501 170 133 138
-2701.4185 3074.3357 50.7138 0.478 -0.461 -0.747 145 110 99
-2661.9080 3059.0698 36.4581 0.288 -0.908 0.303 147 127 127
-2654.4963 3059.9131 31.9360 0.288 -0.908 0.303 135 117 119
-2674.1560 3097.9397 23.8604 0.785 -0.521 -0.335 144 120 123
-2753.5874 3190.7776 21.5407 0.846 -0.532 0.026 144 120 122
-2696.7546 3139.4851 15.6572 0.784 -0.545 0.297 146 119 123
-2837.2852 3335.9517 -4.5063 0.357 -0.754 -0.551 155 118 122
-2597.3684 3085.8638 -12.6149 0.494 -0.868 -0.047 157 118 123
-2592.2144 3089.0405 -17.0509 0.494 -0.868 -0.047 157 118 123
-2655.4163 3193.9062 -34.3476 0.404 -0.915 -0.008 164 125 130
-2778.3787 3357.9827 -48.0876 -0.117 -0.981 0.155 165 125 126
-2758.7815 3355.5276 -57.7091 0.040 -0.805 0.592 165 125 126
-2754.2708 3360.1809 -62.5249 0.038 -0.790 0.611 159 119 120
-2633.0146 3252.2727 -75.8393 0.937 -0.335 0.096 159 119 120
-2646.7632 3315.5227 -99.7594 0.896 -0.109 0.430 84 48 50
-2609.1152 3300.8933 -113.3017 0.041 -0.743 0.668 42 7 8
-2603.7878 3304.3220 -117.9590 0.043 -0.743 0.668 35 3 7
-2594.2427 3302.8208 -122.4931 0.301 -0.563 0.770 55 23 28
-2577.5862 3292.9492 -126.7902 0.901 0.147 0.409 89 57 62
-2576.8513 3301.7205 -131.5692 0.901 0.147 0.409 113 81 86
-2578.1409 3312.9158 -136.4361 0.963 0.131 0.235 151 119 124
-2581.1472 3326.1941 -141.3913 0.972 0.097 0.215 161 129 134
-2582.7454 3377.3877 -166.0257 0.927 -0.372 -0.039 196 146 155
-2552.6199 3350.9995 -169.5436 0.895 -0.417 -0.159 196 146 155
-2546.4055 3353.3809 -174.1697 0.798 -0.380 0.468 198 148 157
-2541.6658 3357.5471 -178.8695 0.798 -0.380 0.468 198 148 157
-2531.2810 3364.7861 -188.2250 0.793 -0.385 0.471 198 148 157
-2714.6731 3654.2249 -231.0131 -0.085 -0.722 -0.686 201 150 157
-2709.7324 3681.1829 -247.1852 0.006 -0.655 -0.756 220 177 179
-2685.0327 3683.3047 -261.9119 0.858 -0.421 0.295 219 177 178
-2682.1326 3690.7812 -267.2438 0.859 -0.421 0.291 230 188 189
-2674.9070 3692.7402 -272.2191 0.868 -0.403 0.289 230 188 189
-1964.6832 3326.8816 -482.8908 0.846 0.031 0.532 241 205 203
-1823.8506 3349.9165 -572.3112 0.064 -0.987 -0.145 240 210 210
-1737.5929 3370.2322 -630.1739 0.201 -0.608 0.768 202 164 164
-1733.1918 3373.9185 -634.4471 0.221 -0.625 0.748 176 138 139
-1614.5114 3293.7925 -660.1848 0.140 -0.637 -0.758 39 16 8
-1631.3501 3361.1448 -684.4398 0.654 -0.286 0.700 46 23 15
-1312.2301 2930.6406 -646.4468 0.457 -0.856 0.241 74 45 43
-1452.8622 3354.5281 -779.9182 0.702 -0.678 0.220 81 57 55
-1521.4572 3785.6155 -956.8448 0.721 0.061 0.690 70 34 32
-1515.3553 3786.4185 -960.6218 0.716 0.059 0.695 110 69 70
-1509.4464 3787.6560 -964.5087 0.729 0.003 0.684 164 115 118
-1504.9756 3792.2952 -969.2955 0.729 0.003 0.684 206 157 160
-1501.2864 3798.8132 -974.5863 0.867 -0.057 0.495 226 180 182
-1497.3594 3804.7896 -979.7386 0.766 -0.256 0.590 238 192 194
-1257.7029 3335.6694 -878.5206 0.462 0.248 0.852 103 65 64
-1247.4001 3323.5940 -878.2029 0.512 0.275 0.814 92 53 53
-1192.2769 3212.0249 -853.0939 0.830 -0.496 -0.257 91 54 53
-1203.3994 3266.8235 -874.2545 0.994 0.080 -0.079 85 58 49
-1208.8217 3294.2085 -884.9045 0.958 -0.048 -0.282 79 52 43
-1216.9867 3328.8623 -897.6600 0.882 -0.131 -0.452 72 48 38
-1237.9744 3396.8835 -919.9524 0.454 -0.263 -0.851 65 38 29
-1170.3909 3361.5474 -939.7395 -0.077 -0.706 0.704 48 31 31
-1183.9489 3412.8552 -957.8121 0.726 0.013 0.688 51 30 35
-1182.7814 3424.4426 -964.2344 0.852 0.010 0.524 68 45 53
-1170.9629 3421.7417 -969.4285 0.688 -0.066 0.723 84 64 75
-1165.2544 3420.8862 -972.1611 0.694 -0.056 0.718 106 95 103
-1160.9713 3423.9600 -976.0636 0.694 -0.056 0.718 168 165 170
-1157.1298 3428.2705 -980.3383 0.737 0.109 0.667 169 172 175
-1157.5227 3444.4900 -988.2058 0.964 0.145 0.224 173 179 182
-1154.1222 3450.1318 -992.9001 0.964 0.147 0.222 177 185 184
-1153.5262 3463.7568 -1000.0216 0.963 0.148 0.223 165 171 171
-1154.5726 3482.1689 -1008.6205 0.965 0.155 0.213 159 157 158
-1156.0178 3501.8770 -1017.6448 0.962 0.150 0.231 149 137 145
-1157.2612 3521.1704 -1026.5741 0.954 0.148 0.262 145 120 130
-1158.9447 3541.9001 -1035.9757 0.966 0.153 0.207 131 92 105
-1161.5299 3565.4287 -1046.2736 0.991 0.133 -0.003 138 85 105
-1164.4218 3590.0593 -1056.9509 0.991 0.131 -0.009 140 79 103
-1167.4995 3615.4529 -1067.9058 0.990 0.115 -0.084 138 76 93
-1174.7534 3653.3977 -1082.8060 0.978 0.049 -0.201 138 75 83
-1196.5857 3840.6106 -1164.0455 0.318 -0.282 -0.905 246 186 193
-1130.2505 3689.4485 -1125.4050 0.235 -0.887 -0.398 245 182 190
-1124.9760 3690.5137 -1128.8549 0.234 -0.884 -0.405 247 182 188
-1122.6711 3700.8787 -1135.2971 0.195 -0.937 -0.289 244 181 189
-1118.7390 3706.1868 -1140.1191 0.161 -0.953 -0.256 244 181 189
-1161.9001 4246.2671 -1385.4518 0.216 -0.429 -0.877 235 147 143
-3799.1738 2250.7183 1059.5588 0.011 -0.780 0.625 89 81 72
-2994.4900 1985.6179 748.0519 -0.078 -0.987 -0.138 106 90 76
-3007.6501 1998.0256 749.1056 -0.089 -0.996 -0.024 119 101 87
-2999.2507 1998.2793 744.3418 -0.161 -0.987 -0.012 125 106 91
-3460.0564 2530.4658 732.3165 0.860 -0.076 -0.504 143 108 89
-3529.9197 2595.7783 738.1888 0.849 -0.211 0.484 138 105 88
-3516.5918 2600.5989 728.4183 0.726 -0.187 0.662 137 104 87
-3511.5815 2604.0881 723.9058 0.726 -0.187 0.662 124 91 74
-3461.6587 2591.4099 702.6933 0.886 -0.318 -0.339 123 90 73
-3435.9958 2608.1160 680.1636 0.689 -0.249 0.680 120 85 66
-3418.8135 2603.3186 673.0799 0.491 -0.479 0.728 120 85 66
-3442.8394 2640.1357 667.9128 0.431 -0.381 0.818 117 80 61
-3517.4194 2705.0957 676.5654 -0.306 -0.945 -0.116 117 80 61
-3481.9583 2840.5181 589.1990 -0.241 -0.953 -0.182 95 60 40
-3460.2966 2832.1377 581.4361 -0.380 -0.914 -0.142 95 60 40
-3394.2673 2820.6702 550.7261 -0.346 -0.923 -0.167 85 50 30
-3399.9707 2832.4077 547.9989 -0.361 -0.928 -0.094 86 49 30
-3365.9060 2814.3772 538.2200 -0.389 -0.918 -0.078 89 48 30
-3250.1445 2771.1174 495.9709 0.459 -0.836 0.300 85 44 24
-3243.2422 2773.1709 491.1326 0.459 -0.836 0.300 96 51 30
-3113.1509 2716.1929 447.8404 0.521 -0.760 -0.389 113 65 43
-3104.6479 2716.7305 442.8773 0.458 -0.884 0.090 114 65 42
-3102.6914 2722.3860 438.9661 0.359 -0.911 0.203 128 71 47
-2657.0996 2797.2063 155.5303 0.606 -0.758 0.240 143 72 42
-2695.2161 2912.0276 119.0938 0.706 -0.009 0.709 74 93 93
-2718.9827 2943.3445 116.5370 0.687 -0.107 0.719 52 88 86
-2721.2563 2953.7153 112.6005 0.777 -0.064 0.626 38 82 78
-2718.9441 2959.6104 108.3732 0.967 -0.207 -0.152 35 81 75
-2714.6360 2971.7634 99.9113 0.873 -0.125 0.472 45 70 70
-2712.5554 2977.9392 95.6712 0.523 -0.381 0.762 56 60 65
-2693.7681 2992.2827 78.1198 0.815 -0.200 0.544 113 66 62
-2692.8748 2999.7175 73.9049 0.838 -0.217 0.501 96 49 45
-2705.8953 3124.7275 18.5142 0.931 -0.074 0.357 146 114 117
-2766.4438 3356.7703 -64.2185 -0.127 -0.838 0.531 174 134 135
-2775.0483 3376.1008 -69.1451 -0.069 -0.835 0.546 173 133 134
-2780.1572 3391.6113 -74.0891 -0.051 -0.904 0.425 173 133 134
-2625.7849 3303.3618 -115.1313 0.017 -0.698 0.716 57 21 23
-2610.4451 3295.2222 -119.5248 0.041 -0.743 0.668 40 5 7
-2605.1277 3298.6550 -124.1786 0.043 -0.743 0.668 31 0 3
-2593.2139 3294.3967 -128.6239 0.235 -0.565 0.791 46 14 19
-2582.0212 3290.9321 -133.0682 0.643 -0.340 0.686 80 48 53
-2576.0964 3293.6042 -137.6766 0.968 0.089 0.235 103 71 76
-2576.4814 3303.7002 -142.5180 0.969 0.098 0.225 151 119 124
-2576.3228 3313.1973 -147.3597 0.969 0.098 0.225 160 128 133
-2579.0022 3326.0969 -152.3379 0.943 0.050 0.328 176 141 147
-2586.0569 3344.2598 -157.5355 0.994 0.043 0.105 186 150 156
-2819.0879 3719.6887 -216.8294 0.742 -0.518 -0.426 176 125 132
-2729.5757 3653.5996 -233.1599 -0.079 -0.722 -0.687 201 150 157
-2725.3083 3659.2825 -238.3603 -0.087 -0.724 -0.684 211 160 167
-1952.6512 3258.0828 -464.0579 0.121 -0.989 0.090 241 201 201
-1738.5844 3363.6843 -635.0928 0.201 -0.608 0.768 85 53 51
-1732.4540 3364.2375 -638.7540 0.211 -0.632 0.746 68 36 34
-1667.2118 3337.8350 -661.5530 0.054 -0.790 0.611 36 13 7
-1656.7894 3341.7703 -669.2765 0.170 -0.785 0.596 53 32 23
-1652.4059 3357.0762 -679.3583 -0.028 -0.559 0.829 41 21 12
-1623.1316 3313.4399 -673.6750 -0.094 -0.606 0.790 37 17 8
-1632.4364 3342.8633 -683.2675 -0.125 -0.548 0.827 44 24 15
-1631.0657 3352.0967 -688.6461 -0.158 -0.591 0.791 44 24 15
-1317.0519 2922.4446 -646.9141 0.978 -0.169 -0.125 69 41 38
-1431.2594 3311.6306 -778.6892 0.761 -0.008 0.649 57 36 33
-1505.2765 3767.1633 -965.8630 0.779 0.153 0.607 149 101 104
-1502.4227 3775.5557 -971.6396 0.779 0.153 0.607 196 147 150
-1493.6379 3769.8708 -973.6432 0.783 0.044 0.621 222 176 176
-1484.1240 3777.6143 -982.7715 0.490 -0.329 0.807 246 197 200
-1236.1885 3286.2080 -873.6487 0.514 0.276 0.813 118 75 70
-1230.7212 3285.9814 -876.5535 0.502 0.270 0.822 121 73 71
-1208.6700 3297.9597 -894.7227 0.862 -0.199 -0.466 84 57 48
-1271.7911 3503.2253 -962.6309 0.590 -0.170 -0.789 63 36 27
-1183.3022 3400.9216 -960.2679 -0.426 -0.751 0.504 49 30 34
-1165.1168 3410.1914 -974.9472 0.694 -0.053 0.718 127 115 124
-1160.8514 3413.2751 -978.8455 0.694 -0.053 0.718 156 153 159
-1152.7135 3405.5720 -979.4819 0.753 -0.402 0.521 158 161 164
-1148.4374 3408.5781 -983.3473 0.753 -0.402 0.521 161 167 170
-1143.3442 3409.2876 -986.5140 0.942 -0.171 0.288 165 174 176
-1143.2290 3424.0486 -993.9668 0.939 -0.085 0.334 170 179 178
-1148.2242 3468.8430 -1013.6328 0.985 0.132 0.111 144 134 142
-1151.6815 3494.2832 -1024.4592 0.965 0.152 0.213 139 114 126
-1154.0840 3516.9055 -1034.4574 0.985 0.146 0.097 134 95 109
-1157.1219 3541.5654 -1045.1249 0.988 0.128 -0.086 137 84 104
-1160.9692 3568.7991 -1056.6338 0.989 0.121 -0.086 134 73 97
-1164.9471 3596.6580 -1068.3837 0.989 0.123 -0.084 135 71 89
-1171.9011 3633.5203 -1082.9976 0.989 0.122 -0.081 143 80 89
-1135.1505 3710.1724 -1141.6561 0.390 -0.822 -0.414 248 183 189
-1120.2255 3752.3809 -1171.0243 0.761 -0.369 -0.533 245 176 179
-1117.3110 3761.2209 -1177.0585 0.766 -0.370 -0.526 245 176 179
-3797.4482 2245.0701 1052.2253 0.013 -0.780 0.626 83 75 66
-3002.4985 1976.1675 749.6565 0.059 -0.983 -0.174 90 78 66
-3003.7292 1986.7755 745.0016 -0.078 -0.987 -0.138 97 81 66
-3438.6069 2511.3950 720.7458 0.924 -0.076 -0.376 150 115 96
-3516.3245 2581.5396 728.2801 0.918 -0.238 0.318 146 113 96
-3512.8516 2586.0032 724.1238 0.752 -0.157 0.641 146 113 96
-3519.8503 2597.3225 722.2876 0.684 -0.241 0.688 145 112 95
-3504.2244 2593.8474 715.4299 0.709 -0.213 0.672 136 103 86
-3425.6472 2582.2688 677.9813 0.920 -0.101 0.379 133 98 79
-3430.4182 2598.9578 672.2191 0.698 -0.242 0.674 127 92 73
-3415.3118 2595.5605 665.6082 0.491 -0.479 0.728 127 92 73
-3436.1313 2630.0938 659.7130 0.431 -0.381 0.818 121 84 65
-3523.0837 2696.2632 674.3309 -0.114 -0.987 -0.111 121 84 65
-3505.9375 2691.6106 667.2280 -0.106 -0.988 -0.109 121 84 65
-3541.4736 2744.5811 660.1683 -0.060 -0.936 -0.348 116 79 60
-3160.0359 2725.3406 459.7985 0.220 -0.976 0.003 95 47 25
-3162.1853 2734.2109 456.5230 0.225 -0.973 -0.039 96 48 26
-3085.9038 2754.1838 404.4777 0.902 -0.262 0.344 139 75 46
-2659.4136 2793.5505 149.8378 0.606 -0.758 0.240 138 67 37
-2724.5901 2950.7527 106.7028 0.966 -0.223 -0.133 40 59 50
-2713.7578 2972.8369 89.6362 0.817 -0.170 0.551 80 60 60
-2693.8154 2985.9922 72.0416 0.813 -0.208 0.544 137 79 65
-2693.2258 2993.7134 67.8354 0.831 -0.188 0.524 141 84 70
-2689.4541 2998.2446 63.4809 0.831 -0.188 0.524 146 89 76
-2766.3044 3136.9241 36.0852 0.620 -0.483 -0.618 182 119 101
-2721.1553 3098.9453 30.3152 0.997 -0.079 0.012 175 117 104
-2738.7944 3126.0247 26.4157 0.933 -0.136 0.332 172 119 110
-2731.4727 3127.2048 21.7907 0.915 -0.111 0.389 169 119 114
-2858.0046 3334.2473 -12.6132 0.666 -0.468 -0.582 159 118 126
-2580.2283 3178.7148 -87.3872 0.860 -0.504 0.079 180 140 141
-2633.1279 3266.4805 -102.3771 0.675 -0.234 0.700 152 116 118
-2633.1208 3304.5991 -121.5432 0.029 -0.696 0.718 65 29 31
-2615.6179 3294.0029 -125.8546 0.047 -0.745 0.665 45 10 12
-2606.4658 3292.9971 -130.3887 0.043 -0.743 0.668 36 3 9
-2592.3552 3286.1951 -134.7394 0.235 -0.565 0.791 33 1 6
-2580.0442 3281.4263 -139.1214 0.293 -0.535 0.792 48 16 21
-2565.8635 3274.4160 -143.4059 0.336 -0.508 0.793 72 40 45
-2559.5244 3276.5471 -147.9679 0.656 -0.257 0.710 132 100 105
-2555.0283 3280.8413 -152.6024 0.640 -0.263 0.722 148 113 119
-2559.0798 3295.2456 -157.6124 0.731 -0.187 0.656 167 132 138
-2569.7849 3317.6121 -162.9612 0.939 -0.315 0.139 180 144 150
-2562.6711 3328.6672 -172.4359 0.206 -0.967 0.150 200 150 159
-2555.2156 3329.5461 -176.9832 0.206 -0.967 0.150 200 150 159
-2559.3325 3364.1106 -192.0916 0.932 -0.314 -0.182 189 139 148
-2685.9797 3527.7424 -204.6096 0.555 -0.727 -0.404 180 130 139
-2819.9829 3734.7942 -234.9039 0.750 -0.513 -0.418 198 147 154
-2376.8433 3247.2427 -233.8315 0.226 -0.883 0.410 225 182 184
-2036.5901 3368.4727 -482.1367 -0.022 -0.996 -0.082 239 199 199
-2036.1213 3378.5918 -487.4817 -0.068 -0.996 -0.061 239 199 199
-2004.8014 3341.2388 -485.9510 -0.181 -0.982 -0.063 247 207 207
-1990.5458 3351.5249 -498.9718 0.323 -0.863 -0.388 238 202 200
-1896.8221 3388.6787 -569.2586 -0.312 -0.950 -0.007 109 79 79
-1748.0084 3360.6978 -637.1382 -0.055 -0.998 0.043 40 17 12
-1734.8918 3360.3035 -644.1627 0.314 -0.456 0.833 40 16 12
-1663.3228 3322.2817 -664.4594 0.176 -0.778 0.603 36 11 6
-1660.2129 3328.1187 -669.1061 0.167 -0.755 0.634 37 12 7
-1657.7408 3335.1697 -674.0118 0.400 -0.801 0.446 43 20 12
-1670.3419 3370.5264 -684.8467 0.006 -0.728 0.685 43 20 12
-1493.0967 3180.5610 -686.9531 0.618 -0.520 0.590 52 27 22
-1437.6287 3093.0828 -673.5220 0.411 -0.160 0.898 65 37 34
-1320.7786 2891.2600 -636.4106 0.899 -0.333 -0.283 63 35 32
-1316.5959 2903.5740 -644.9041 0.957 -0.192 -0.218 57 29 26
-1314.8782 2910.5369 -649.3503 0.959 -0.192 -0.209 57 29 26
-1314.9415 2921.1826 -654.6669 0.959 -0.197 -0.201 55 27 24
-1350.3180 3200.2539 -775.4749 -0.267 -0.948 0.175 48 28 29
-1328.7305 3176.6978 -775.5207 -0.299 -0.904 0.306 41 23 23
-1467.7615 3668.3145 -946.0964 0.674 0.077 0.735 126 77 80
-1401.0594 3596.8948 -946.9240 0.015 -0.786 -0.618 243 193 192
-1217.1466 3216.5276 -856.9875 0.510 0.273 0.816 150 102 91
-1188.1284 3196.3889 -862.8430 0.991 0.065 -0.116 129 94 84
-1190.9811 3216.7249 -871.4949 0.991 0.059 -0.118 115 87 76
-1194.4668 3252.2214 -887.4196 0.962 -0.082 -0.261 94 67 58
-1227.4712 3364.2725 -925.5732 0.792 -0.171 -0.586 79 51 40
-1266.2180 3493.2288 -969.0629 0.646 -0.407 -0.645 64 40 35
-1187.0797 3400.9849 -966.2703 -0.428 -0.753 0.500 51 32 36
-1159.1541 3383.5295 -972.8730 0.796 -0.345 0.497 102 89 98
-1155.1035 3387.0911 -976.8938 0.796 -0.345 0.497 113 109 115
-1151.4193 3391.6768 -981.2278 0.757 -0.425 0.497 129 130 134
-1147.5688 3395.8157 -985.4288 0.771 -0.397 0.497 152 158 161
-1144.3990 3401.8760 -990.2208 0.931 -0.183 0.316 168 176 178
-1143.6261 3414.7212 -997.1036 0.934 -0.182 0.306 157 164 164
-1143.9125 3430.6636 -1004.9601 0.993 0.033 0.110 152 151 154
-1146.4474 3453.1328 -1014.8594 0.992 0.051 0.111 143 133 141
-1149.1215 3476.1929 -1024.9792 0.959 0.131 0.250 141 117 128
-1150.5649 3495.9170 -1034.0996 0.964 0.154 0.218 126 87 101
-1154.6267 3523.3691 -1045.6631 0.987 0.127 -0.101 124 72 92
-1157.3513 3547.1851 -1056.1349 0.988 0.129 -0.079 133 72 98
-1159.5062 3569.5481 -1066.1902 0.987 0.125 -0.102 146 82 101
-1164.9359 3601.7043 -1079.3651 0.987 0.125 -0.102 144 81 91
-1191.1860 3695.4871 -1112.0546 0.216 -0.432 -0.876 149 87 92
-1212.6499 3811.0442 -1158.3256 0.174 -0.399 -0.900 148 86 91
-1246.2051 3966.5950 -1218.0430 0.354 -0.278 -0.893 157 95 100
-1146.1521 3697.2002 -1137.7140 0.966 0.180 0.184 157 96 104
-1145.4229 3712.3931 -1145.7531 0.965 0.138 0.223 189 126 134
-1148.0780 3738.2039 -1157.2659 0.757 0.169 0.631 224 159 167
-1143.8423 3742.7786 -1161.8981 0.642 0.104 0.760 237 174 182
-1115.1119 3723.7271 -1168.1415 -0.058 -0.916 -0.396 251 182 185
-1112.9684 3734.8765 -1174.9266 0.705 -0.626 -0.334 249 180 183
-1114.2238 3757.0430 -1185.3784 0.426 -0.839 -0.339 247 178 181
-1110.8937 3764.5881 -1191.0050 0.493 -0.848 -0.193 242 174 175
-1101.9312 3753.8726 -1190.5537 0.376 -0.880 -0.291 240 171 174
-1007.3978 4092.6997 -1412.9368 0.234 -0.571 -0.787 247 42 72
-2974.0854 1946.5775 741.4359 0.198 -0.938 -0.283 88 76 64
-2985.5122 1957.7902 742.0522 0.075 -0.953 -0.294 88 76 64
-2948.4541 1942.0490 729.6431 0.102 -0.981 -0.164 88 76 64
-2958.4771 1952.4996 729.8730 0.062 -0.926 -0.372 89 75 62
-2970.4807 1964.1073 730.6068 0.105 -0.906 -0.411 94 78 63
-2978.2646 1973.3972 730.1927 0.109 -0.909 -0.402 100 81 67
-3507.8965 2577.4023 716.2029 0.752 -0.157 0.641 150 117 100
-3504.9651 2588.9395 708.7687 0.741 -0.180 0.646 142 109 92
-3500.2073 2592.5686 704.3232 0.741 -0.180 0.646 142 109 92
-3495.4485 2596.1990 699.8767 0.741 -0.180 0.646 142 109 92
-3475.1135 2596.3000 688.6561 0.868 -0.347 -0.355 138 103 84
-3399.0574 2599.4880 645.2705 0.815 -0.066 0.575 125 88 69
-3083.5085 2746.5652 397.6996 0.906 -0.262 0.332 131 67 38
-3078.9297 2794.4297 371.0221 0.655 -0.742 -0.139 146 75 43
-3082.1499 2804.5173 367.6985 0.271 -0.961 -0.050 144 75 45
-3075.6941 2806.7205 363.0403 0.584 -0.802 -0.122 143 73 47
-2663.7859 2784.2524 148.1287 0.317 -0.938 0.143 138 67 37
-2662.7031 2790.8171 144.2201 0.886 -0.379 0.268 138 67 37
-2753.1133 3099.1655 38.2239 0.962 -0.088 0.258 198 119 99
-2783.1860 3147.6313 30.2764 0.615 -0.507 -0.603 184 116 103
-2788.8901 3162.4062 25.9511 0.975 -0.210 0.075 177 115 107
-2869.7937 3330.1121 -14.2694 0.531 -0.822 -0.207 168 120 131
-2863.8008 3333.2310 -19.1357 0.891 -0.275 -0.362 168 120 131
-2866.5625 3355.3052 -28.7620 0.897 -0.201 -0.393 173 132 138
-2570.9688 3161.4277 -93.2552 0.787 -0.617 0.001 184 145 146
-2620.0835 3235.2156 -103.5262 0.696 -0.622 0.357 169 135 136
-2621.5547 3246.2451 -108.2859 0.702 -0.673 0.233 155 121 122
-2618.9895 3290.6970 -132.1345 0.043 -0.743 0.668 54 20 21
-2591.5532 3278.0828 -140.8370 0.304 -0.540 0.785 35 3 8
-2578.9963 3273.0322 -145.1848 0.293 -0.535 0.792 46 14 19
-2560.7615 3261.2961 -149.2763 0.340 -0.512 0.789 66 34 39
-2553.0994 3261.8486 -153.7639 0.342 -0.512 0.788 117 85 90
-2551.0024 3268.9238 -158.4873 0.650 -0.263 0.713 136 101 107
-2548.3958 3275.4219 -163.1993 0.617 -0.281 0.735 159 124 130
-2566.8296 3306.8323 -168.9302 0.930 -0.132 0.344 176 140 147
-2564.1282 3323.0830 -178.6176 0.309 -0.936 0.169 196 146 155
-2557.1711 3324.5566 -183.1829 0.309 -0.936 0.169 196 146 155
-2740.4336 3672.6785 -258.2549 0.894 -0.377 -0.241 222 171 178
-2075.3560 3408.7698 -490.3466 0.261 -0.962 0.074 239 199 199
-2064.6831 3403.4468 -493.5219 -0.173 -0.977 -0.121 239 199 199
-2042.2653 3380.0820 -494.0409 -0.179 -0.978 -0.105 239 199 199
-1912.9414 3395.8833 -573.0527 -0.148 -0.948 -0.283 53 25 24
-1901.2114 3399.0588 -581.0988 -0.287 -0.931 0.225 53 23 23
-1867.5280 3388.0681 -594.0523 0.230 -0.909 -0.347 46 16 16
-1860.0864 3386.8638 -597.5319 0.248 -0.964 0.095 45 17 16
-1851.8894 3384.3467 -600.7637 0.235 -0.965 0.118 44 17 16
-1813.4200 3364.0793 -611.6631 -0.317 -0.933 0.169 49 31 25
-1791.2794 3348.5386 -615.9794 -0.343 -0.936 0.080 57 39 33
-1750.3444 3356.5767 -642.5219 0.247 -0.503 0.828 37 19 12
-1743.9490 3356.6875 -646.0908 0.249 -0.502 0.828 37 19 12
-1736.9915 3355.7676 -649.4481 0.242 -0.504 0.829 37 18 12
-1732.3401 3358.9683 -653.6187 0.257 -0.478 0.840 37 17 11
-1700.6312 3324.7327 -653.7534 0.164 -0.838 0.521 34 9 4
-1693.8958 3323.9856 -657.0759 0.164 -0.838 0.521 34 9 4
-1687.1774 3323.2407 -660.3901 0.164 -0.838 0.521 37 9 5
-1314.5623 2881.7124 -642.1736 0.640 -0.327 -0.695 56 28 25
-1315.2174 2903.7930 -652.9602 0.675 -0.229 -0.701 56 28 25
-1381.8566 3141.0190 -736.1102 0.828 -0.352 -0.437 54 30 26
-1332.3109 3188.2498 -787.1672 0.208 -0.879 0.429 37 18 18
-1216.6779 3219.2969 -866.3551 0.438 0.203 0.876 163 106 91
-1212.6687 3222.4351 -870.1415 0.641 0.197 0.742 164 106 94
-1187.8114 3186.4885 -865.6490 0.991 0.065 -0.116 142 105 92
-1186.6326 3196.5769 -871.3893 0.985 -0.021 -0.173 125 96 85
-1187.6259 3212.2314 -878.7462 0.977 -0.073 -0.199 109 82 73
-1200.8029 3272.4841 -901.9244 0.940 -0.055 -0.338 85 58 49
-1153.6398 3300.9463 -942.1982 0.781 -0.619 0.087 53 34 38
-1149.5134 3303.9600 -945.9860 0.781 -0.618 0.091 60 37 45
-1176.1266 3390.4287 -975.0180 0.619 -0.004 0.785 81 56 69
-1156.0466 3379.4907 -980.5259 0.801 -0.345 0.490 138 133 139
-1152.8541 3385.4077 -985.2665 0.774 -0.399 0.492 144 144 149
-1150.2572 3393.0115 -990.5313 0.948 -0.316 0.025 154 158 161
-1146.3505 3397.0012 -994.6913 0.941 -0.336 0.032 162 168 168
-1144.7206 3407.3960 -1000.8339 0.945 -0.326 0.043 166 171 172
-1141.5956 3413.6460 -1005.7054 0.947 -0.319 0.036 159 159 161
-1144.4326 3436.8352 -1015.8533 0.989 0.010 0.147 152 142 150
-1144.9098 3453.5002 -1024.0039 0.996 0.023 0.089 149 125 136
-1148.3323 3478.7361 -1034.8633 0.985 0.143 0.099 128 90 104
-1153.2866 3508.6018 -1047.2183 0.987 0.138 -0.082 123 71 91
-1143.6713 3643.5359 -1120.6158 0.847 0.249 0.471 165 102 110
-1140.1012 3666.7961 -1134.3187 0.960 0.188 0.209 136 75 83
-1140.5258 3685.3499 -1143.4515 0.963 0.178 0.203 136 73 81
-1142.7308 3709.5652 -1154.4644 0.786 0.203 0.584 148 83 91
-1139.6823 3717.6873 -1160.2390 0.746 0.170 0.644 170 107 115
-1136.4174 3725.1870 -1165.8184 0.641 0.106 0.760 201 138 147
-1138.8044 3750.4673 -1177.2688 0.342 -0.880 -0.329 236 173 181
-1131.8457 3746.5034 -1179.0902 0.332 -0.842 -0.425 242 177 182
-1122.4476 3734.7312 -1178.3096 0.299 -0.834 -0.463 235 166 170
-1117.0370 3735.5112 -1181.6753 0.354 -0.807 -0.472 236 167 170
-1120.2573 3763.9243 -1194.2496 0.456 -0.869 -0.190 240 171 174
-1113.3021 3759.8271 -1196.0018 0.489 -0.837 0.248 240 171 174
-1096.9277 3743.3794 -1196.6930 0.168 -0.955 -0.243 239 170 175
-1095.9309 3758.5107 -1204.8790 0.404 -0.893 -0.200 240 171 173
-1091.7369 3763.2505 -1209.5753 0.405 -0.889 -0.215 240 168 170
-753.5203 2941.0393 -980.2924 0.799 -0.467 0.378 229 115 111
-2966.8867 1953.2271 726.6677 0.062 -0.926 -0.372 89 75 63
-2997.9780 1975.4919 732.4161 0.106 -0.896 -0.432 91 75 62
-3001.5542 1982.4486 730.8491 0.107 -0.900 -0.423 93 75 61
-3016.6492 1995.9083 732.2967 0.361 -0.886 -0.291 94 75 60
-3026.6316 2006.5492 732.3719 0.408 -0.898 -0.163 94 75 60
-3000.0928 2006.6123 717.7993 0.317 -0.877 0.361 102 85 69
-2991.3970 2006.6870 712.9969 0.271 -0.707 0.653 110 91 76
-2988.0020 2009.7811 709.5684 0.353 -0.478 0.804 113 94 77
-2986.8350 2014.1570 706.7108 0.375 -0.365 0.852 117 96 77
-2981.3228 2016.0402 702.7358 0.380 -0.371 0.847 124 101 83
-2641.1318 2009.5156 519.6512 0.288 -0.914 -0.286 157 124 107
-2637.0405 2011.8771 516.2126 0.288 -0.914 -0.286 156 123 106
-3507.0962 2598.4512 695.5733 0.950 -0.224 0.219 149 116 99
-3504.9346 2603.8096 691.6726 0.950 -0.224 0.219 148 115 98
-3490.1973 2600.8711 685.0875 0.973 0.004 0.233 144 109 90
-3487.9600 2606.1785 681.1713 0.969 -0.001 0.247 145 110 91
-3384.8484 2571.0586 642.4792 0.850 -0.027 0.525 138 103 84
-3600.7100 2759.3955 665.2787 0.262 -0.931 -0.252 128 91 72
-3589.5005 2758.9639 659.3558 0.215 -0.945 -0.245 128 91 72
-3574.9683 2756.2200 652.7845 0.059 -0.993 -0.106 127 90 71
-3564.7385 2756.4109 647.0828 0.423 -0.596 -0.682 126 89 70
-3568.5969 2766.3450 644.1610 0.470 -0.595 -0.652 122 87 67
-3569.9971 2774.6086 640.7391 0.407 -0.581 -0.705 123 88 68
-3567.2317 2802.0635 625.3066 0.920 -0.186 -0.346 117 82 62
-3329.1885 2798.9456 496.4623 0.453 -0.840 0.299 95 54 36
-3083.0039 2791.9341 365.1308 0.655 -0.742 -0.139 139 68 36
-3085.9214 2801.7615 361.7476 0.286 -0.955 -0.080 139 70 41
-3080.0457 2804.4426 357.1691 0.584 -0.802 -0.122 143 73 47
-3072.9868 2806.1501 352.4360 0.643 -0.755 -0.125 141 73 50
-2626.2344 2803.6729 108.9142 0.419 -0.777 -0.470 145 98 85
-2671.4177 2862.7361 103.7299 0.467 -0.718 -0.516 157 92 88
-2711.5786 2925.6233 93.8555 0.841 -0.062 -0.538 155 108 95
-2738.0303 3051.4214 44.5787 0.925 -0.087 -0.370 185 107 81
-2745.6697 3067.7224 40.5011 0.925 -0.069 -0.375 200 120 100
-2743.2766 3091.1545 27.3117 0.803 -0.040 0.594 185 115 105
-2782.4873 3140.1841 23.9414 0.973 -0.215 0.079 179 115 110
-2694.8271 3058.5586 17.2895 0.608 -0.784 0.127 174 116 115
-2679.9866 3051.7908 12.5891 0.627 -0.779 0.014 171 116 120
-2846.6714 3233.4910 11.8088 0.691 -0.153 -0.706 168 117 123
-2862.0356 3286.5076 -6.6482 0.682 -0.507 -0.527 168 116 128
-2870.8757 3324.0693 -20.8455 0.511 -0.839 -0.186 177 126 137
-2861.2300 3323.2905 -25.7356 0.635 -0.766 -0.102 177 126 137
-2856.5640 3327.8049 -30.5806 0.635 -0.766 -0.102 179 137 143
-2868.1497 3349.7454 -35.3548 0.902 -0.208 -0.380 180 139 145
-2603.7476 3191.3250 -99.9152 -0.301 -0.929 0.216 191 152 153
-2627.1292 3236.1367 -109.8205 0.735 -0.276 0.619 176 140 142
-2634.7319 3263.5259 -119.5390 0.595 -0.682 0.425 153 117 119
-2616.6123 3280.7795 -138.2131 0.273 -0.557 0.784 68 32 34
-2605.3611 3277.3525 -142.6404 0.276 -0.524 0.806 51 18 24
-2590.6401 3269.8647 -146.9104 0.338 -0.292 0.895 39 7 12
-2584.9084 3272.7446 -151.5108 0.315 -0.304 0.899 42 10 15
-2561.5144 3255.0452 -155.3561 0.511 -0.238 0.826 57 25 30
-2551.9666 3253.3909 -159.7489 0.342 -0.512 0.788 96 64 69
-2551.4324 3262.2729 -164.5440 0.609 -0.263 0.748 118 86 91
-2545.9353 3265.3523 -169.1169 0.617 -0.281 0.735 148 116 121
-2564.5303 3316.2566 -184.7331 0.570 -0.822 0.015 187 140 148
-2561.2295 3322.0811 -189.4942 0.309 -0.936 0.169 189 139 148
-2506.4180 3266.3315 -191.2650 0.447 -0.602 0.662 189 139 148
-2496.7883 3264.3936 -195.5588 0.587 -0.420 0.692 167 117 126
-2121.5576 3448.6702 -494.5630 0.830 -0.534 -0.159 236 197 192
-2136.8225 3482.7920 -503.4963 0.854 -0.485 -0.186 239 199 199
-2076.9797 3425.1733 -507.0764 0.143 -0.862 0.487 239 199 199
-1918.1573 3396.3025 -579.4606 -0.040 -0.996 -0.082 44 16 15
-1866.1251 3366.2822 -592.7513 0.180 -0.972 0.148 60 30 30
-1859.7766 3366.8821 -596.5338 0.180 -0.972 0.148 60 30 30
-1851.5016 3364.2190 -599.7177 0.141 -0.984 0.105 60 30 30
-1845.2317 3364.9016 -603.4991 0.113 -0.987 0.114 58 32 30
-1837.4111 3362.9353 -606.7873 0.064 -0.985 0.163 47 32 25
-1826.7219 3356.0461 -609.1517 0.293 -0.952 0.095 46 32 24
-1803.9775 3328.4778 -607.6384 0.195 -0.976 0.093 45 32 24
-1792.5686 3320.1267 -609.6561 0.420 -0.889 0.184 45 31 23
-1787.0913 3321.9043 -613.5582 0.420 -0.889 0.184 30 17 9
-1779.0480 3319.2366 -616.6130 0.438 -0.885 0.158 27 15 7
-1770.6257 3315.8684 -619.5202 0.238 -0.970 0.054 25 13 5
-1763.4130 3314.5583 -622.8079 0.197 -0.978 0.074 23 10 2
-1757.4910 3315.4714 -626.5155 0.197 -0.978 0.074 33 19 12
-1754.8030 3322.0430 -631.3195 0.194 -0.978 0.079 33 19 12
-1749.9468 3324.8220 -635.3890 0.114 -0.986 0.125 33 19 11
-1741.9349 3322.0200 -638.3583 0.179 -0.981 0.071 32 19 11
-1730.3738 3312.8745 -640.0567 0.292 -0.945 -0.148 34 20 12
-1716.5590 3299.6218 -640.9078 0.198 -0.980 -0.007 34 19 12
-1321.0542 2929.2446 -669.8547 0.616 -0.301 -0.728 50 25 21
-1326.0630 2950.1335 -677.6995 0.911 -0.330 -0.246 50 25 21
-1329.0299 2966.9651 -684.6061 0.929 -0.340 -0.143 50 25 21
-1348.8220 3086.0447 -734.1259 0.837 0.003 -0.547 46 25 22
-1370.9357 3192.0156 -775.7285 0.986 -0.066 0.153 44 23 20
-1318.5465 3101.7856 -758.6933 0.898 -0.366 0.243 33 17 17
-1316.4801 3108.9722 -763.4685 0.970 -0.236 0.054 35 16 17
-1320.2094 3128.9595 -771.5572 0.986 -0.159 0.051 36 16 17
-1342.4358 3189.9983 -790.3211 -0.271 -0.891 0.364 33 15 15
-1343.3564 3204.2168 -797.0244 0.093 -0.863 0.497 37 18 19
-1307.2640 3364.8445 -898.2249 -0.094 -0.948 -0.303 207 152 142
-1218.6361 3176.3862 -851.2512 0.476 0.111 0.873 188 126 109
-1185.5286 3146.0566 -854.0162 0.568 -0.820 0.074 181 118 101
-1182.9230 3152.3564 -858.6375 0.984 -0.037 -0.175 174 121 107
-1177.0527 3150.5273 -860.9265 0.578 -0.486 -0.656 159 120 105
-1187.4126 3189.4214 -874.9666 0.985 -0.021 -0.173 137 108 97
-1183.9530 3193.7786 -879.0709 0.784 -0.485 -0.388 113 86 77
-1188.4664 3218.3601 -889.0588 0.848 -0.454 -0.273 94 67 58
-1194.5040 3247.0239 -900.2811 0.826 -0.499 -0.263 84 57 46
-1198.8914 3271.7058 -910.3889 0.977 -0.211 -0.024 80 52 41
-1199.3361 3286.4580 -917.6235 0.978 -0.205 0.039 71 45 36
-1158.3007 3289.6257 -941.7127 -0.129 -0.807 0.576 50 34 34
-1155.9504 3297.3699 -946.9260 0.781 -0.619 0.087 52 32 37
-1174.3800 3375.5879 -976.4788 0.619 -0.004 0.785 54 30 42
-1168.5271 3374.2522 -979.0085 0.655 -0.015 0.756 79 60 71
-1161.7601 3370.3792 -980.7529 0.925 -0.153 0.347 96 82 91
-1158.0297 3374.7773 -985.0264 0.917 -0.243 0.317 162 158 164
-1154.8325 3380.6619 -989.7610 0.917 -0.243 0.317 166 166 171
-1151.0552 3384.9680 -994.0135 0.922 -0.243 0.301 175 179 182
-1147.4114 3389.6606 -998.3887 0.944 -0.329 0.028 183 189 189
-1144.8885 3397.5083 -1003.7492 0.811 -0.506 0.292 179 184 184
-1142.7688 3406.5391 -1009.4885 0.885 -0.122 0.449 172 172 174
-1139.1755 3411.4663 -1013.9550 0.894 -0.104 0.435 165 155 163
-1141.3573 3432.8145 -1023.5814 0.956 0.112 0.273 161 137 149
-1140.2841 3460.4678 -1038.1876 0.956 0.105 0.273 125 74 94
-1134.1786 3636.9766 -1131.0087 0.957 0.192 0.219 194 133 141
-1134.3801 3654.6541 -1139.8594 0.957 0.189 0.218 181 118 126
-1134.6060 3672.5583 -1148.8116 0.842 0.230 0.488 167 102 110
-1134.0477 3688.1909 -1157.0420 0.786 0.202 0.584 157 94 102
-1132.4703 3700.7854 -1164.2906 0.640 0.102 0.762 168 105 114
-1129.7444 3709.8889 -1170.3989 0.638 0.098 0.764 181 118 126
-1132.5730 3754.4475 -1191.4369 0.912 0.152 0.381 226 157 161
-1117.2498 3723.8743 -1184.3342 0.766 -0.557 -0.320 234 165 170
-1113.8617 3731.0503 -1189.8282 0.437 -0.763 -0.476 244 175 178
-1110.0543 3736.9241 -1194.8920 0.438 -0.770 -0.464 243 174 177
-1103.0428 3732.4890 -1196.4854 0.077 -0.981 0.176 239 170 175
-1101.5475 3745.8691 -1204.0873 -0.033 -0.936 0.350 239 170 175
-1087.0764 3753.7607 -1216.0165 -0.100 -0.921 0.377 241 165 166
-1097.3942 3883.4895 -1276.1255 0.679 0.013 0.734 236 160 162
-754.9638 2936.0149 -983.4501 0.799 -0.467 0.378 229 115 111
-3004.4690 1994.9884 718.4881 0.216 -0.791 0.572 87 68 54
-2988.5759 1991.0002 711.8322 0.178 -0.786 0.592 87 68 54
-2977.0708 1989.4634 706.3268 0.178 -0.786 0.592 92 75 60
-2977.7114 1994.8173 703.9515 0.141 -0.800 0.583 99 81 66
-2973.9832 1997.6923 700.4505 0.272 -0.543 0.795 102 84 68
-2976.5869 2004.1957 698.5630 0.244 -0.713 0.658 106 86 70
-2639.1821 2004.2437 514.1380 0.282 -0.891 -0.355 162 129 113
-2636.7268 2007.6592 511.0574 0.238 -0.849 -0.471 161 128 112
-2637.2539 2013.0227 508.6153 0.180 -0.876 -0.448 153 121 104
-2629.9028 2013.2567 504.4787 0.392 -0.831 0.395 153 121 104
-2623.8098 2014.3013 500.6169 0.392 -0.831 0.395 154 122 104
-2617.4539 2015.1644 496.7038 0.469 -0.843 0.263 153 120 104
-3473.1790 2590.9875 671.2666 0.995 -0.001 0.103 149 115 97
-3468.6426 2594.7419 666.8763 0.992 0.004 0.124 149 115 97
-3368.3977 2548.0566 635.8542 0.753 -0.328 0.571 142 108 90
-3531.0996 2713.1848 640.7192 0.232 -0.963 -0.134 133 97 78
-3572.0552 2748.4624 645.1451 0.397 -0.909 -0.129 132 96 77
-3583.6267 2763.6758 643.7250 0.411 -0.633 -0.656 128 92 73
-3578.2874 2767.2678 638.9785 0.415 -0.632 -0.654 121 86 66
-3585.4331 2779.5176 636.6484 0.378 -0.634 -0.674 122 87 67
-3590.1809 2790.1516 633.8301 0.391 -0.603 -0.695 122 87 67
-3575.8511 2787.5200 627.3380 0.783 -0.257 -0.567 120 85 65
-3562.9636 2785.8606 621.1393 0.795 -0.209 -0.569 117 82 62
-3563.5317 2793.6123 617.5038 0.795 -0.209 -0.569 117 82 62
-3566.0793 2802.7827 614.2282 0.777 -0.226 -0.587 117 82 63
-3560.6855 2806.3804 609.4490 0.772 -0.231 -0.592 113 78 59
-3250.1946 2641.8782 523.4947 0.254 -0.899 -0.356 116 81 61
-3217.2483 2652.5823 500.0399 0.057 -0.991 0.124 111 74 55
-3285.0452 2745.3997 489.8455 0.805 -0.377 -0.458 107 66 48
-3331.4832 2802.2537 486.2845 -0.434 -0.895 -0.098 100 59 41
-3315.2739 2797.4285 479.8820 -0.447 -0.893 -0.045 100 59 39
-3286.5222 2783.0400 471.4925 -0.451 -0.892 -0.032 91 48 27
-3253.1172 2779.6797 454.9463 0.404 -0.877 -0.261 93 48 24
-3277.1719 2805.5186 454.9400 0.737 -0.675 0.018 91 48 25
-3267.9341 2805.8586 449.7182 0.486 -0.871 0.071 93 47 25
-3093.9746 2795.0239 360.1600 0.614 -0.789 -0.019 132 64 35
-3089.9666 2806.7009 352.0255 0.801 -0.599 0.004 141 73 49
-3096.7812 2819.7737 349.0955 0.747 -0.664 0.006 141 73 51
-3080.2434 2813.7512 343.1226 0.978 0.064 -0.198 141 73 51
-3073.4373 2815.6785 338.4218 0.970 0.001 -0.243 139 71 49
-3069.8022 2820.2141 334.1265 0.971 -0.165 0.173 134 67 42
-2674.6223 2650.9287 204.3223 -0.253 -0.855 -0.453 12 59 72
-2650.4109 2650.7002 191.2064 -0.253 -0.855 -0.453 39 67 84
-2626.3228 2782.6548 110.8722 0.623 -0.520 -0.584 164 108 88
-2623.0374 2787.1189 106.8042 0.602 -0.554 -0.575 161 109 92
-2623.6501 2795.3279 102.9605 0.576 -0.564 -0.591 161 112 98
-2692.2278 2884.7073 94.9429 0.907 -0.062 -0.416 192 111 105
-2705.5828 2905.6094 91.6019 0.818 -0.100 -0.567 195 122 110
-2713.5391 2921.3662 87.9293 0.813 -0.128 -0.569 195 132 117
-2742.4194 3066.4622 29.8545 0.746 -0.250 0.617 196 124 114
-2690.4907 3056.1355 6.7305 0.592 -0.806 -0.002 167 118 125
-2846.7600 3226.6421 5.3423 0.684 -0.167 -0.710 166 118 127
-2880.6687 3308.3716 -17.7289 0.661 -0.493 -0.566 181 128 139
-2880.2981 3317.4087 -22.5316 0.520 -0.826 -0.219 183 130 141
-2877.8665 3324.2971 -27.3670 0.514 -0.830 -0.217 182 130 139
-2865.4858 3320.6348 -32.2690 0.635 -0.766 -0.102 182 131 140
-2860.8201 3325.1497 -37.1173 0.635 -0.766 -0.102 184 141 146
-2611.4531 3220.7456 -120.2577 0.568 -0.571 0.592 170 131 133
-2629.0547 3249.9949 -125.5268 0.540 -0.733 0.414 161 121 123
-2640.6367 3272.5713 -130.6890 0.653 -0.635 0.413 144 105 107
-2618.9702 3276.3262 -144.4418 0.278 -0.529 0.802 79 41 43
-2606.1768 3271.1372 -148.7924 0.400 -0.356 0.844 58 24 29
-2560.4390 3246.6831 -161.3414 0.508 -0.246 0.826 51 19 23
-2553.6230 3248.2102 -165.8437 0.322 -0.510 0.798 80 48 53
-2551.2593 3254.9329 -170.5576 0.309 -0.521 0.795 105 73 78
-2548.5979 3261.3274 -175.2673 0.783 -0.200 0.589 140 108 112
-2569.3459 3314.6772 -191.0847 0.608 -0.794 -0.031 182 135 142
-2563.4644 3317.4331 -195.7021 0.461 -0.869 0.182 184 135 142
-2560.2263 3323.3381 -200.4775 0.444 -0.879 0.172 184 135 142
-2466.1606 3258.6877 -218.9777 0.935 0.094 0.341 224 174 179
-2157.8416 3517.5852 -519.2698 0.895 -0.408 -0.179 240 199 199
-2079.7593 3421.3792 -512.9716 0.143 -0.862 0.487 240 199 199
-2014.0361 3441.5500 -559.1588 0.332 -0.812 -0.479 39 10 8
-2017.8088 3458.8176 -565.8867 0.471 -0.790 -0.393 37 6 5
-1825.2107 3311.9417 -596.3818 -0.082 -0.984 -0.156 48 18 17
-1818.4727 3311.6589 -599.9205 -0.089 -0.985 -0.149 45 18 16
-1806.8567 3303.0984 -601.9112 0.032 -0.935 0.355 29 16 8
-1798.8737 3300.6204 -605.0129 0.022 -0.932 0.363 28 17 8
-1790.1743 3296.8804 -607.8634 -0.016 -0.930 0.367 29 17 8
-1780.3950 3291.2415 -610.3377 -0.009 -0.936 0.351 28 17 8
-1773.2205 3290.0110 -613.6324 0.281 -0.949 0.142 29 18 9
-1766.3781 3289.3208 -617.0206 0.282 -0.948 0.150 29 19 10
-1757.8789 3285.7361 -619.8408 0.540 -0.842 0.010 30 21 11
-1753.1794 3288.7004 -623.9183 0.540 -0.842 0.010 32 22 12
-1771.7024 3354.8904 -647.4879 0.975 -0.065 -0.213 27 15 6
-1346.8385 3062.4399 -730.8200 0.961 -0.273 -0.048 41 21 17
-1336.2468 3108.6580 -760.1353 0.841 -0.536 0.076 39 18 16
-1328.5562 3103.6628 -761.7957 0.930 -0.368 -0.016 35 16 15
-1314.0687 3083.8057 -759.6054 0.894 -0.351 0.276 28 13 12
-1311.4993 3089.8142 -764.0683 0.982 -0.172 0.075 30 11 12
-1315.0532 3109.2952 -772.0424 0.955 -0.297 0.002 31 12 13
-1341.3571 3179.0779 -793.1885 -0.282 -0.878 0.386 30 13 13
-1450.0479 3668.9685 -983.1570 0.804 -0.080 0.589 210 161 162
-1235.3416 3195.1965 -859.3337 0.466 -0.656 0.594 190 127 107
-1198.0372 3142.6145 -852.9555 0.402 0.175 0.899 187 126 105
-1197.2489 3153.3589 -858.8555 0.478 0.094 0.873 194 128 107
-1190.4409 3149.3083 -860.5143 0.945 -0.269 0.185 194 128 108
-1180.9703 3138.5908 -860.2347 0.633 -0.443 -0.635 185 131 112
-1183.1403 3156.7637 -868.2994 0.673 -0.353 -0.650 172 130 113
-1182.0181 3166.8354 -874.0397 0.532 -0.595 -0.602 147 116 102
-1182.7201 3194.6277 -887.8031 0.556 -0.822 -0.123 94 66 55
-1182.9161 3208.2847 -894.6479 0.347 -0.919 0.189 84 57 44
-1176.0292 3203.9819 -896.2216 0.434 -0.881 0.186 79 52 40
-1166.7737 3193.5474 -895.9684 0.638 -0.754 0.156 71 45 35
-1204.7007 3304.4148 -931.6755 0.971 -0.239 0.017 63 41 35
-1139.3745 3149.3328 -888.4360 0.297 -0.729 -0.617 58 38 33
-1171.9221 3358.9084 -977.3290 0.619 -0.000 0.785 52 31 39
-1166.4329 3358.5049 -980.1237 0.650 -0.016 0.759 52 35 44
-1162.0459 3361.0728 -983.8282 0.650 -0.016 0.759 52 40 48
-1157.6482 3363.6082 -987.5225 0.930 -0.133 0.342 105 99 104
-1154.0453 3368.3264 -991.8932 0.919 -0.012 0.393 122 121 124
-1148.7352 3368.3477 -994.8061 0.898 -0.071 0.433 147 149 149
-1145.7437 3374.7769 -999.7138 0.914 -0.069 0.400 167 170 170
-1145.5270 3388.9812 -1007.0627 0.890 -0.119 0.439 191 193 195
-1142.7867 3396.2236 -1012.2470 0.885 -0.122 0.449 186 181 183
-1138.6991 3399.7144 -1016.2578 0.884 -0.113 0.454 177 165 172
-1138.0366 3412.9055 -1023.3348 0.957 0.107 0.270 171 147 157
-1134.0752 3432.0603 -1035.2501 0.967 0.088 0.238 124 77 95
-1108.2947 3514.0398 -1091.0702 0.885 0.317 0.341 166 103 111
-1118.6553 3561.6174 -1109.6265 0.887 0.316 0.338 177 114 123
-1120.6718 3584.3220 -1120.0819 0.886 0.273 0.375 208 147 156
-1126.0131 3617.3755 -1133.9880 0.845 0.260 0.466 221 158 166
-1126.2383 3635.0479 -1142.8607 0.849 0.247 0.468 226 160 169
-1126.2585 3652.2402 -1151.6012 0.790 0.237 0.565 231 168 177
-1124.8867 3665.2661 -1158.9816 0.790 0.237 0.565 211 148 158
-1138.7395 3725.8242 -1182.2368 0.878 0.109 0.467 189 126 134
-1133.5206 3727.2617 -1185.8208 0.873 0.111 0.474 179 114 120
-1129.2107 3731.5432 -1190.3557 0.912 0.152 0.381 184 114 120
-1120.1677 3720.8599 -1189.8597 0.768 -0.553 -0.323 197 127 134
-1116.9583 3728.5891 -1195.5482 0.571 -0.729 -0.376 211 142 147
-1112.5363 3732.4897 -1199.9507 0.241 -0.968 -0.073 228 159 164
-1108.2942 3736.9785 -1204.5540 0.246 -0.967 -0.068 239 170 176
-1101.6903 3733.8481 -1206.5697 0.225 -0.926 -0.303 239 170 176
-1097.0522 3737.0396 -1210.7290 0.285 -0.889 -0.358 240 170 176
-1105.1993 3876.9858 -1277.5138 0.729 0.103 0.676 235 158 162
-2965.6975 1964.1852 705.4917 0.202 -0.909 -0.365 86 72 62
-2977.8308 1975.9344 706.1005 0.241 -0.888 -0.392 86 72 62
-2983.0364 1983.8267 704.9042 0.030 -0.880 0.474 86 72 62
-2975.3503 1994.4156 695.3017 0.314 -0.653 0.689 89 74 62
-2965.5332 1993.8096 690.2597 0.314 -0.653 0.689 90 75 63
-2960.1597 1995.7310 686.3482 0.285 -0.590 0.755 90 75 63
-2963.6282 2002.7311 684.6609 0.090 -0.787 0.610 91 76 64
-2976.1753 2014.9922 685.2337 0.194 -0.678 0.709 97 82 70
-2966.8445 2014.6577 680.3181 0.336 -0.645 0.686 105 90 78
-2960.5544 2016.0691 676.1676 0.317 -0.672 0.670 104 91 78
-2951.0720 2015.6155 671.2302 0.317 -0.672 0.670 107 92 80
-2949.6675 2019.8571 668.2964 0.418 -0.622 0.662 120 103 90
-2642.3252 2007.2799 507.1783 0.537 -0.623 -0.568 167 138 124
-2640.3071 2010.9889 504.1822 0.170 -0.870 -0.463 165 137 122
-2632.7712 2011.1091 500.0126 0.197 -0.868 -0.455 165 137 120
-2621.9768 2009.0850 495.1626 0.429 -0.890 0.156 165 137 122
-2643.6384 2038.4940 491.9390 0.569 -0.775 0.274 154 125 112
-2637.9875 2039.8699 488.1553 0.670 -0.735 0.102 153 125 112
-2634.6165 2053.0200 479.5957 0.741 -0.669 -0.056 147 118 105
-3393.1589 2572.6660 627.4973 0.880 -0.286 0.378 145 115 99
-3392.1306 2578.6841 623.8606 0.881 -0.291 0.374 143 111 95
-3557.4988 2768.9229 616.7703 0.752 -0.251 -0.610 123 88 69
-3557.9211 2776.5210 613.1169 0.752 -0.251 -0.610 120 85 66
-3560.5303 2785.6741 609.8607 0.773 -0.229 -0.592 120 85 66
-3247.1926 2627.3562 519.9693 0.926 0.168 0.337 124 87 69
-3235.3081 2632.5581 510.8315 0.157 -0.985 -0.078 122 84 65
-3283.0547 2738.2134 482.8550 0.774 -0.389 -0.500 114 76 57
-3293.9385 2797.6443 458.4102 -0.379 -0.921 -0.086 98 60 40
-3265.2979 2783.2019 450.1790 0.292 -0.932 -0.214 97 61 40
-3286.1069 2806.5227 449.6027 0.497 -0.867 -0.034 90 55 34
-3097.7268 2792.2480 354.2041 0.614 -0.789 -0.019 110 46 30
-3095.2703 2805.1780 346.2558 0.809 -0.586 0.038 123 58 41
-2962.6860 2755.3772 299.4333 0.656 -0.744 -0.127 116 49 31
-2774.9612 2734.0261 208.0092 0.861 -0.324 -0.392 18 49 58
-2678.4927 2670.2368 188.0253 -0.062 -0.992 -0.108 47 58 66
-2665.0645 2783.1423 122.9935 0.535 -0.783 0.317 143 73 42
-2656.0405 2789.8201 114.6609 0.463 -0.502 -0.731 154 85 56
-2651.0916 2792.7468 110.4668 0.485 -0.514 -0.708 157 91 63
-2639.8506 2789.6936 105.8995 0.381 -0.776 -0.503 170 106 79
-2634.6440 2799.9910 97.7978 0.083 -0.845 -0.529 180 119 93
-2663.5645 2835.3933 95.4677 0.368 -0.770 -0.521 183 122 98
-2695.1169 2881.4302 89.1368 0.907 -0.062 -0.416 220 156 134
-2705.2012 2899.1233 85.5904 0.796 -0.139 -0.589 234 169 146
-2706.5520 2908.4258 81.5718 0.796 -0.139 -0.589 230 163 143
-2744.4949 3036.4966 36.7932 0.589 -0.194 0.785 190 124 110
-2810.0442 3128.5312 25.4839 0.744 -0.357 0.565 179 122 122
-2888.3486 3309.3030 -24.2298 0.653 -0.497 -0.572 190 140 146
-2888.2471 3318.6243 -29.0498 0.457 -0.797 -0.394 190 141 146
-2883.1665 3322.7207 -33.9134 0.514 -0.830 -0.217 190 141 146
-2869.7439 3317.9771 -38.8060 0.635 -0.766 -0.102 190 141 145
-2867.9370 3325.5330 -43.6532 0.506 -0.845 -0.176 195 147 149
-2626.6616 3221.5740 -122.0454 0.743 -0.296 0.600 191 146 144
-2621.7668 3234.6934 -131.4197 0.558 -0.389 0.733 180 135 133
-2614.7876 3236.1467 -135.9674 0.558 -0.389 0.733 164 119 117
-2547.7896 3224.9280 -166.7568 0.840 -0.173 0.514 47 15 16
-2549.9827 3236.8779 -171.6694 0.941 -0.216 0.261 63 31 32
-2548.1130 3244.1428 -176.4021 0.931 -0.238 0.276 107 75 76
-2546.7788 3252.0598 -181.1761 0.938 -0.225 0.263 143 111 112
-2546.8623 3261.6709 -186.0434 0.932 -0.250 0.261 150 115 115
-2563.6436 3310.3540 -201.7793 0.462 -0.867 0.187 170 124 126
-2561.1594 3317.1377 -206.6010 0.529 -0.701 0.478 168 122 124
-2083.4902 3419.0330 -519.0850 0.647 -0.718 0.255 172 128 125
-2031.6514 3351.0083 -512.5741 0.062 -0.685 -0.725 127 82 80
-2035.2203 3444.3259 -558.3277 0.396 -0.666 -0.633 59 21 17
-1896.7115 3356.1099 -588.7440 -0.154 -0.988 0.009 48 13 11
-1898.4014 3370.0103 -594.9279 -0.161 -0.921 0.356 48 13 10
-1893.0138 3372.3086 -599.0397 -0.166 -0.912 0.374 48 13 10
-1346.4917 2923.6829 -667.6608 -0.086 -0.690 0.718 41 16 16
-1331.8735 2915.2300 -671.3091 0.988 -0.150 0.024 41 17 16
-1341.1187 3076.3621 -748.6315 0.981 0.159 -0.108 33 16 15
-1343.4718 3092.8357 -755.7691 0.986 0.146 -0.078 34 17 17
-1327.7480 3082.1523 -758.8801 0.939 -0.343 -0.026 34 17 17
