ply
format ascii 1.0
element vertex 796
property float x
property float y
property float z
property float nx
property float ny
property float nz
property uchar diffuse_red
property uchar diffuse_green
property uchar diffuse_blue
end_header
-2718.8721 3452.8167 57.2933 -0.339 -0.926 0.164 10 9 1
-2525.0618 3438.0806 -76.0539 0.617 -0.759 -0.208 38 41 50
-2523.5867 3498.3625 -113.2167 0.070 -0.667 -0.742 34 41 57
-2544.6875 3636.7163 -180.5480 0.408 -0.138 0.902 162 142 153
-1791.9281 3411.9124 -598.1729 0.717 -0.435 0.545 241 201 209
-1783.1069 3407.3159 -601.8924 0.333 -0.619 0.712 241 201 209
-1780.1222 3412.7529 -607.3361 0.347 -0.568 0.746 240 200 208
-1696.6973 3351.4277 -631.8263 0.047 -0.787 -0.615 214 182 180
-1660.2179 3349.8823 -657.6602 0.081 -0.900 0.428 59 34 27
-1598.7542 3301.4971 -673.7861 -0.196 -0.854 0.481 50 27 21
-1196.4071 3130.5200 -866.5873 -0.240 -0.858 0.454 209 138 119
-1189.9319 3127.2317 -869.3690 -0.240 -0.858 0.454 221 157 135
-1179.2294 3113.9597 -869.2759 -0.278 -0.868 0.412 232 174 151
-1135.9823 3271.7063 -995.4161 0.277 -0.737 0.617 72 59 66
-1131.4265 3273.3416 -999.7366 0.966 -0.240 0.097 56 43 50
-1130.0951 3283.3701 -1006.7158 0.971 -0.233 0.055 61 48 55
-1115.1674 3340.6934 -1051.9758 0.991 -0.106 0.077 93 73 82
-1088.8287 3428.9348 -1124.1116 0.981 -0.097 0.169 187 186 184
-1089.3398 3445.6064 -1133.7152 0.993 -0.028 0.111 207 204 205
-1088.5084 3458.5811 -1142.0909 0.995 -0.012 0.097 225 211 220
-1087.3278 3470.6621 -1150.1879 0.995 -0.008 0.095 208 191 201
-1084.2229 3477.2812 -1156.4271 0.988 0.005 0.154 189 169 180
-1083.0114 3489.4507 -1164.5997 0.988 0.005 0.154 181 161 172
-1061.5243 3900.1001 -1426.1490 -0.428 -0.859 0.282 219 107 113
-3388.6772 2953.7075 837.0037 0.857 -0.355 -0.373 32 47 42
-3403.0107 2970.8225 837.2140 0.870 -0.413 -0.270 29 47 43
-3271.7297 2898.5151 784.5160 -0.463 -0.884 -0.069 36 29 23
-3175.0474 2828.5461 755.7574 0.830 -0.551 -0.088 29 24 18
-3300.3774 3025.0803 729.4111 0.464 -0.409 0.786 62 41 23
-3304.0220 3034.3586 726.5027 0.583 -0.373 0.722 74 45 31
-3164.5603 2975.7537 659.5743 0.905 -0.421 -0.066 52 19 12
-3261.4480 3115.2192 646.7025 0.606 -0.732 -0.311 58 33 29
-3257.1294 3158.3230 617.6251 0.277 -0.712 0.646 99 74 69
-3247.5884 3156.8103 611.5453 0.137 -0.577 0.805 98 75 69
-3139.3135 3136.0623 544.7031 0.200 -0.670 0.715 51 28 20
-3137.8245 3141.5295 540.3253 0.592 -0.455 0.666 65 42 34
-3110.9783 3172.2693 502.1787 0.444 -0.572 0.690 68 41 32
-3065.9170 3144.9177 485.6131 -0.183 -0.659 0.730 77 50 41
-2455.7400 2748.3621 277.0405 -0.189 -0.981 -0.053 136 88 78
-2448.3457 2747.1882 272.3295 -0.189 -0.981 -0.053 146 98 88
-2440.9688 2746.0173 267.6297 -0.189 -0.981 -0.053 138 90 80
-2590.7024 3250.3259 74.1273 0.967 -0.238 0.089 69 40 36
-2985.5139 3721.5681 80.0339 -0.678 -0.724 -0.127 42 21 22
-2759.5857 3482.4604 58.2827 -0.691 -0.676 0.255 15 6 3
-2543.5850 3523.6755 -124.7254 -0.099 -0.828 -0.552 41 48 64
-2530.7090 3525.7012 -135.3754 -0.079 -0.934 -0.350 34 37 51
-2590.2925 3647.9387 -165.2166 0.303 -0.941 -0.153 76 75 89
-2584.6838 3650.3118 -170.7520 0.263 -0.955 -0.137 71 70 84
-2540.6296 3622.2388 -186.1462 0.407 -0.139 0.903 163 143 154
-1822.2173 3401.2822 -579.5752 0.407 -0.657 0.635 241 206 213
-1812.1066 3394.6477 -582.9931 0.372 -0.631 0.680 241 206 213
-1809.3975 3400.4795 -588.4836 0.406 -0.624 0.667 241 206 213
-1808.6143 3409.6082 -594.5455 0.342 -0.643 0.686 241 201 209
-1799.8717 3405.2261 -598.3154 0.414 -0.639 0.648 241 201 209
-1795.5719 3408.3960 -603.3708 0.387 -0.618 0.684 241 201 209
-1788.9971 3407.6721 -607.7520 0.387 -0.618 0.684 241 201 209
-1781.7363 3405.7498 -611.9151 0.347 -0.568 0.746 231 194 201
-1591.9949 3279.2388 -674.8507 -0.322 -0.854 0.410 50 27 21
-1588.6362 3283.6489 -679.9625 -0.273 -0.837 0.474 50 27 21
-1584.6790 3286.9648 -684.8549 -0.275 -0.841 0.466 50 27 21
-1566.6423 3264.0071 -684.2654 -0.298 -0.818 0.492 50 27 21
-1557.6199 3257.7593 -687.1185 -0.301 -0.818 0.491 48 25 19
-1343.4758 3148.0542 -778.0338 0.905 0.171 0.388 25 11 11
-1202.6968 3065.2175 -831.3593 -0.652 -0.695 0.301 151 87 75
-1208.9503 3149.1699 -877.2503 -0.311 -0.582 0.751 182 109 86
-1138.0475 3112.6553 -907.2371 -0.339 -0.912 0.229 67 46 43
-1154.8453 3178.3958 -934.4549 -0.370 -0.906 0.205 55 45 45
-1141.0668 3259.7346 -993.4490 0.277 -0.658 0.700 82 69 76
-1128.4657 3267.3018 -1007.2291 0.947 -0.321 -0.025 55 42 49
-1090.9886 3406.8916 -1118.6035 0.963 -0.109 0.247 67 68 66
-1088.4258 3414.6641 -1125.1538 0.963 -0.109 0.247 106 109 106
-1086.8654 3425.3396 -1132.7150 0.978 -0.107 0.181 172 172 172
-1087.9991 3443.7842 -1142.9733 0.995 -0.011 0.099 201 187 196
-1086.3290 3454.3599 -1150.5548 1.000 -0.020 0.018 198 181 191
-1084.1552 3463.5730 -1157.6860 0.999 -0.024 -0.024 189 172 182
-1080.1274 3467.4954 -1162.9946 0.953 -0.020 0.301 181 164 174
-3159.8596 2822.0564 738.7514 -0.171 -0.837 0.519 26 23 15
-3154.6279 2829.4512 730.4588 -0.337 -0.930 0.149 39 28 23
-3130.1130 2821.5701 717.2842 0.388 -0.865 -0.319 48 30 28
-3314.5706 3036.3508 722.5253 0.463 -0.375 0.803 71 40 24
-3275.4004 3067.9268 674.8030 -0.032 -0.839 -0.543 51 21 15
-3271.9495 3110.6838 646.4592 0.388 -0.792 -0.472 68 43 39
-3264.0981 3110.6165 640.7563 0.529 -0.772 -0.353 67 42 38
-3258.1079 3152.1829 611.2740 0.277 -0.712 0.646 98 74 68
-3224.5801 3143.3308 592.0922 0.381 -0.596 0.707 83 64 57
-3210.4338 3144.4861 581.0458 0.458 -0.527 0.716 107 88 81
-3069.6543 3141.2910 479.9886 -0.174 -0.676 0.716 76 51 45
-2465.8757 2752.1333 273.2944 -0.199 -0.979 -0.053 132 84 73
-2448.2710 2747.0469 263.4873 -0.169 -0.983 -0.072 139 91 80
-2445.2986 2750.2253 259.3935 0.298 -0.860 -0.415 133 85 74
-3043.7004 3778.3284 76.3197 -0.665 -0.731 -0.153 42 20 22
-2736.7339 3439.6687 56.2633 0.136 -0.838 0.528 26 9 10
-2724.6912 3434.3958 50.6377 0.143 -0.835 0.531 16 5 3
-2553.7419 3438.6602 -76.9947 0.481 -0.855 0.195 20 23 31
-2551.6904 3444.8801 -82.2515 0.416 -0.876 0.245 20 23 30
-2539.5286 3438.7769 -87.4629 0.689 -0.703 -0.175 26 29 37
-2511.9653 3529.7073 -162.5359 0.509 -0.833 -0.219 46 44 58
-2474.9927 3575.1836 -217.0447 0.445 -0.728 0.522 214 190 200
-2462.2727 3567.9736 -221.9961 0.464 -0.739 0.489 214 188 198
-2456.2292 3578.9851 -233.0666 0.612 -0.405 -0.679 224 193 199
-2453.2529 3584.5811 -238.6230 0.726 -0.667 -0.166 223 192 198
-1980.3545 3515.6235 -542.9291 0.328 -0.643 0.692 240 206 213
-1973.4597 3515.0225 -547.6098 0.330 -0.653 0.682 240 206 213
-1966.2397 3513.8787 -552.2010 0.330 -0.653 0.682 240 206 213
-1956.9232 3509.3176 -556.2621 0.345 -0.639 0.688 240 206 213
-1909.3752 3463.2998 -563.2573 0.326 -0.573 0.752 240 206 213
-1905.1162 3466.7598 -568.4624 0.332 -0.627 0.705 240 206 213
-1894.8284 3470.7852 -578.4192 0.396 -0.730 0.557 240 206 213
-1836.7770 3395.3286 -575.3210 0.038 -0.759 0.650 240 206 213
-1831.3206 3396.5527 -580.0519 0.027 -0.747 0.664 240 206 213
-1827.8680 3401.1299 -585.3416 0.027 -0.719 0.694 240 206 213
-1820.6886 3399.4600 -589.5852 0.005 -0.829 0.559 240 206 213
-1802.9197 3400.7058 -603.3362 0.322 -0.671 0.668 240 202 209
-1794.4678 3396.7910 -607.1553 0.323 -0.656 0.682 240 202 209
-1787.5244 3395.4163 -611.4046 0.279 -0.690 0.668 238 203 209
-1432.4370 3053.6711 -664.8004 0.576 -0.624 0.528 50 30 27
-1211.4735 3144.4690 -881.2746 -0.127 -0.895 0.428 162 87 64
-1202.4858 3271.0842 -964.3077 -0.509 -0.861 0.016 63 42 42
-1161.9399 3184.7397 -941.8286 -0.531 -0.833 0.156 55 45 45
-1188.2334 3341.0642 -1016.9922 -0.187 -0.734 0.652 57 46 48
-1171.0743 3311.0979 -1011.4493 -0.171 -0.710 0.683 66 54 59
-1157.2483 3289.3354 -1008.4223 -0.272 -0.729 0.628 85 72 78
-1150.1051 3311.4324 -1026.9913 0.181 -0.674 -0.716 70 57 63
-1126.6665 3291.3328 -1032.0002 0.915 -0.363 0.173 63 51 57
-1123.4949 3296.6855 -1037.5529 0.915 -0.363 0.173 111 100 104
-1095.6520 3362.8296 -1097.8630 0.997 -0.066 -0.040 92 78 81
-1093.7574 3372.1692 -1104.8888 0.997 -0.060 -0.048 78 71 71
-1093.9983 3387.5276 -1113.9869 0.981 -0.093 0.172 83 82 80
-1091.6898 3395.8860 -1120.7230 0.963 -0.109 0.247 90 93 90
-1089.1350 3403.6162 -1127.2600 0.963 -0.109 0.247 74 77 74
-1088.2172 3416.0293 -1135.4272 0.977 -0.124 0.174 88 87 88
-1087.2336 3428.3608 -1143.5933 0.981 -0.115 0.158 114 101 109
-1087.0131 3442.9729 -1152.5782 0.999 -0.010 0.032 130 116 125
-1084.0300 3449.7922 -1158.8784 0.999 -0.025 -0.022 148 133 143
-1078.3358 3448.8506 -1162.4753 0.956 -0.002 0.293 158 144 153
-1058.5576 3407.1016 -1151.7334 0.015 -0.445 0.895 179 164 174
-1042.1486 3618.9329 -1291.6542 0.960 -0.217 0.178 142 66 102
-1043.8555 3641.8503 -1304.2444 0.910 -0.316 -0.267 153 65 105
-1043.0271 3656.9377 -1313.9611 0.911 -0.316 -0.265 164 68 104
-1067.5239 3906.0188 -1446.4510 -0.523 -0.842 0.130 207 90 96
-938.7111 3565.8206 -1335.2509 -0.348 -0.937 0.014 231 30 62
-3145.3711 2754.0193 759.6428 0.279 -0.904 0.325 28 39 38
-3166.9248 2810.1069 741.3701 0.720 -0.623 -0.305 41 35 25
-3155.8479 2818.5967 728.1285 -0.312 -0.946 0.091 36 26 17
-3138.7957 2816.6399 716.8579 0.696 -0.652 -0.302 41 27 15
-3154.4604 2840.6040 713.7670 0.566 -0.767 -0.303 44 28 13
-3309.8101 3025.8777 714.8834 0.463 -0.375 0.803 69 41 23
-3341.8884 3083.9736 703.0813 0.649 -0.695 -0.309 55 29 22
-3304.4854 3072.4722 682.7325 -0.208 -0.945 -0.254 56 30 23
-3280.3608 3110.9578 641.7657 0.389 -0.794 -0.466 84 60 58
-3276.4077 3114.2090 636.9058 0.388 -0.802 -0.454 84 60 58
-3193.8757 3076.7036 599.3605 0.495 -0.764 0.414 69 48 43
-3187.6321 3077.8918 594.0786 0.495 -0.764 0.414 74 53 48
-3187.6030 3084.4333 590.0895 0.466 -0.779 0.418 83 62 57
-3217.4441 3130.1758 584.1459 0.739 -0.358 0.571 81 65 58
-2505.0747 2759.7375 288.4071 -0.147 -0.875 -0.461 90 44 23
-2494.2715 2761.4556 279.4730 -0.208 -0.977 -0.049 97 50 33
-2477.0742 2756.9092 269.6669 -0.174 -0.982 -0.076 114 65 50
-2459.6335 2752.0439 259.8767 -0.180 -0.981 -0.071 142 93 79
-2454.9375 2753.5413 255.5378 0.288 -0.870 -0.401 134 85 71
-2695.2715 3376.2908 53.3977 -0.042 -0.998 -0.054 51 24 24
-2552.4238 3428.5898 -82.6802 0.510 -0.838 0.194 28 29 35
-2550.1677 3434.5312 -87.9321 0.387 -0.890 0.241 30 31 36
-2540.0195 3430.8833 -93.1331 0.668 -0.724 -0.175 30 31 37
-2543.7551 3444.1589 -98.4563 0.630 -0.752 -0.193 30 30 38
-2531.7749 3518.4836 -152.2884 0.762 -0.410 0.501 51 44 57
-2501.0579 3581.1335 -212.7277 0.489 -0.723 0.488 215 182 191
-2480.6274 3573.4343 -222.9832 0.472 -0.720 0.509 219 186 196
-2476.3728 3605.9250 -245.7980 0.680 -0.598 -0.425 227 192 199
-2474.1035 3612.5403 -251.4682 0.680 -0.598 -0.425 227 192 199
-2473.3052 3621.1348 -257.2643 0.686 -0.584 -0.435 230 196 203
-1888.0942 3398.4771 -549.7408 0.386 -0.843 0.375 238 213 214
-1876.8031 3390.2964 -553.0277 0.166 -0.938 0.305 238 213 214
-1873.1019 3394.4312 -558.2393 0.187 -0.924 0.334 238 213 214
-1869.2936 3398.4050 -563.4318 0.139 -0.943 0.303 238 213 215
-1695.7666 3320.7517 -643.1027 -0.044 -0.747 0.664 45 26 22
-1687.7543 3317.0659 -646.7205 -0.044 -0.747 0.664 45 26 22
-1674.6594 3304.3416 -648.5692 -0.000 -0.710 0.704 45 26 22
-1208.9193 3128.0745 -881.9037 -0.140 -0.802 0.581 163 93 77
-1200.0892 3119.4124 -883.1008 -0.150 -0.829 0.539 142 75 57
-1168.1455 3188.8455 -948.5504 -0.553 -0.829 0.087 61 48 48
-1165.9500 3196.0110 -954.5004 -0.547 -0.834 0.070 60 48 48
-1242.1152 3450.7480 -1053.3633 -0.106 -0.834 0.541 58 46 46
-1185.1001 3334.7585 -1024.6648 -0.181 -0.717 0.673 66 51 54
-1157.8511 3319.4509 -1035.2869 0.196 -0.660 -0.725 88 73 77
-1091.4174 3353.0024 -1104.1698 0.997 0.070 0.018 100 91 92
-1092.8110 3371.4211 -1114.3231 1.000 0.008 -0.019 123 115 116
-1093.5024 3388.0449 -1123.9009 0.984 -0.102 0.147 159 152 152
-1092.9236 3401.2573 -1132.3375 0.991 -0.130 0.038 179 171 172
-1091.2825 3411.5935 -1139.8055 0.991 -0.130 0.038 164 157 159
-1088.3031 3418.2307 -1146.0078 0.981 -0.098 0.167 124 113 119
-1086.5078 3428.2793 -1153.4142 0.996 -0.048 0.080 114 104 110
-1081.6549 3429.6814 -1157.8098 0.999 -0.043 0.024 104 96 101
-1069.6931 3410.6863 -1155.0273 0.179 -0.495 0.850 87 77 83
-1060.9705 3400.8230 -1155.4174 0.048 -0.434 0.900 101 90 96
-1044.4757 3593.9980 -1284.6338 0.974 -0.164 0.156 194 155 180
-1042.6440 3605.5286 -1292.9655 0.977 -0.159 0.141 145 99 127
-1042.4420 3622.2888 -1303.2788 0.958 -0.282 -0.060 125 72 102
-1042.0372 3638.5676 -1313.4479 0.974 -0.226 -0.031 124 65 94
-1038.5999 3645.3577 -1320.0775 0.974 -0.225 -0.022 133 69 95
-515.7229 3680.4272 -1723.3350 -0.188 -0.788 -0.587 166 135 114
-3572.0618 3031.8503 892.0773 0.037 -0.396 0.918 76 72 69
-3171.2966 2807.5034 736.3710 0.720 -0.623 -0.305 42 34 25
-3158.4866 2849.3315 701.5439 0.841 -0.541 0.003 37 21 6
-3314.8762 3074.3374 678.5646 -0.212 -0.945 -0.248 82 57 50
-3315.7886 3114.1760 654.9606 0.647 -0.698 -0.307 99 75 73
-3321.9612 3125.9482 652.2924 0.654 -0.703 -0.279 93 69 67
-3287.1252 3123.0398 628.6497 0.629 -0.753 -0.193 79 58 53
-3283.7603 3126.8206 623.8914 0.633 -0.747 -0.204 75 54 49
-3200.4700 3075.5710 594.3481 0.475 -0.775 0.418 73 52 47
-3196.5706 3078.7773 589.5500 0.466 -0.779 0.418 74 53 48
-3190.1072 3079.7849 584.2209 0.466 -0.779 0.418 77 56 51
-3233.0474 3123.3726 588.9943 0.279 -0.632 0.723 79 59 53
-3220.4651 3119.1855 582.3657 0.341 -0.860 0.379 70 52 46
-2797.0747 2917.1785 396.5437 0.694 -0.452 0.560 59 57 47
-2505.6780 2766.3364 275.8481 0.046 -0.998 -0.041 95 48 30
-2474.2551 2760.1929 256.6661 -0.130 -0.984 -0.120 143 94 79
-2466.1599 2758.3811 251.8641 -0.134 -0.982 -0.135 138 89 74
-2671.0659 3277.1582 85.3149 -0.524 -0.738 0.426 129 96 91
-2563.9778 3434.1021 -88.4212 0.446 -0.894 0.042 28 29 34
-2565.1421 3444.2004 -93.7236 0.118 -0.982 -0.145 30 31 36
-2555.8660 3441.6636 -98.9456 0.019 -0.979 -0.202 30 31 36
-2554.5466 3448.7917 -104.2507 0.090 -0.983 -0.160 30 31 37
-2578.5571 3522.6731 -131.7421 0.480 -0.418 -0.771 40 39 53
-2520.8247 3486.9602 -152.1045 0.159 -0.616 0.772 51 43 57
-2531.9976 3519.0337 -163.4926 0.569 -0.783 -0.250 71 57 69
-2466.6199 3564.9111 -239.1372 0.153 -0.658 0.737 219 184 191
-2366.4609 3574.4482 -318.0181 0.968 0.057 -0.243 230 195 202
-2376.0444 3597.3201 -324.9599 0.977 0.063 -0.205 229 197 202
-1928.7677 3434.2041 -551.9006 0.368 -0.650 0.665 234 210 210
-1900.0786 3398.2463 -550.9253 0.408 -0.839 0.360 232 208 208
-1894.2911 3399.0376 -555.6297 0.408 -0.839 0.360 233 209 209
-1887.9417 3398.9109 -560.1846 0.157 -0.950 0.269 233 209 209
-1882.2938 3399.9116 -564.9147 0.141 -0.957 0.253 233 209 209
-1874.8590 3397.9905 -569.1683 0.104 -0.920 0.377 233 209 209
-1836.5029 3396.3298 -596.1393 0.023 -0.755 0.655 219 194 197
-1777.1750 3368.8538 -622.6837 0.075 -0.773 0.631 71 51 50
-1744.3197 3354.0759 -637.6506 -0.095 -0.777 0.622 43 22 19
-1303.8181 2974.5610 -727.8185 0.036 -0.620 0.783 24 20 19
-1299.1077 3135.1250 -829.0703 0.878 0.145 0.457 24 2 5
-1245.5342 3074.5354 -831.2439 -0.016 -0.092 0.996 66 32 40
-1181.4928 3054.6438 -865.8472 0.948 -0.312 0.060 160 91 76
-1200.7725 3110.5698 -885.8519 -0.168 -0.770 0.616 131 64 48
-1201.3785 3363.8784 -1039.7250 0.901 -0.040 0.431 66 51 54
-1159.7515 3312.4062 -1038.7372 0.164 -0.661 -0.732 87 72 75
-1089.2090 3363.3062 -1121.2096 0.959 0.052 0.280 129 120 121
-1090.5392 3381.6860 -1131.4362 0.956 0.062 0.287 176 167 168
-1094.5171 3407.6443 -1144.3478 0.990 -0.139 0.015 211 202 205
-1089.5382 3408.6279 -1148.5792 0.974 -0.103 0.202 202 191 197
-1086.9442 3416.3494 -1155.1757 0.996 -0.048 0.080 172 163 168
-1081.6130 3416.3491 -1159.0648 0.999 -0.040 0.028 136 130 134
-1073.2795 3407.7556 -1159.9094 0.987 -0.066 0.147 117 108 113
-1045.8616 3583.5442 -1287.0022 0.974 -0.164 0.156 180 144 168
-1046.5039 3602.6985 -1298.2025 0.931 -0.362 -0.048 137 95 123
-1044.8524 3614.8533 -1306.8119 0.958 -0.282 -0.060 122 73 102
-1049.9061 3701.8875 -1356.1461 0.847 -0.266 0.461 200 130 146
-525.2726 3138.4187 -1395.6279 0.835 -0.329 0.441 177 83 83
-471.7193 3127.6108 -1428.1138 0.816 -0.159 -0.556 112 86 73
-3162.1509 2788.7322 731.4127 0.654 -0.653 -0.382 44 35 26
-3169.2810 2834.3291 708.7079 0.663 -0.748 -0.045 43 27 12
-3165.9800 2837.5173 704.3524 0.663 -0.748 -0.045 43 27 11
-3163.5684 2841.4155 700.2101 0.841 -0.541 0.003 45 29 13
-3161.0793 2845.2620 696.0432 0.841 -0.541 0.003 47 31 16
-3158.5864 2849.1147 691.8697 0.841 -0.541 0.003 43 30 13
-3313.7297 3034.7891 691.2906 0.607 -0.688 -0.398 62 36 23
-3344.1467 3065.9512 694.3837 0.707 -0.434 0.559 55 31 21
-3323.8247 3114.0532 650.1459 0.701 -0.670 -0.244 99 75 73
-3319.6885 3123.7727 641.1855 0.406 -0.909 -0.092 96 72 70
-3197.3599 3066.1433 587.3248 0.484 -0.786 0.383 79 58 53
-3192.2224 3068.2725 582.2790 0.480 -0.773 0.415 72 51 46
-3189.6221 3072.5789 577.7496 0.472 -0.777 0.417 68 47 42
-3178.6497 3069.6973 571.5187 0.224 -0.926 0.302 65 45 39
-3175.5620 3073.5886 566.8882 0.414 -0.863 0.288 63 45 38
-3169.3721 3074.8088 561.6320 0.414 -0.863 0.288 65 50 43
-3163.1860 3076.0288 556.3787 0.414 -0.863 0.288 75 60 53
-3110.9045 3103.2209 501.6508 0.994 -0.016 0.112 54 44 47
-2501.5510 2762.2502 266.3360 -0.076 -0.996 -0.042 92 43 28
-2654.3250 3251.0066 78.5839 -0.330 -0.883 0.335 129 96 89
-2664.1277 3309.1467 50.1515 0.791 -0.452 0.412 69 36 31
-2703.9998 3378.1067 37.0057 -0.036 -0.998 0.051 35 13 10
-2652.0959 3327.8059 29.9687 0.078 -0.982 0.173 24 9 2
-2572.1714 3444.2019 -99.4796 0.118 -0.982 -0.145 30 31 36
-2563.7305 3442.6990 -104.7096 0.019 -0.979 -0.202 30 31 36
-2561.7834 3449.0635 -110.0223 0.090 -0.983 -0.160 30 31 37
-2490.7854 3577.8904 -240.5735 0.574 -0.593 -0.565 205 172 181
-2382.0999 3615.8933 -343.0091 0.997 -0.072 0.022 229 197 202
-2361.9102 3617.6658 -358.8030 0.287 -0.370 0.884 230 198 203
-2315.0181 3672.6895 -426.6335 -0.210 -0.603 0.769 235 199 203
-1930.8429 3428.0029 -556.8079 0.368 -0.650 0.665 216 192 192
-1924.2792 3427.6702 -561.3864 0.353 -0.647 0.676 209 185 185
-1899.1708 3397.4539 -561.1906 0.412 -0.840 0.354 205 181 181
-1892.3872 3396.6370 -565.6329 0.157 -0.950 0.269 205 181 181
-1886.8331 3397.7954 -570.3882 0.141 -0.957 0.253 205 181 181
-1879.0443 3395.3135 -574.5442 0.104 -0.920 0.377 205 181 181
-1692.4584 3285.5637 -643.3287 0.285 -0.906 0.313 36 15 12
-1685.6970 3294.3123 -653.6076 0.053 -0.990 0.131 32 11 8
-1341.3020 2950.3850 -694.0778 0.483 -0.480 -0.733 30 23 14
-1340.4696 2958.5645 -699.6891 0.423 -0.525 -0.739 30 23 14
-1176.2047 3043.7383 -871.4797 0.963 -0.268 0.033 136 66 54
-1169.6996 3051.5691 -881.0104 0.044 -0.692 0.721 138 71 55
-1168.8707 3181.0212 -960.8222 -0.365 -0.907 0.209 60 48 48
-1220.9371 3428.6038 -1074.3777 0.669 -0.436 0.602 90 75 78
-1232.1353 3485.2520 -1100.8806 0.622 -0.621 0.477 86 71 74
-1087.1818 3389.0151 -1147.6021 0.943 0.056 0.329 134 125 130
-1084.7894 3397.1978 -1154.3517 0.955 0.076 0.286 127 118 123
-1077.3805 3391.2446 -1156.1069 0.914 0.155 0.376 119 110 115
-1074.5599 3398.2666 -1162.4584 0.057 -0.674 0.737 112 106 110
-1048.0271 3575.5623 -1290.2709 0.974 -0.162 0.156 161 122 148
-1045.9260 3586.1050 -1298.2523 0.974 -0.160 0.162 132 87 116
-1045.7219 3602.6531 -1308.5264 0.972 -0.233 -0.031 123 72 102
-1066.2034 3738.2544 -1376.5751 0.867 0.264 0.423 210 145 161
-1048.8062 3700.9238 -1366.4083 0.911 -0.256 0.323 196 119 133
-1047.1178 3713.7361 -1375.4779 0.907 -0.251 0.339 206 117 127
-3323.2842 2860.6626 794.7108 -0.032 -0.599 0.800 27 37 38
-3273.3142 2857.1543 760.5110 0.320 -0.781 -0.537 42 36 31
-3171.6375 2790.1152 727.7346 0.670 -0.632 -0.391 44 35 26
-3207.6418 2823.6938 733.2941 0.669 -0.661 -0.341 42 34 25
-3174.6963 2832.5034 703.9106 0.741 -0.671 0.019 42 26 11
-3171.5718 2835.8303 699.5929 0.741 -0.671 0.019 43 27 11
-3165.8176 2837.0867 694.6344 0.669 -0.742 -0.034 55 39 23
-3162.6853 2840.4160 690.3094 0.664 -0.747 -0.036 82 69 53
-3159.3513 2843.5920 685.9318 0.664 -0.747 -0.036 62 48 32
-3158.2783 2848.5730 682.0903 0.834 -0.552 0.002 41 24 8
-3153.6870 2856.6238 673.8022 0.841 -0.541 0.003 57 31 14
-3150.5852 2860.0188 669.4593 0.842 -0.539 -0.009 59 32 13
-3306.6157 3022.4006 683.1882 0.562 -0.748 -0.353 61 35 22
-3310.8640 3057.6135 664.6393 0.371 -0.274 0.887 101 77 67
-3195.7366 3071.0388 572.6276 0.456 -0.747 0.484 64 43 38
-3177.7949 3062.1963 565.0085 0.177 -0.929 0.324 58 38 32
-3169.1223 3061.2710 559.2674 0.324 -0.936 -0.136 58 40 33
-3164.3096 3063.6582 554.2987 0.324 -0.936 -0.136 60 45 38
-3160.6484 3067.0425 549.5554 0.343 -0.930 -0.133 64 49 42
-3157.5654 3070.9341 544.9208 0.319 -0.940 -0.123 68 53 46
-3095.6033 3076.0984 496.6665 0.078 -0.794 0.603 51 47 48
-2508.0635 2762.3665 262.0042 -0.117 -0.987 -0.112 87 38 23
-2501.9895 2762.5906 257.4473 -0.123 -0.986 -0.113 99 50 35
-2494.9412 2761.8604 252.7681 -0.117 -0.987 -0.112 125 76 62
-2485.6682 2765.0752 244.0460 -0.132 -0.991 -0.035 150 101 86
-2486.7319 2772.2644 240.4018 0.142 -0.896 -0.422 150 101 86
-2676.5874 3259.8833 78.8674 0.135 -0.573 0.808 120 87 82
-2625.2461 3226.8518 61.8133 -0.188 -0.848 0.495 97 64 57
-2672.8491 3302.9797 49.6628 0.872 -0.238 0.429 68 35 28
-2665.0601 3302.2878 44.4212 0.791 -0.452 0.412 69 36 31
-2728.1633 3380.6658 42.1652 -0.056 -0.960 0.275 65 35 31
-2711.0198 3377.8796 31.4047 -0.055 -0.998 -0.034 35 12 10
-2700.5310 3374.3027 25.9718 -0.052 -0.996 -0.079 24 9 2
-2680.1958 3367.7837 15.1832 -0.096 -0.654 -0.750 12 10 0
-2555.7051 3605.2666 -221.3343 0.197 -0.956 -0.217 194 158 168
-2489.7830 3567.4907 -246.0808 0.733 -0.675 -0.084 221 185 195
-2374.3289 3595.8132 -347.4849 0.538 -0.399 0.742 229 197 202
-2372.1257 3602.5977 -353.2572 0.280 -0.455 0.845 229 197 202
-2366.0967 3604.1292 -358.5847 0.308 -0.372 0.876 230 198 203
-2327.8792 3570.8525 -365.9398 0.356 -0.422 0.834 230 198 203
-2024.5702 3414.8015 -490.7119 -0.026 -0.747 -0.665 234 201 208
-1926.9133 3422.3792 -566.4190 0.349 -0.648 0.677 126 102 102
-1902.5736 3393.4890 -566.3731 0.420 -0.834 0.359 118 94 94
-1896.5068 3393.8325 -570.9981 0.187 -0.919 0.346 118 94 94
-1889.2249 3392.2017 -575.2939 0.085 -0.928 0.363 118 94 94
-1882.2966 3391.1208 -579.6703 0.085 -0.928 0.363 118 94 94
-1722.1329 3296.7749 -638.2176 0.565 -0.717 -0.409 30 11 7
-1716.1423 3317.2290 -655.1461 0.630 -0.754 0.184 30 11 7
-1430.6869 3024.1340 -682.7092 0.672 -0.741 -0.006 40 30 20
-1425.8773 3024.9163 -686.6890 0.668 -0.743 0.048 40 30 20
-1414.5999 3033.2261 -700.0007 -0.060 -0.767 0.639 35 25 15
-1362.0223 2981.7119 -706.5957 -0.275 -0.753 0.598 32 22 12
-1308.9318 2966.6016 -735.9359 0.268 -0.806 -0.529 31 17 19
-1153.2048 3037.4055 -892.7472 -0.337 -0.830 0.446 176 114 94
-1207.6801 3438.6011 -1099.6664 0.865 -0.459 0.202 88 73 76
-1206.4316 3463.8467 -1116.0894 0.539 -0.807 -0.242 65 50 53
-1202.9064 3469.0759 -1121.8676 0.426 -0.891 -0.155 56 41 44
-1199.6227 3474.9673 -1127.8772 0.429 -0.890 -0.155 49 34 37
-1197.8855 3484.9553 -1135.2791 0.389 -0.909 -0.151 47 32 35
-1192.4199 3485.1890 -1139.3993 0.053 -0.988 0.144 59 44 47
-1076.1659 3316.4150 -1120.2606 0.897 0.226 0.379 92 83 84
-1075.9990 3330.3696 -1128.9578 0.897 0.226 0.379 71 62 65
-1077.3296 3348.6223 -1139.2069 0.897 0.225 0.381 71 62 67
-1077.5063 3363.8005 -1148.4060 0.898 0.223 0.380 71 62 67
-1074.4663 3370.0442 -1154.4547 0.914 0.155 0.376 70 61 66
-1077.4664 3393.4387 -1166.6490 0.057 -0.674 0.737 71 62 67
-1050.6763 3332.2603 -1148.5433 0.066 -0.437 0.897 67 61 65
-1611.4850 5020.4478 -1777.9938 0.164 -0.420 0.892 175 150 161
-1056.6104 3520.6248 -1259.9844 0.904 0.269 0.333 119 86 106
-1060.2534 3548.0869 -1274.2106 0.916 0.263 0.303 149 121 143
-1063.1241 3573.4678 -1287.7196 0.922 0.251 0.295 188 157 180
-1051.3179 3571.0803 -1294.8422 0.974 -0.166 0.154 147 103 130
-1052.0844 3590.4285 -1306.1748 0.877 -0.109 0.468 133 80 112
-1039.4647 3691.6714 -1377.5746 0.676 -0.430 0.598 214 112 120
-1034.2979 3693.2307 -1382.2919 0.676 -0.430 0.598 221 109 116
-528.2279 3050.0273 -1355.2058 0.843 -0.386 0.375 214 20 46
-540.3779 3134.4517 -1398.2488 0.705 -0.231 0.670 209 41 59
-531.1562 3131.6973 -1403.2651 0.868 -0.240 0.435 177 83 83
-525.9427 3127.0649 -1404.2115 0.938 -0.346 0.022 150 92 83
-512.2680 3123.1963 -1411.7831 0.643 -0.707 -0.294 136 98 85
-3506.1848 2957.0203 858.0301 -0.018 -0.473 0.881 44 43 41
-3167.8171 2781.2065 720.7055 0.924 -0.367 -0.111 40 32 22
-3184.3008 2799.5938 721.3327 0.697 -0.570 0.435 39 32 22
-3178.4939 2806.4641 712.8731 0.600 -0.764 0.237 41 33 24
-3177.8372 2828.8877 698.5557 0.741 -0.671 0.019 36 20 5
-3174.7153 2832.2119 694.2358 0.741 -0.671 0.019 37 21 5
-3169.5691 2833.9475 689.4255 0.669 -0.742 -0.034 52 36 20
-3168.2085 2838.6724 685.5206 0.669 -0.742 -0.040 90 74 59
-3163.1426 2840.4775 680.7258 0.664 -0.747 -0.036 72 56 40
-3160.9314 2844.5476 676.6073 0.834 -0.552 0.002 51 34 18
-3158.2004 2848.2141 672.3598 0.860 -0.511 -0.004 42 21 4
-3155.6929 2852.0676 668.1597 0.842 -0.539 -0.009 46 20 3
-3153.2354 2855.9700 663.9655 0.842 -0.539 -0.009 53 26 7
-3276.1614 2966.4324 685.0975 0.768 -0.571 -0.290 62 35 16
-3285.5269 2992.5073 675.8079 0.551 -0.792 -0.265 59 32 15
-3305.7693 3015.1355 676.5485 0.620 -0.744 -0.249 63 37 24
-3255.2073 3062.6335 610.4957 0.152 -0.787 0.598 103 79 77
-3244.3276 3059.9753 604.2319 0.152 -0.787 0.598 103 79 77
-3196.1306 3064.6079 566.3551 0.473 -0.753 0.458 76 55 50
-3183.2424 3060.1082 559.7685 0.292 -0.948 -0.127 75 55 50
-3178.2234 3062.3264 554.7528 0.292 -0.948 -0.127 68 50 44
-3167.5964 3059.7246 548.6377 0.276 -0.954 -0.120 62 47 40
-3162.4695 3061.8406 543.6068 0.276 -0.954 -0.120 63 48 41
-3136.5452 3072.1777 518.3912 0.291 -0.341 0.894 34 24 19
-3114.4346 3066.0261 506.1237 0.648 -0.674 0.355 29 32 31
-3109.4158 3068.2166 501.1252 0.648 -0.674 0.355 41 45 43
-3095.3301 3062.4238 494.4667 0.085 -0.836 0.542 52 56 54
-3074.1633 3050.3423 486.5449 -0.098 -0.852 0.515 55 59 58
-3134.8252 3158.2258 464.0308 0.764 -0.631 -0.139 18 44 53
-2533.4355 2774.5278 263.9186 0.487 -0.661 -0.571 89 42 24
-2495.7971 2768.7402 240.1446 -0.134 -0.991 -0.031 155 106 91
-2493.9883 2773.1257 236.1235 0.142 -0.896 -0.422 152 103 88
-2672.3110 3294.5146 43.8712 0.872 -0.238 0.429 62 29 22
-2665.9902 3295.4451 38.7046 0.791 -0.452 0.412 64 31 26
-2729.6123 3374.1880 36.3272 -0.050 -0.962 0.269 62 32 29
-2753.6177 3467.8521 -4.0433 -0.041 -0.973 -0.229 5 7 2
-2557.2129 3461.4844 -142.8106 0.692 -0.305 0.654 35 37 50
-2575.6279 3519.7876 -165.4172 -0.350 -0.897 0.269 40 37 51
-2580.5615 3608.9316 -216.8544 0.983 0.095 0.158 194 159 172
-2534.0190 3596.6619 -243.0965 0.475 -0.602 -0.642 222 186 196
-2515.9060 3582.7715 -247.6831 0.673 -0.735 -0.084 221 185 195
-2504.9929 3578.1016 -252.7296 0.709 -0.701 -0.075 221 185 195
-2376.4463 3589.3579 -353.0726 0.520 -0.418 0.745 215 183 188
-2372.6541 3593.9390 -358.6555 0.282 -0.451 0.847 215 183 188
-2268.4106 3556.6255 -411.3627 -0.136 -0.541 0.830 224 189 195
-1934.9813 3415.6367 -566.5941 0.368 -0.650 0.665 43 19 19
-1727.5430 3296.6243 -643.8511 0.321 -0.441 0.838 47 29 25
-1713.8644 3293.5173 -651.8718 0.884 -0.231 0.407 47 29 25
-1451.3335 3005.0369 -664.5568 0.464 -0.014 0.886 70 40 36
-1420.1124 2985.7505 -675.3364 0.770 -0.635 -0.069 42 28 12
-1417.1431 2989.8562 -680.0280 0.770 -0.635 -0.069 41 28 11
-1365.4502 2979.3760 -711.1168 -0.275 -0.753 0.598 42 20 10
-1317.9365 2975.5322 -743.2653 0.485 -0.772 -0.411 65 42 47
-1307.5923 2974.9395 -750.4149 0.238 -0.743 -0.626 54 31 37
-1296.7759 3046.1069 -802.1998 0.616 -0.642 -0.457 59 40 44
-1297.3904 3058.0688 -809.1365 0.315 -0.880 -0.356 60 41 45
-1296.6169 3067.1929 -815.3300 0.648 -0.636 -0.419 73 51 54
-1294.9169 3074.4199 -821.0258 0.858 -0.431 -0.278 73 51 54
-1292.4752 3080.1189 -826.3173 0.850 -0.419 -0.319 73 51 54
-1201.0919 3451.7632 -1122.0988 0.841 -0.502 -0.204 83 68 71
-1058.9854 3201.4531 -1070.8492 0.922 0.204 0.329 41 32 33
-1071.8627 3277.9482 -1108.7078 0.888 0.240 0.393 76 67 68
-1071.9633 3292.3662 -1117.5337 0.899 0.226 0.374 90 81 82
-1073.0856 3309.7329 -1127.4375 0.900 0.227 0.373 92 83 86
-1074.7180 3328.6692 -1137.9393 0.900 0.226 0.372 78 72 76
-1074.2380 3341.8733 -1146.4379 0.901 0.227 0.370 80 71 76
-1074.2107 3356.4600 -1155.4608 0.901 0.227 0.370 81 70 76
-1642.5330 5089.9395 -1812.4882 0.608 -0.396 0.688 96 62 76
-1049.8391 3486.2434 -1253.2732 0.930 0.281 0.238 137 105 123
-1054.3257 3515.9692 -1268.3610 0.930 0.281 0.238 122 85 111
-1058.1844 3544.0842 -1282.9105 0.920 0.283 0.272 131 92 118
-1062.4280 3607.5474 -1318.9982 0.873 0.225 0.434 147 85 120
-1059.8065 3616.6396 -1326.5148 0.805 0.246 0.540 156 89 124
-1059.7047 3633.6333 -1337.0775 0.807 0.246 0.536 132 65 98
-1039.2949 3675.5530 -1377.7802 0.830 -0.225 0.510 219 116 125
-1035.8357 3682.5486 -1384.6112 0.832 -0.265 0.488 221 107 114
-1059.7432 3854.9172 -1473.6309 -0.526 -0.825 0.205 223 97 109
-530.3813 3109.0078 -1397.8467 0.934 -0.175 0.312 181 88 88
-514.1392 3114.1660 -1412.8312 0.618 -0.729 -0.295 132 95 82
-500.2510 3132.3608 -1434.1519 0.509 -0.835 -0.208 118 95 79
-3475.1875 2927.5720 843.2517 -0.027 -0.476 0.879 39 38 36
-3402.4160 2884.8909 816.9107 0.279 -0.889 0.362 27 26 24
-3368.9951 2865.6167 804.6104 0.353 -0.920 0.173 20 23 20
-3375.5981 2876.3638 802.7392 0.350 -0.895 0.276 18 23 21
-3299.1807 2864.7559 754.4904 0.653 -0.519 -0.551 33 27 21
-3273.8799 2851.1377 744.5753 -0.278 -0.949 0.152 35 25 18
-3184.8130 2794.0032 715.3709 0.620 -0.644 0.448 35 27 17
-3181.8933 2803.0925 707.6180 0.597 -0.770 0.225 35 26 17
-3227.0574 2867.1802 700.6586 -0.380 -0.925 0.010 37 21 5
-3166.9336 2837.3625 675.5199 0.664 -0.747 -0.036 43 27 12
-3158.8865 2848.4629 662.8004 0.841 -0.541 0.003 46 20 3
-3156.3867 2852.3257 658.5922 0.841 -0.541 0.003 53 26 7
-3170.1956 2869.2275 658.1337 0.660 -0.652 -0.375 59 32 13
-3283.3079 2965.7239 680.3837 0.762 -0.578 -0.292 61 34 15
-3325.4192 3037.0828 666.7019 0.392 -0.586 0.709 81 58 51
-3297.7908 3027.2461 652.7540 0.366 -0.282 0.887 101 76 69
-3254.2102 3107.3088 571.5034 0.069 -0.840 0.538 68 47 42
-3186.0579 3055.7678 554.0059 0.709 -0.703 0.058 68 48 42
-3183.4041 3060.0063 549.4529 0.555 -0.822 -0.126 73 55 49
-3175.6743 3059.9028 543.9089 0.258 -0.950 0.179 73 58 51
-3175.1860 3066.0144 539.7662 0.243 -0.964 -0.107 72 57 50
-3125.2937 3055.5879 510.0303 -0.081 -0.731 0.677 37 30 25
-3124.8408 3061.7512 505.8811 0.262 -0.459 0.849 20 23 19
-3112.9182 3057.9075 499.6133 0.615 -0.709 0.346 25 34 31
-3096.7114 3050.2817 492.5818 0.178 -0.761 0.623 36 47 43
-3066.0337 3042.9629 474.8607 -0.095 -0.835 0.542 46 57 56
-3069.6821 3052.7568 471.4363 0.055 -0.653 0.756 40 50 48
-3055.4568 3053.3235 460.7640 0.404 -0.793 0.456 16 50 57
-3094.1848 3101.1694 459.2032 0.871 -0.393 0.294 11 51 61
-2521.6638 2769.2144 249.5916 0.191 -0.752 -0.630 100 51 36
-2515.9358 2769.8042 245.0701 0.180 -0.763 -0.621 105 56 42
-2666.7539 3226.1111 71.6307 0.850 -0.465 0.247 122 91 88
-2666.9185 3288.6187 33.0014 0.791 -0.452 0.412 64 31 26
-2665.3459 3367.6086 -17.1054 0.549 -0.835 -0.029 11 11 9
-2614.9651 3461.3687 -111.7809 0.404 -0.883 0.237 18 19 24
-2573.5049 3455.1663 -138.0174 0.408 -0.807 0.426 36 36 48
-2579.3396 3471.0317 -143.6191 0.772 -0.300 0.560 35 36 49
-2568.8345 3493.6946 -165.2897 0.846 -0.322 0.426 42 41 55
-2582.0906 3592.4006 -216.8599 0.978 0.103 0.182 192 153 173
-2557.1494 3607.7278 -244.4571 0.490 -0.612 -0.620 220 184 194
-2468.1316 3521.4641 -255.5688 0.266 -0.952 0.150 221 185 195
-2461.3357 3521.9458 -260.7980 0.263 -0.951 0.164 224 189 196
-2376.3887 3579.9519 -358.3892 0.520 -0.418 0.745 220 188 193
-2372.3684 3584.1960 -363.9371 0.282 -0.451 0.847 220 188 193
-2368.9370 3589.2617 -369.5669 0.293 -0.365 0.883 217 185 190
-2316.2097 3555.5251 -386.9096 -0.261 -0.941 -0.217 222 187 193
-2054.9956 3412.9028 -488.0211 -0.062 -0.793 -0.606 234 200 207
-1956.1288 3419.4922 -563.8382 0.157 -0.883 0.443 43 19 19
-1943.8652 3410.2039 -566.9783 0.368 -0.650 0.665 43 19 19
-1908.9001 3384.8096 -576.6050 0.333 -0.652 0.681 45 21 21
-1775.4840 3267.7737 -600.8540 0.502 -0.838 -0.213 37 12 15
-1771.6627 3271.3250 -605.8281 0.502 -0.838 -0.213 36 13 15
-1767.8369 3274.8806 -610.8079 0.502 -0.838 -0.213 40 20 19
-1764.0066 3278.4404 -615.7938 0.502 -0.838 -0.213 40 20 19
-1760.1719 3282.0044 -620.7854 0.502 -0.838 -0.213 40 20 19
-1759.1868 3290.3616 -626.6808 0.499 -0.841 -0.209 40 20 19
-1759.0603 3300.2087 -632.8768 0.504 -0.847 -0.168 44 24 23
-1539.3022 3021.0571 -619.2752 0.070 -0.670 0.739 56 37 33
-1462.9492 2933.0583 -620.1223 0.128 -0.738 0.662 62 30 30
-1457.1326 2931.8735 -623.6082 0.288 -0.871 -0.397 55 21 22
-1451.4661 2968.0657 -650.1549 0.609 -0.647 -0.459 58 22 14
-1450.8677 2976.3975 -655.7540 0.544 -0.696 -0.468 58 22 13
-1423.1141 2982.5359 -679.6958 0.688 -0.703 -0.179 57 27 10
-1312.9189 2976.5039 -755.9084 -0.222 -0.935 -0.278 76 47 55
-1306.9803 2974.6631 -759.0760 -0.204 -0.911 -0.360 76 47 55
-1302.2825 2975.3074 -762.8837 -0.244 -0.908 -0.342 75 47 54
-1302.0895 3047.5923 -807.8333 0.653 -0.635 -0.413 59 40 44
-1299.5930 3053.0391 -813.0211 0.367 -0.786 -0.498 59 40 44
-1299.1694 3062.8606 -819.4169 0.465 -0.726 -0.507 69 47 50
-1296.5573 3068.1418 -824.5859 0.465 -0.726 -0.507 69 47 50
-1293.9379 3073.4370 -829.7687 0.465 -0.726 -0.507 69 47 50
-1289.2391 3074.3508 -833.7444 0.474 -0.697 -0.538 67 45 48
-1286.8181 3080.1089 -839.0704 0.474 -0.697 -0.538 42 20 23
-1289.9155 3108.7664 -854.5879 0.760 -0.476 -0.442 42 20 23
-1210.5931 3002.3586 -846.1778 0.600 -0.243 0.762 63 33 20
-1173.4285 3029.7444 -890.1191 0.082 -0.625 0.776 146 78 65
-1172.7561 3145.4128 -962.3099 0.922 -0.204 -0.328 68 52 52
-1171.7786 3192.4104 -992.1528 0.994 -0.073 0.078 63 51 51
-1194.6116 3353.2910 -1075.3165 0.951 0.148 0.270 89 74 77
-1192.3799 3361.2688 -1081.8811 0.966 0.143 0.215 89 74 77
-1194.3063 3379.8821 -1092.0220 0.950 0.148 0.274 89 74 77
-1191.1603 3385.6843 -1097.9012 0.946 0.029 0.324 89 74 77
-1062.3914 3198.7886 -1075.4722 0.165 -0.936 -0.311 41 32 33
-1056.3502 3209.6511 -1086.5890 0.318 -0.811 -0.492 40 31 32
-1053.8796 3216.6365 -1092.7119 0.331 -0.805 -0.493 49 40 41
-1048.4757 3215.6328 -1096.0105 0.369 -0.797 -0.479 58 49 50
-1042.8308 3213.9397 -1099.0565 0.223 -0.926 -0.305 60 51 54
-1052.3834 3297.0718 -1143.6593 0.858 -0.214 0.468 51 41 47
-1007.6642 3286.1406 -1169.3290 0.975 0.153 -0.163 147 114 127
-1038.4462 3438.3601 -1241.3562 0.930 0.281 0.238 187 158 175
-1046.8438 3495.6543 -1270.7800 0.920 0.283 0.272 153 106 134
-1055.9755 3556.2998 -1301.7488 0.929 0.257 0.265 161 102 134
-1047.5295 3615.5042 -1344.5775 0.930 0.118 0.349 134 73 92
-1044.6823 3659.3669 -1373.8340 0.915 0.136 0.379 187 96 108
-538.1973 3108.6838 -1399.9435 -0.288 -0.862 0.417 206 65 77
-533.3903 3106.1514 -1401.8613 -0.288 -0.862 0.417 180 84 85
-497.0565 3071.7998 -1406.9287 0.567 -0.726 -0.389 116 95 76
-488.1192 3045.7571 -1397.2692 0.219 -0.964 -0.149 113 92 75
-474.3261 3015.1802 -1388.3220 0.979 0.020 0.202 115 86 75
-466.7479 3141.8818 -1472.3630 0.434 -0.819 -0.376 128 97 76
-3414.3235 2881.8198 817.1949 0.552 -0.628 0.549 29 25 22
-3305.4343 2863.3994 749.7681 0.494 -0.657 -0.570 27 19 13
-3285.6597 2854.0576 741.2565 -0.278 -0.949 0.152 30 18 10
-3172.7827 2773.1565 709.8399 0.915 -0.382 -0.128 28 20 9
-3193.5850 2794.7834 711.4474 0.578 -0.717 0.390 29 20 10
-3190.0117 2803.3721 703.5113 0.608 -0.776 0.170 29 20 11
-3223.5427 2864.1104 689.9914 -0.373 -0.928 -0.004 36 19 3
-3161.4832 2844.3872 657.3059 0.841 -0.541 0.003 46 20 4
-3163.8059 2852.0774 654.2010 0.654 -0.670 -0.352 53 26 9
-3171.5376 2864.1057 652.3144 0.668 -0.658 -0.348 59 32 13
-3325.7141 3024.3958 664.2281 0.657 -0.448 0.606 70 45 37
-3337.9487 3046.9612 659.0439 0.951 -0.172 0.256 94 71 65
-3243.0784 3051.9487 587.2009 0.763 -0.615 -0.199 98 77 72
-3257.6045 3103.3354 565.7333 0.069 -0.840 0.538 77 56 51
-3189.4246 3051.9021 548.3555 0.709 -0.703 0.058 76 56 50
-3187.7959 3057.0085 543.9962 0.703 -0.711 0.019 85 67 60
-3177.9915 3055.1360 538.0583 0.684 -0.713 0.156 86 71 64
-3183.0889 3066.0232 534.9733 0.587 -0.803 -0.099 86 71 64
-3179.8047 3069.7488 530.2743 0.210 -0.974 -0.082 86 71 64
-3146.0854 3060.3130 511.7178 0.020 -0.804 0.595 55 39 32
-3130.8857 3053.6819 504.8335 -0.083 -0.790 0.607 44 38 32
-3113.3464 3051.5090 493.4782 0.596 -0.723 0.349 21 36 31
-3084.6204 3046.0159 476.0849 0.288 -0.316 0.904 48 63 60
-3072.1658 3048.1716 465.7187 0.071 -0.700 0.711 37 51 48
-2523.9568 2771.3357 240.8706 0.180 -0.763 -0.621 106 57 43
-2795.8491 3131.0532 213.9147 0.230 -0.889 0.396 138 96 99
-2559.0088 2927.3547 169.1325 0.309 -0.736 -0.602 129 87 90
-2586.5745 2989.2422 150.5750 0.306 -0.952 -0.001 125 85 86
-2582.6270 3047.9189 111.1838 0.384 -0.834 0.396 115 80 84
-2694.4971 3180.1951 109.8857 0.501 -0.855 -0.138 116 81 82
-2690.8503 3183.8062 104.9955 0.247 -0.940 -0.236 114 80 84
-2691.5364 3192.0212 100.3778 0.433 -0.881 -0.189 114 82 85
-2686.6309 3194.3230 95.3906 0.420 -0.890 -0.177 114 82 85
-2671.7827 3186.0247 89.7989 0.531 -0.836 -0.143 114 82 85
-2667.8611 3189.3538 84.8848 0.531 -0.836 -0.143 115 83 86
-2703.9243 3235.5518 82.2522 0.966 -0.257 0.022 119 87 90
-2666.1565 3202.6318 75.3830 0.840 -0.513 0.178 119 87 90
-2668.8354 3213.1133 70.7984 0.851 -0.496 0.173 118 86 88
-2760.3816 3400.3401 20.5635 -0.396 -0.828 -0.396 55 27 26
-2675.1792 3370.6453 -22.6818 0.553 -0.833 -0.013 18 18 16
-2664.9155 3367.2312 -27.9929 0.547 -0.837 -0.023 18 18 18
-2649.2341 3357.6111 -33.3654 0.080 -0.988 -0.134 14 13 11
-2627.5195 3459.1145 -112.2928 0.451 -0.828 0.333 11 12 17
-2582.1177 3448.3008 -138.4560 0.443 -0.689 0.573 36 34 46
-2576.7439 3450.5449 -143.7466 0.411 -0.709 0.573 36 34 47
-2575.1426 3457.3604 -149.1500 0.772 -0.318 0.550 37 35 48
-2578.4885 3496.8386 -171.3042 0.864 -0.374 0.336 91 88 102
-2620.0994 3640.5984 -230.6578 0.878 -0.031 0.477 197 160 173
-2625.6646 3657.1379 -236.9228 0.563 -0.758 0.329 201 165 177
-2589.6829 3640.0803 -252.3734 0.266 -0.593 0.760 220 184 194
-2362.1199 3560.8958 -367.9536 0.199 -0.357 0.912 227 195 200
-2350.8884 3555.2183 -372.5566 0.202 -0.355 0.913 217 185 190
-2328.8779 3563.7795 -393.8343 -0.422 -0.849 -0.317 225 190 196
-2091.4382 3448.2549 -493.9462 -0.066 -0.810 -0.583 235 199 205
-2061.3599 3422.9717 -499.9983 -0.060 -0.786 -0.616 233 200 207
-1926.1122 3382.7844 -572.9714 0.197 -0.818 0.541 43 19 19
-1892.0516 3338.7708 -570.2476 0.260 -0.947 0.187 43 19 19
-1886.2709 3339.4463 -574.8566 0.260 -0.947 0.187 45 21 21
-1869.7250 3332.7917 -582.7018 0.268 -0.916 0.300 45 21 21
-1822.3397 3305.7439 -600.1949 0.189 -0.950 0.247 38 14 14
-1795.3969 3271.6555 -598.4935 0.320 -0.939 -0.126 44 20 20
-1790.7509 3273.8735 -603.2406 0.320 -0.939 -0.126 44 20 20
-1728.6320 3259.6467 -639.3911 0.714 -0.681 0.163 57 38 34
-1468.9789 2908.1570 -608.6897 0.202 -0.713 0.672 63 29 30
-1472.8105 2923.8828 -615.7041 0.330 -0.858 -0.394 65 28 30
-1468.9929 2926.2354 -619.9349 0.322 -0.863 -0.389 65 28 28
-1458.9412 2926.6709 -627.4890 0.340 -0.849 -0.404 65 26 27
-1455.8706 2967.4114 -655.0779 0.609 -0.647 -0.459 75 34 23
-1319.0961 2979.7422 -761.8540 -0.222 -0.935 -0.278 85 53 61
-1310.6074 2982.9373 -769.9937 -0.236 -0.907 -0.347 84 53 61
-1302.5695 3071.0559 -830.6787 0.635 -0.653 -0.414 62 40 43
-1302.2146 3081.1270 -837.2058 0.582 -0.794 0.177 62 40 43
-1299.7941 3086.8992 -842.5533 0.587 -0.797 0.140 61 39 42
-1291.6416 3080.5425 -844.5026 0.600 -0.791 0.122 42 20 23
-1288.9437 3085.7417 -849.6942 0.612 -0.781 0.121 42 20 23
-1284.9460 3088.1892 -854.1145 0.612 -0.781 0.121 42 20 23
-1200.8937 2939.5884 -822.4979 0.289 -0.417 0.862 34 24 21
-1166.6550 3049.5784 -915.7831 -0.177 -0.974 0.140 160 100 86
-1161.8933 3050.0178 -919.5067 -0.134 -0.983 0.124 170 116 104
-1157.7964 3052.0042 -923.7117 -0.116 -0.987 0.113 157 108 102
-1150.9066 3059.0669 -933.1010 0.821 -0.331 -0.465 113 76 76
-1150.5215 3069.8818 -940.1131 0.821 -0.331 -0.465 94 62 64
-1168.4706 3210.9983 -1014.9650 0.981 -0.153 0.120 65 53 53
-1166.2004 3218.1411 -1021.0567 0.970 -0.168 0.175 74 59 62
-1168.6030 3236.9121 -1031.0023 0.846 0.028 0.532 79 64 67
-1175.9797 3281.3425 -1053.3193 0.819 0.068 0.570 90 75 78
-1191.8004 3334.3052 -1074.8302 0.951 0.148 0.270 89 74 77
-1065.5529 3195.4685 -1079.8647 0.146 -0.933 -0.328 41 32 33
-1057.1443 3199.8928 -1088.7117 0.146 -0.933 -0.328 29 20 21
-1051.9747 3199.4910 -1092.2069 0.312 -0.803 -0.508 31 22 23
-1048.6222 3204.0291 -1097.4613 0.323 -0.797 -0.511 33 24 25
-1019.7203 3179.3530 -1103.0392 0.435 -0.552 -0.711 34 23 27
-1022.2394 3242.6030 -1140.5924 -0.063 -0.344 0.937 59 44 49
-1014.0786 3233.6987 -1140.9615 -0.117 -0.410 0.905 77 51 60
-1006.1311 3225.3008 -1141.4915 -0.116 -0.412 0.904 115 69 84
-1027.2554 3375.9739 -1219.9924 0.939 0.262 0.222 192 178 186
-1040.4680 3462.5154 -1264.2986 0.933 0.268 0.239 195 145 172
-1045.1035 3492.6191 -1279.6819 0.933 0.266 0.243 189 136 164
-1046.3306 3512.6890 -1291.2880 0.928 0.259 0.266 188 126 157
-1041.9340 3583.1851 -1338.3633 0.929 0.088 0.360 120 59 78
-541.2803 3106.1848 -1404.1368 -0.279 -0.851 0.445 209 65 78
-536.4605 3103.6140 -1406.0283 -0.279 -0.851 0.445 179 80 82
-533.9465 3135.4666 -1427.6807 0.697 -0.681 -0.223 134 82 74
-487.4196 3023.0398 -1391.3965 0.658 -0.699 0.281 108 83 68
-469.5729 3216.1509 -1524.5548 0.683 -0.691 -0.237 165 134 113
-3469.1367 2904.7229 832.2654 -0.097 -0.534 0.840 48 43 38
-3415.0430 2876.1987 810.9617 0.561 -0.633 0.534 26 23 16
-3410.6628 2878.7229 806.2142 0.306 -0.878 0.368 20 18 12
-3406.1243 2881.1313 801.4245 0.282 -0.892 0.353 12 14 7
-3191.8406 2793.1172 701.4141 0.986 -0.131 -0.108 29 14 6
-3191.5195 2798.5352 697.7941 0.986 -0.131 -0.108 26 15 6
-3227.6809 2861.1858 684.7850 -0.367 -0.928 0.069 41 22 7
-3211.1252 2854.0605 677.2615 -0.353 -0.935 0.034 44 26 12
-3195.5647 2847.6755 669.9951 -0.254 -0.957 -0.143 38 21 6
-3172.8669 2853.1174 650.1697 0.594 -0.728 -0.342 52 26 10
-3172.9839 2859.0764 646.5284 0.668 -0.657 -0.348 58 31 16
-3345.9307 3053.1445 650.3181 0.408 -0.357 0.841 102 77 73
-3337.6511 3052.7920 644.5478 0.414 -0.350 0.840 103 79 72
-3269.9478 3087.2227 574.0333 -0.183 -0.929 0.323 79 58 53
-3179.6287 3036.8606 540.1736 0.536 -0.822 -0.191 93 73 68
-3188.6951 3051.0359 537.8702 0.714 -0.699 0.029 97 79 73
-3173.8328 3044.8503 530.9843 0.683 -0.707 0.181 95 80 73
-3182.4036 3058.6699 528.5447 0.537 -0.834 -0.126 95 80 73
-3186.5957 3068.7920 525.2490 0.179 -0.983 0.033 94 79 72
-3167.9153 3059.2944 517.6714 0.114 -0.981 0.157 75 60 53
-3155.7351 3055.3418 511.3299 0.218 -0.965 0.146 70 53 46
-3140.0908 3048.3694 504.3704 0.392 -0.887 0.242 63 45 38
-3126.9285 3043.5022 497.8901 0.396 -0.889 0.228 48 42 35
-3125.4253 3048.7197 493.5402 0.405 -0.888 0.217 19 28 21
-3116.9648 3047.9011 487.9305 0.537 -0.791 0.294 22 39 33
-3079.1250 3040.9800 464.8795 0.392 -0.305 0.868 41 61 60
-2558.3987 2785.9309 247.5869 0.274 -0.676 -0.684 93 47 29
-2556.8833 2790.6323 243.5508 0.274 -0.676 -0.684 99 52 36
-2531.5210 2772.4055 236.5968 0.193 -0.755 -0.627 104 57 42
-2784.8657 3112.9119 206.9946 0.603 -0.775 -0.191 142 99 107
-2596.3701 2938.2883 179.7966 0.486 -0.757 0.436 142 99 108
-2601.6963 2950.3120 176.1324 0.486 -0.752 0.445 132 89 97
-2648.3257 3109.6208 110.2601 0.446 -0.862 -0.241 116 80 86
-2648.3350 3116.8901 105.7215 0.611 -0.770 -0.183 118 80 86
-2676.5640 3168.7024 93.7498 0.464 -0.885 0.032 115 82 87
-2668.6794 3175.2490 83.9518 0.431 -0.902 0.012 115 83 87
-2670.8330 3185.0327 79.3925 0.616 -0.750 -0.242 115 83 87
-2677.9148 3200.1270 75.0787 0.581 -0.810 -0.080 118 86 90
-2664.6084 3193.4351 69.6350 0.611 -0.769 -0.190 119 87 91
-2670.8516 3207.7095 65.2270 0.851 -0.496 0.173 121 89 92
-2676.2356 3363.7222 -28.4270 0.557 -0.830 -0.021 24 22 21
-2669.5459 3364.3657 -33.6698 0.547 -0.837 -0.023 25 21 22
-2633.3540 3389.3181 -75.4579 0.742 -0.535 0.405 9 8 8
-2667.4492 3437.3452 -80.8185 0.897 -0.421 0.135 9 8 9
-2666.0632 3444.2776 -86.1558 0.894 -0.407 0.188 10 9 9
-2651.5461 3461.7034 -107.5553 0.370 -0.313 0.875 12 12 16
-2594.9971 3437.8899 -133.5809 0.293 -0.468 0.834 21 21 26
-2575.6733 3432.0557 -143.9145 0.419 -0.643 0.641 37 31 42
-2578.2024 3443.7847 -149.4184 0.260 -0.807 0.530 40 33 47
-2571.6411 3444.5850 -154.6662 0.397 -0.720 0.569 42 34 48
-2579.5044 3489.3916 -176.9929 0.864 -0.374 0.336 159 149 164
-2668.8032 3711.9746 -251.5553 0.929 -0.284 -0.235 208 172 182
-2591.3235 3632.9475 -258.2021 0.253 -0.599 0.760 220 184 194
-2335.8997 3554.4385 -393.9223 -0.501 -0.845 -0.187 231 198 203
-2070.1995 3426.9534 -506.4549 0.250 -0.755 -0.606 233 201 207
-1997.5089 3415.2236 -551.7150 0.031 -0.794 0.607 44 15 18
-1981.8501 3410.8970 -560.3395 0.228 -0.712 0.664 39 10 13
-1976.7654 3412.9624 -565.3100 0.234 -0.709 0.666 41 12 15
-1488.9320 2890.0537 -591.3196 0.720 -0.693 -0.026 70 43 37
-1487.1774 2904.7241 -601.7620 0.683 -0.728 0.053 63 34 29
-1485.1224 2910.0803 -606.5978 0.711 -0.703 0.030 63 34 29
-1476.8402 2922.6028 -620.4203 0.632 -0.558 0.538 70 26 26
-1474.2067 2927.0364 -625.0980 0.657 -0.553 0.512 70 26 26
-1470.2937 2929.2363 -629.3046 0.721 -0.520 0.458 71 25 26
-1467.0360 2932.5984 -633.7640 0.722 -0.517 0.459 88 42 42
-1463.2853 2935.0986 -638.0411 0.644 -0.628 -0.437 88 42 41
-1463.3345 2944.3706 -643.8030 0.690 -0.600 -0.406 87 42 41
-1456.5269 2969.3582 -664.3524 0.605 0.230 0.762 105 55 39
-1450.2321 2967.3643 -667.6602 0.478 -0.005 0.878 106 55 39
-1325.3007 2982.9944 -767.8262 -0.222 -0.935 -0.278 77 43 52
-1320.8976 2984.2966 -771.8261 -0.213 -0.885 -0.414 77 43 52
-1317.2101 2987.0347 -776.2062 -0.236 -0.907 -0.347 76 44 52
-1312.4456 2987.6086 -780.0124 -0.355 -0.935 -0.004 71 51 56
-1298.5507 2979.8564 -785.2188 -0.318 -0.948 0.005 56 37 41
-1187.9486 3054.0923 -911.6609 -0.074 -0.989 0.125 123 60 43
-1177.7654 3053.5798 -918.7085 -0.167 -0.975 0.145 132 69 53
-1160.8420 3131.7720 -979.8442 0.994 0.095 0.052 65 52 52
-1164.5026 3202.7251 -1021.5603 0.963 -0.195 0.188 72 59 61
-1167.4224 3248.4448 -1048.0348 0.843 0.065 0.534 88 75 77
-1169.7090 3267.2134 -1058.1156 0.812 0.062 0.581 88 75 77
-1187.8302 3353.0015 -1098.6445 0.941 -0.130 0.311 89 74 77
-1187.1533 3364.9753 -1106.6212 0.523 0.056 0.850 86 73 75
-1184.8279 3372.8242 -1113.2114 0.542 0.066 0.838 81 68 70
-1173.4066 3371.2070 -1120.4640 0.542 0.066 0.838 73 59 62
-1063.8127 3192.4888 -1088.0131 0.171 -0.935 -0.311 39 30 31
-1062.0486 3201.2603 -1094.7739 0.146 -0.933 -0.328 33 24 25
-1060.9852 3211.9956 -1102.2556 0.190 -0.925 -0.328 32 23 24
-1054.0254 3220.5249 -1112.6246 0.177 -0.928 -0.329 30 21 23
-1000.0120 3195.4343 -1136.0171 -0.293 -0.697 0.655 122 73 89
-1006.6374 3228.6345 -1151.9823 0.976 0.154 0.153 130 82 97
-1012.8746 3305.3391 -1195.4302 0.984 0.172 0.044 154 142 145
-1033.4186 3443.5354 -1266.9755 0.933 0.258 0.250 244 190 218
-1037.1870 3470.9514 -1281.3911 0.929 0.260 0.264 237 175 205
-1034.3508 3494.9697 -1298.4611 0.853 0.251 0.458 201 124 160
-1032.5739 3539.4758 -1327.5750 0.889 0.216 0.403 127 68 84
-1031.2238 3552.2285 -1336.5256 0.891 0.214 0.401 115 51 65
-555.7621 3117.3540 -1408.6285 -0.393 -0.642 0.659 206 8 36
-546.1955 3091.1624 -1399.1737 0.983 -0.181 0.023 201 25 45
-517.8696 3123.2732 -1439.7463 0.726 -0.577 -0.373 116 78 62
-503.1347 3090.0293 -1429.6215 0.817 -0.424 0.390 113 76 62
-3261.3230 2811.8987 730.0079 0.928 0.112 0.355 30 18 6
-3199.8689 2787.6619 700.8246 0.818 -0.497 0.289 37 15 5
-3208.4685 2881.0532 648.3930 0.667 -0.687 -0.287 48 28 20
-3294.4976 2979.9404 648.4553 0.781 0.213 0.588 75 56 50
-3328.6287 3026.1501 644.0988 0.816 -0.455 0.356 108 89 88
-3317.4307 3080.9534 601.5940 0.650 -0.030 0.760 96 76 75
-3237.3496 3027.4087 577.3560 0.162 -0.800 0.578 77 57 53
-3243.1990 3045.0837 570.4834 0.663 -0.614 -0.428 76 52 50
-3241.4375 3050.0471 566.0939 0.663 -0.614 -0.428 89 65 63
-3190.8096 3039.6482 536.0435 0.534 -0.826 -0.180 103 82 77
-3252.2305 3104.8730 539.4639 0.418 -0.889 -0.187 101 84 76
-3254.5002 3113.4385 535.7254 0.546 -0.784 -0.297 99 85 76
-3162.6125 3054.5020 506.3426 0.229 -0.971 0.074 91 74 66
-3142.6519 3043.8389 498.6162 0.387 -0.886 0.255 82 64 56
-3130.9961 3040.2869 492.4251 0.396 -0.889 0.228 50 37 30
-3130.3633 3046.2498 488.2234 0.406 -0.891 0.203 34 37 30
-3124.9314 3048.0679 483.1570 0.405 -0.875 0.264 41 54 49
-3097.7129 3030.9353 474.2491 -0.087 -0.798 0.596 61 74 75
