ply
format ascii 1.0
element vertex 786
property float x
property float y
property float z
property float nx
property float ny
property float nz
property uchar diffuse_red
property uchar diffuse_green
property uchar diffuse_blue
end_header
-2289.6477 6136.8638 1438.3889 0.216 -0.963 0.159 5 37 59
-2262.9377 6094.0278 1419.4812 -0.071 -0.984 -0.165 6 38 54
-2248.9338 6086.5039 1408.3337 -0.065 -0.985 -0.160 9 37 52
-2250.4934 6122.9238 1406.6343 0.373 -0.797 0.476 1 17 39
-2239.0200 6122.5557 1397.0222 0.373 -0.797 0.476 12 26 49
-2218.6304 6128.9834 1379.3547 0.397 -0.776 0.490 38 52 76
-2087.1711 6003.9863 1279.2025 -0.026 -0.696 -0.717 6 72 108
-2043.5184 6104.5283 1234.2056 -0.067 -0.876 -0.478 75 180 223
-2113.3164 6392.9629 1269.0275 -0.120 -0.842 -0.526 46 149 192
-2001.8931 6252.1826 1187.0186 0.737 -0.369 -0.566 36 108 148
-4570.9189 3531.8879 3555.6360 -0.025 -0.750 0.661 212 202 190
-2400.9053 6070.5928 1519.2905 -0.014 -0.688 0.726 147 187 197
-2350.2241 5967.1260 1485.5624 0.125 -0.774 0.621 148 185 202
-2217.9658 6037.0430 1368.6583 -0.175 -0.984 -0.020 17 36 62
-2215.7917 6062.7051 1364.6534 -0.228 -0.974 0.004 12 30 57
-2194.8145 6099.1021 1343.9609 -0.154 -0.987 0.037 62 80 108
-2085.5444 6104.9194 1251.7906 -0.196 -0.915 -0.353 72 161 214
-2243.9185 6810.9893 1324.6628 0.071 -0.964 -0.257 39 136 181
-2025.0262 6297.8291 1184.6235 0.743 -0.582 -0.330 34 100 136
-2038.3444 6526.8130 1176.3384 0.880 -0.181 -0.439 28 74 90
-3907.1367 4886.0527 2866.1704 0.398 -0.396 -0.828 144 128 111
-3903.3984 4898.6626 2861.9385 0.398 -0.396 -0.828 137 115 94
-2564.5703 5904.1323 1652.8381 0.733 -0.631 -0.254 21 10 14
-2537.0371 6007.9912 1620.7107 -0.369 -0.929 0.023 48 145 169
-2503.8567 5983.7632 1595.0361 0.201 -0.634 -0.746 70 191 213
-2394.5210 5969.9136 1504.6727 0.748 -0.430 -0.505 139 191 199
-2351.3740 5946.3569 1470.5923 0.072 -0.993 0.091 147 186 205
-2287.5637 6080.3281 1405.4523 0.573 -0.764 0.296 1 40 62
-2277.1577 6082.9565 1396.5074 0.481 -0.825 0.296 1 41 59
-2223.2705 6090.3154 1350.7324 -0.351 -0.934 0.069 7 29 62
-2114.1187 6031.5562 1264.4441 -0.361 -0.932 0.027 21 58 112
-2100.3274 6023.1509 1253.6273 -0.244 -0.948 -0.206 7 52 109
-2093.5322 6035.6152 1246.8479 -0.321 -0.913 -0.254 1 52 110
-2094.4163 6241.1616 1229.6426 0.958 -0.244 -0.154 44 135 183
-2128.5657 6418.3223 1242.7766 0.457 -0.841 0.289 40 128 177
-2045.6398 6407.8989 1174.2333 0.657 -0.705 -0.267 65 117 141
-2041.8232 6507.2974 1162.3588 0.722 -0.384 -0.575 23 66 82
-1240.5449 4745.9004 645.0414 0.454 -0.756 -0.472 204 169 164
-3920.8108 4891.6836 2859.6304 0.384 -0.407 -0.829 164 151 136
-3920.7449 4909.1099 2858.0132 0.386 -0.407 -0.828 134 115 93
-2415.8665 5884.4565 1512.3810 0.702 -0.549 -0.453 130 214 242
-2141.4016 6053.3276 1267.7683 0.802 -0.576 -0.157 9 41 101
-2099.6335 6628.7832 1181.2673 0.305 -0.053 -0.951 20 55 79
-1593.1638 6016.6987 812.6766 -0.596 -0.786 -0.165 197 163 164
-3925.8735 4886.0688 2846.8901 0.721 -0.458 -0.520 165 154 138
-3922.5200 4899.1567 2842.8877 0.708 -0.513 -0.485 134 115 93
-2820.2817 6261.4380 1797.6466 -0.131 -0.428 -0.894 186 150 137
-2312.0447 6035.4165 1394.2346 0.355 -0.875 0.330 130 194 226
-2306.6943 6051.7578 1388.2664 0.570 -0.785 0.242 115 179 209
-2294.5146 6049.4556 1378.3124 0.640 -0.728 0.246 152 215 240
-2277.5002 6033.7349 1365.5571 0.596 -0.699 0.396 83 144 175
-2276.9648 6063.4912 1362.3739 0.391 -0.880 0.268 145 208 236
-2269.9929 6107.2046 1352.5353 0.136 -0.451 0.882 101 182 219
-2135.9497 6043.5396 1246.5116 0.254 -0.921 -0.295 27 75 125
-2128.1250 6053.0083 1239.1100 -0.378 -0.869 -0.320 19 73 124
-2097.2595 6159.8687 1203.5222 0.741 -0.427 -0.518 33 111 157
-2106.7683 6223.1914 1205.6357 0.969 -0.092 -0.231 43 115 162
-1828.5408 5986.4209 995.1877 0.996 -0.070 -0.046 22 30 53
-1760.8273 6513.7383 890.1821 0.693 0.040 -0.720 194 160 161
-1747.8442 6812.3926 851.8833 -0.354 -0.801 -0.483 201 166 164
-3936.3770 4870.1738 2839.6829 0.741 -0.466 -0.484 226 219 209
-3932.0574 4881.9321 2834.9753 0.741 -0.466 -0.484 165 154 138
-3927.7280 4893.7197 2830.2568 0.741 -0.466 -0.484 134 115 93
-2579.1335 6042.9404 1598.2705 0.473 -0.378 -0.796 80 158 187
-2445.5825 5913.9873 1499.1532 0.703 -0.461 -0.542 107 201 230
-2432.1997 5938.0610 1485.7333 0.625 -0.715 -0.313 143 233 255
-2426.7805 5953.4380 1479.7682 0.910 -0.362 -0.202 141 227 253
-2454.5515 6084.0537 1490.5933 0.468 -0.678 -0.566 151 216 243
-2393.9604 6046.8721 1443.6143 -0.319 -0.943 0.096 81 166 181
-2318.5002 6028.3657 1382.4857 0.355 -0.875 0.330 47 99 133
-2312.7822 6043.6357 1376.2819 0.570 -0.785 0.242 49 100 131
-2300.5703 6041.2441 1366.3325 0.613 -0.747 0.258 86 140 169
-2282.5767 6022.8823 1353.0713 0.480 -0.784 0.394 24 68 99
-2283.6655 6056.9805 1350.7639 0.391 -0.880 0.268 75 132 164
-2145.6248 6045.7998 1236.8030 0.565 -0.821 -0.080 129 192 233
-2138.0784 6056.0913 1229.5449 0.465 -0.854 -0.235 128 191 232
-2126.5588 6054.6470 1220.0831 -0.444 -0.894 -0.063 109 171 217
-2134.8105 6112.0820 1221.5438 0.733 -0.477 -0.484 101 163 208
-2130.0327 6131.0054 1215.7789 -0.466 -0.836 -0.289 108 172 217
-2113.7209 6148.8062 1200.5098 0.864 -0.086 -0.497 46 122 163
-2114.6074 6219.3989 1194.5935 0.949 -0.080 -0.306 25 91 136
-1761.0676 6479.8511 875.4713 0.718 0.028 -0.695 194 160 161
-1715.8304 6780.4790 809.4383 -0.352 -0.809 -0.471 204 169 167
-3949.1270 4840.0728 2835.7786 0.658 -0.598 -0.458 231 228 221
-3939.4761 4879.4092 2823.9517 0.571 -0.382 -0.727 165 154 138
-3936.6956 4893.1919 2820.3076 0.574 -0.380 -0.725 134 115 93
-3682.5662 6017.5205 2500.3335 -0.193 -0.454 -0.870 185 152 134
-2532.0959 5991.4888 1545.9406 -0.647 -0.755 -0.106 28 107 135
-2423.0293 6068.7749 1447.7588 0.464 -0.674 -0.575 149 226 234
-2329.2715 6002.4858 1376.1783 -0.337 -0.865 0.371 4 46 79
-2323.8435 6018.3613 1370.1302 0.432 -0.838 0.333 1 30 64
-2318.8564 6035.5317 1364.3237 0.570 -0.785 0.242 5 36 69
-2291.1707 6021.7339 1342.6287 0.475 -0.781 0.406 0 21 53
-2290.3550 6050.4814 1339.1735 0.391 -0.880 0.268 9 47 80
-2274.5054 6037.8970 1327.2061 0.144 -0.454 0.879 0 37 75
-2143.1113 6110.0786 1210.9464 0.733 -0.477 -0.484 111 175 216
-2119.8843 6173.8901 1185.4636 0.864 -0.086 -0.497 12 79 118
-2114.6753 6226.0796 1176.0898 0.803 -0.366 0.470 26 80 124
-535.0002 2497.4141 222.3492 0.324 -0.707 -0.629 227 177 171
-3821.0029 3263.4893 2867.9841 0.826 -0.541 -0.157 218 210 199
-3959.7786 4841.7598 2827.1089 0.682 -0.617 -0.392 227 224 217
-3951.3401 4900.0249 2814.3396 0.403 -0.450 -0.797 142 124 102
-3972.2422 4944.6968 2827.2764 0.359 -0.466 -0.809 142 117 93
-3615.9146 5910.4731 2435.8911 -0.424 -0.392 -0.816 173 138 115
-2514.4785 5897.3599 1522.6532 0.201 -0.483 -0.852 113 173 195
-2335.2974 6024.8398 1361.2681 -0.391 -0.920 0.024 11 38 68
-2325.0469 6027.7949 1352.4648 0.208 -0.943 0.260 6 32 60
-2306.4929 6008.1948 1338.9978 0.401 -0.842 0.362 5 32 60
-2293.9434 6004.7148 1328.9220 0.384 -0.850 0.362 4 32 61
-2212.2805 5902.3628 1271.2396 0.159 -0.456 0.876 15 27 70
-2154.5652 6052.1440 1208.5035 0.470 -0.853 -0.228 1 49 83
-2150.1313 6104.2949 1199.6639 0.739 -0.469 -0.483 0 49 84
-2158.1780 6161.1963 1200.7173 -0.484 -0.829 -0.281 0 51 84
-3965.6970 4854.5361 2813.3740 0.578 -0.544 -0.608 229 225 217
-3959.7014 4916.1250 2802.1704 0.584 -0.489 -0.648 142 117 93
-2521.1169 5891.4141 1511.0502 0.330 -0.418 -0.847 12 49 64
-2486.1912 5918.8799 1479.3210 -0.540 -0.841 -0.031 44 96 118
-2394.8691 5832.4741 1412.3728 0.881 -0.428 0.202 98 169 171
-2340.2798 6106.1211 1339.4269 0.059 -0.596 0.800 12 29 56
-1971.4723 5377.1182 1107.5222 -0.268 -0.937 0.222 2 40 73
-2098.2495 5830.9131 1166.6711 0.693 -0.110 0.712 1 42 75
-2162.1135 6048.1538 1197.6172 0.510 -0.821 -0.256 1 44 76
-2146.1731 6033.8262 1185.8549 0.366 -0.926 -0.093 0 44 76
-2156.0647 6095.3501 1187.8263 0.770 -0.455 -0.447 0 45 76
-1760.3973 6139.6562 855.3843 -0.383 -0.879 -0.286 11 12 18
-3972.1968 4902.6895 2796.4001 0.593 -0.177 -0.785 142 124 102
-3971.3152 4918.9736 2793.9849 0.583 -0.176 -0.793 142 117 93
-2369.4719 4813.9688 1479.4379 0.743 -0.231 -0.628 174 139 117
-2761.7190 5726.3135 1709.5413 -0.112 -0.177 -0.978 174 139 117
-2709.3403 6036.2588 1634.1128 -0.654 -0.757 -0.018 116 106 90
-2637.7559 5925.1401 1586.3855 0.015 -0.904 0.427 22 20 11
-2641.6123 6017.9185 1579.9711 0.595 -0.518 -0.615 11 10 28
-2640.0603 6042.5464 1576.1373 0.585 -0.503 -0.636 18 22 38
-2520.9805 5869.0732 1495.5663 0.261 -0.846 -0.464 5 26 35
-2465.0500 6046.2690 1430.9425 0.378 -0.140 -0.915 22 65 73
-2274.3765 5814.1704 1297.2020 -0.135 -0.942 0.307 14 21 47
-2099.7280 5458.5015 1189.5145 0.142 -0.736 -0.662 17 27 54
-2086.7881 5479.2417 1176.6603 0.136 -0.766 -0.629 13 30 62
-2015.0154 6282.1494 1034.1484 -0.188 -0.802 -0.567 110 145 157
-1770.5055 6144.9409 846.0380 0.169 -0.111 -0.979 11 12 18
-1828.7734 6556.7173 851.6196 0.345 0.048 -0.937 184 152 153
-1973.0537 7230.6216 901.2328 0.527 -0.447 -0.722 189 155 156
-3768.5193 3205.9114 2790.2776 0.316 -0.694 0.647 224 215 206
-3983.6863 4870.7856 2791.7986 0.549 -0.182 -0.816 235 229 218
-3981.2217 4902.1963 2786.4385 0.549 -0.182 -0.816 142 123 103
-3983.2590 4922.2300 2786.0010 0.550 -0.185 -0.815 142 116 95
-4186.3940 6714.8223 2764.0667 -0.510 -0.569 -0.645 196 165 147
-4156.9902 6718.0430 2739.4382 -0.076 -0.674 -0.735 185 152 135
-2780.4360 6094.1074 1668.4454 -0.174 -0.980 -0.100 101 76 68
-2753.5300 6088.4580 1646.8190 -0.174 -0.982 -0.067 76 62 48
-2715.9753 6057.7910 1619.0448 -0.135 -0.987 -0.086 36 31 21
-2487.8049 5739.7769 1464.2347 0.118 -0.993 0.011 5 13 17
-2476.5991 6111.8745 1415.5970 0.560 -0.044 -0.827 9 26 38
-2479.4431 6179.7705 1410.7601 0.553 -0.045 -0.832 16 23 39
-2248.4822 5839.0703 1256.0461 0.653 -0.501 -0.568 21 26 48
-2222.9539 5829.1284 1236.0120 0.818 -0.573 0.049 18 29 51
-2246.6187 5924.1084 1245.5066 0.890 -0.337 0.308 19 28 53
-2197.9695 5820.2690 1216.3126 0.362 -0.742 -0.565 19 28 53
-2039.9550 6297.6597 1035.2675 -0.369 -0.436 -0.821 23 55 67
-2034.1440 6314.7637 1028.6575 -0.134 -0.787 -0.602 51 82 93
-1843.8270 6922.3149 807.1548 0.759 0.208 -0.617 194 159 157
-4000.4155 4914.7656 2783.4441 0.558 -0.171 -0.812 152 134 119
-2968.4741 6130.8882 1801.0315 0.617 -0.001 -0.787 164 133 105
-2894.0581 6301.7017 1721.1987 0.947 -0.219 -0.236 98 88 80
-2769.8813 6048.4888 1646.1904 -0.332 -0.941 -0.063 57 47 39
-2724.3640 5999.8647 1613.9170 -0.406 -0.899 -0.164 60 52 44
-2710.4900 5995.5947 1602.9388 -0.406 -0.899 -0.164 49 42 33
-2696.0720 5989.9766 1591.6578 -0.401 -0.899 -0.177 33 26 18
-2401.9216 5645.4463 1386.3713 0.176 -0.938 -0.299 8 18 14
-2482.7864 6015.2842 1413.0542 0.560 -0.042 -0.827 10 19 18
-2486.5552 6054.1797 1411.9554 0.560 -0.044 -0.827 11 19 18
-2488.9338 6119.7183 1406.8293 0.560 -0.044 -0.827 12 18 18
-2490.1389 6152.9131 1404.2332 0.560 -0.044 -0.827 14 17 18
-2411.0410 6253.8887 1328.0923 -0.091 -0.953 0.289 14 14 19
-2235.8008 5870.2837 1225.0802 0.878 -0.335 0.341 12 14 22
-2059.8022 6332.1367 1030.0128 -0.148 -0.790 -0.595 25 35 43
-1892.6261 7074.4546 811.8897 0.861 0.142 -0.488 178 151 150
-1519.6843 6400.9302 577.2133 0.613 -0.778 0.137 222 184 177
-4032.7532 4944.1187 2789.3213 0.617 -0.159 -0.771 152 135 120
-4166.4463 6643.7480 2711.6519 0.752 -0.486 -0.445 191 160 140
-4160.3140 6659.3472 2704.8811 0.742 -0.495 -0.452 185 154 134
-3474.9937 6304.8599 2179.9272 -0.257 -0.702 0.664 172 129 95
-2761.3025 6007.6460 1625.2947 -0.270 -0.949 -0.160 55 48 40
-2733.3660 5999.0205 1603.2521 -0.404 -0.902 -0.153 51 47 38
-2668.2805 5904.4521 1560.1229 -0.332 -0.587 -0.738 34 29 23
-2666.8831 5956.0059 1553.2788 -0.184 -0.525 -0.831 18 12 11
-2234.3367 5812.6880 1213.0670 0.933 -0.279 0.228 13 14 18
-1984.9539 5242.7905 1070.7358 0.170 -0.918 0.358 17 18 22
-2269.6604 6320.4341 1186.0649 0.893 -0.404 -0.201 15 21 42
-2158.8022 6401.0610 1085.9098 0.133 -0.711 0.691 31 36 40
-1836.9318 7000.8345 754.7274 -0.505 -0.839 0.203 180 154 153
-1817.4940 6969.4282 742.1964 -0.089 -0.953 0.288 182 154 151
-1780.5498 6959.0552 712.9323 -0.042 -0.930 0.365 200 169 164
-3964.1780 4895.9116 2720.8142 0.735 -0.628 0.254 136 107 89
-2318.2722 4442.3618 1419.5182 -0.291 -0.949 0.124 168 132 102
-2801.3555 5967.7583 1644.4836 0.337 -0.108 -0.935 76 50 38
-2793.6257 6059.3247 1627.8086 -0.232 -0.973 0.022 54 50 41
-2748.3623 6039.3862 1592.8639 -0.233 -0.971 0.041 40 35 29
-2612.0435 5834.4697 1503.9547 0.538 -0.680 0.498 27 18 19
-2493.2744 5610.1099 1431.6584 0.410 -0.756 -0.510 24 19 21
-2573.4331 5963.9102 1457.6351 0.369 -0.677 -0.637 6 17 18
-2374.6140 5754.2275 1317.9072 0.465 -0.472 -0.749 17 16 14
-2371.3699 5802.4019 1309.8101 0.782 -0.049 -0.621 17 16 14
-2276.4775 6313.2842 1174.2382 0.787 -0.506 -0.352 8 15 31
-2235.6550 6228.3706 1150.2681 0.822 -0.447 -0.353 7 16 30
-2237.1038 6686.1182 1099.8496 0.824 -0.562 -0.070 18 22 25
-2015.1783 6030.8618 991.3718 0.085 -0.593 -0.801 18 22 25
-2006.3401 6036.8125 983.4385 0.103 -0.714 -0.693 18 22 23
-2099.0669 6434.8301 1014.7570 -0.132 -0.756 -0.640 19 22 29
-2004.2201 6237.5962 959.0590 0.903 -0.381 -0.200 19 22 29
-1870.8251 6742.3579 792.5396 0.025 -0.994 0.108 99 80 76
-1787.3778 6994.3691 695.5583 -0.599 -0.625 -0.500 188 155 150
-2300.6885 4411.3896 1394.6887 -0.452 -0.580 -0.677 167 132 102
-2220.1409 4285.7227 1343.0757 -0.291 -0.591 -0.753 167 132 102
-2863.1851 6110.9790 1660.5583 0.320 0.014 -0.947 45 28 17
-2868.7883 6151.0615 1660.5433 0.322 0.017 -0.947 46 39 32
-2731.9678 5980.5723 1567.9279 -0.243 -0.900 0.361 38 33 27
-2554.0779 5705.4053 1453.6674 0.064 -0.996 -0.064 29 23 25
-2691.4236 6344.4785 1492.8062 0.527 -0.615 -0.586 14 16 14
-2472.6765 6743.7266 1267.4452 -0.421 -0.873 0.246 16 23 33
-2367.2136 6512.9858 1207.4829 0.255 -0.703 -0.664 4 11 21
-2362.5918 6533.9331 1201.2821 0.293 -0.690 -0.662 4 11 21
-2237.6384 6273.6982 1128.7253 0.617 -0.460 -0.638 7 17 21
-1880.5791 5616.8062 911.4136 0.723 -0.660 0.203 13 17 18
-1992.9701 6172.4053 939.6860 0.701 -0.154 -0.696 19 22 29
-1882.8260 6752.0742 782.6520 -0.184 -0.980 0.072 84 65 61
-1816.1116 7025.1045 696.5182 -0.584 -0.635 -0.506 155 124 119
-3993.4236 4909.4082 2708.4636 0.733 -0.625 0.269 138 110 91
-1775.8363 2796.8743 1140.5082 0.441 -0.846 0.301 153 118 91
-2987.5920 4981.4824 1876.3972 -0.503 -0.828 0.247 159 120 89
-2841.6492 4745.7622 1784.5532 -0.510 -0.860 0.028 159 120 89
-2357.9719 4492.8257 1418.1808 0.082 -0.852 -0.517 157 121 91
-2247.8020 4327.6826 1347.3475 -0.299 -0.514 -0.804 156 121 91
-3041.0054 6015.9082 1798.7561 0.460 -0.438 -0.773 156 121 91
-2875.1360 6116.1562 1651.1737 0.361 -0.833 -0.419 42 31 18
-2831.2034 6046.1514 1623.4146 0.698 -0.642 -0.317 29 23 16
-2821.1006 6078.3359 1611.3655 0.692 -0.643 -0.328 28 23 17
-2711.5828 6309.9629 1494.5099 0.976 -0.205 0.072 18 27 42
-1893.9098 5479.9370 922.3649 0.440 -0.457 0.773 4 8 11
-1890.9197 5531.1685 913.9050 0.960 -0.254 0.122 4 8 11
-1970.9525 5905.1616 935.5550 0.395 -0.123 -0.911 5 9 12
-1869.0504 6750.1045 752.9699 0.885 -0.093 -0.456 73 54 50
-1881.0293 6969.6299 737.0199 0.792 -0.605 0.075 76 50 49
-1865.8737 7046.1099 715.6359 -0.057 -0.827 -0.560 77 52 48
-1855.7009 7098.0508 701.2115 -0.570 -0.618 -0.542 82 51 47
-1543.0947 6351.8120 532.8011 -0.471 -0.858 -0.205 211 172 165
-2599.4480 5988.3081 1422.5470 0.160 -0.374 -0.913 16 34 64
-1992.1403 7042.2808 800.0419 -0.076 -0.577 -0.813 73 54 50
-1871.5804 7030.4712 702.9083 -0.073 -0.847 -0.527 77 52 48
-3583.3472 6305.7666 2168.8186 0.927 -0.363 -0.091 109 66 32
-3601.9771 6391.4165 2173.5776 0.140 -0.881 -0.453 126 83 49
-3593.7466 6402.2690 2165.5386 0.120 -0.878 -0.463 126 83 49
-3023.3870 5889.6201 1762.6390 0.446 -0.237 -0.863 156 121 91
-2615.3403 6004.2554 1415.7045 0.157 -0.374 -0.914 17 37 73
-2062.4456 6238.6494 935.9756 0.930 -0.183 -0.318 10 13 20
-1872.1144 7040.1055 682.9545 -0.149 -0.985 -0.088 81 52 49
-1566.8940 6468.2412 503.6231 -0.376 -0.884 -0.279 223 184 177
-4061.9614 4926.1626 2710.0610 0.536 -0.178 -0.825 146 123 112
-4074.0862 4958.9048 2715.8704 0.398 -0.394 -0.828 135 109 97
-3180.7559 4674.8799 2023.4814 0.928 -0.120 -0.353 99 65 47
-3764.3164 5595.7202 2384.4473 -0.495 -0.389 -0.777 99 65 47
-3735.1912 5968.6963 2314.3962 -0.672 -0.679 0.294 159 124 97
-3601.3726 6345.0947 2158.6414 0.899 -0.427 -0.096 125 82 48
-3589.7373 6375.3579 2145.4048 0.131 -0.875 -0.467 112 69 35
-3511.2979 6333.5015 2086.7104 0.807 -0.539 0.240 133 90 58
-3467.2109 6276.7271 2057.8511 0.878 -0.445 0.178 133 90 58
-2284.9421 4322.3369 1337.5804 0.573 -0.591 -0.568 156 121 91
-2886.2173 5943.9771 1625.9299 -0.562 -0.668 -0.487 34 33 17
-2631.1658 6019.9219 1408.7432 0.146 -0.343 -0.928 6 25 59
-1982.4456 5829.3257 903.9982 0.569 -0.770 -0.289 24 24 27
-2015.2888 5962.8047 914.1716 0.906 -0.273 0.322 24 24 27
-1997.2960 6177.0811 872.9003 0.905 -0.362 0.222 16 11 16
-1925.1318 6188.2471 812.7316 0.741 -0.603 -0.297 13 10 13
-1516.4005 6214.5054 476.5358 0.719 -0.452 -0.528 228 189 181
-1508.3456 6223.1045 468.9065 0.708 -0.434 -0.557 226 187 180
-4126.7666 4978.7153 2738.6270 0.573 -0.249 -0.781 212 196 184
-4086.6282 4962.7358 2708.0103 0.398 -0.394 -0.828 134 109 97
-4078.4851 6420.4136 2517.0005 0.644 -0.605 0.468 171 137 111
-3755.9058 6424.4351 2254.1919 0.858 -0.508 0.076 155 110 75
-3599.2644 6373.4487 2133.2715 0.743 -0.669 -0.014 96 51 18
-3589.3635 6381.1279 2124.2490 0.102 -0.856 -0.507 104 59 26
-3507.2480 6332.3311 2063.6509 0.752 -0.651 -0.102 129 84 51
-1958.9736 6457.6021 788.8525 -0.288 -0.466 -0.837 25 11 7
-1699.3361 6635.4629 555.2343 -0.585 -0.454 -0.672 240 196 179
-334.1419 1449.0754 101.2005 0.431 -0.029 -0.902 214 119 110
-4132.1987 4973.4800 2726.0349 0.587 -0.245 -0.772 212 196 184
-4129.8906 4987.9746 2722.2949 0.588 -0.249 -0.770 144 123 112
-4098.2676 4965.3999 2699.5332 0.399 -0.399 -0.826 134 109 97
-3862.1892 5231.1626 2473.6816 -0.512 -0.650 -0.561 130 98 75
-3830.4927 5224.2754 2448.8401 -0.518 -0.616 -0.593 121 86 64
-3813.1924 5218.6606 2435.5205 -0.493 -0.618 -0.612 120 85 65
-3846.6858 5670.7437 2404.4890 -0.480 -0.387 -0.788 88 59 43
-3481.0105 5601.5757 2116.5737 -0.813 -0.581 0.033 130 94 60
-3604.6343 6113.6216 2150.9805 0.214 -0.371 -0.903 150 104 70
-3474.6238 5908.2100 2071.9021 -0.586 -0.795 0.157 151 105 71
-3716.3455 6386.1948 2206.5564 0.941 -0.285 0.181 151 105 71
-3704.1455 6389.9624 2196.1685 0.936 -0.292 0.199 151 105 71
-3590.2009 6337.5117 2110.4329 0.609 -0.726 0.319 104 59 26
-3578.4893 6341.7246 2100.3838 0.586 -0.749 0.310 106 61 28
-3575.5530 6388.0425 2092.0359 0.671 -0.733 -0.110 125 80 47
-3519.3774 6335.4932 2053.2046 0.745 -0.655 -0.125 125 80 47
-2509.8420 4700.0605 1444.3607 -0.148 -0.881 0.450 151 108 74
-3092.2554 5996.0874 1750.2128 0.398 -0.372 -0.839 154 113 83
-3091.2971 6019.7764 1746.3844 0.450 -0.400 -0.798 144 103 73
-3003.9788 6074.3438 1668.4800 -0.545 -0.712 -0.442 29 22 14
-1946.5251 6060.3525 811.9351 0.844 -0.263 0.468 81 53 46
-1909.5189 6008.4639 788.5789 0.560 -0.351 -0.750 81 54 46
-1498.2238 6024.5098 452.6597 0.604 -0.768 -0.213 241 197 186
-1508.2096 6150.3711 444.5572 0.838 -0.377 -0.394 240 198 191
-4141.8838 4973.6025 2716.2148 0.585 -0.250 -0.772 212 196 184
-4139.8857 4988.4712 2712.6470 0.583 -0.250 -0.773 144 123 112
-4021.3816 4890.3262 2629.4868 0.879 -0.379 -0.291 134 104 82
-4043.4268 6231.8325 2471.5347 0.957 -0.014 0.289 110 76 49
-3968.5244 6229.9053 2411.0945 0.404 -0.736 -0.544 143 109 81
-3975.6550 6289.6050 2409.0483 -0.788 -0.599 0.142 144 108 76
-3429.6743 5788.3804 2032.3347 0.625 -0.727 0.286 143 97 63
-3568.8794 6203.9204 2090.6714 0.903 -0.378 -0.204 139 94 61
-3598.7729 6333.9653 2097.8503 0.912 -0.405 -0.063 114 69 36
-3593.0872 6349.2173 2091.2444 0.912 -0.405 -0.068 110 65 32
-3589.0942 6393.5557 2082.1980 0.924 -0.366 -0.108 118 73 40
-3542.7849 6359.6211 2049.1213 0.710 -0.693 -0.120 118 73 40
-2698.4219 5865.4326 1429.7091 0.349 -0.657 -0.668 22 21 21
-2699.2656 5894.0767 1426.6388 0.317 -0.647 -0.693 17 15 19
-2696.5645 5914.8286 1421.7303 0.251 -0.659 -0.709 13 10 20
-2687.1824 5947.5654 1409.8378 -0.294 -0.762 -0.577 24 21 39
-2685.3447 5970.6768 1405.3197 0.157 -0.475 -0.866 24 20 41
-2696.0930 6051.0352 1403.4973 -0.356 -0.536 -0.765 29 24 31
-2045.4196 5911.0562 894.6080 0.748 -0.649 -0.139 29 26 21
-2033.6888 5907.6509 885.5491 0.322 -0.927 -0.192 36 33 28
-1970.9348 6111.2002 808.0233 0.924 -0.298 0.241 79 47 36
-1979.6770 6174.3818 806.8265 0.968 -0.156 0.196 80 48 37
-1940.9965 6083.2632 787.4258 0.630 -0.184 -0.754 86 54 43
-1935.8142 6171.6836 771.6385 0.762 -0.288 -0.581 84 55 45
-1926.1998 6247.5688 753.9026 0.882 -0.085 -0.463 76 59 52
-1509.0768 6035.4805 443.7076 0.677 -0.720 -0.155 241 197 186
-4148.2295 4986.8848 2701.9292 0.359 -0.158 -0.920 144 123 112
-4021.8059 4878.9556 2614.0596 0.882 -0.331 -0.337 134 104 82
-3907.2825 5305.9644 2464.4890 -0.703 -0.519 -0.487 121 86 64
-3438.5864 5607.1670 2045.2128 -0.537 -0.240 -0.809 143 98 67
-3513.5527 6110.3071 2038.7642 0.566 -0.761 -0.317 143 98 65
-3508.7085 6126.1743 2032.7301 0.569 -0.760 -0.314 141 96 63
-3620.8970 6355.0938 2092.9531 0.840 -0.543 -0.009 122 77 44
-3468.1006 6303.8452 1976.1935 0.512 -0.628 0.586 130 85 52
-3154.4658 6081.9634 1752.0879 0.003 -0.591 -0.807 149 108 78
-2740.0276 5411.9175 1506.2018 0.486 -0.633 -0.603 36 21 4
-2050.2505 6129.5415 852.5748 0.993 0.118 -0.024 78 56 48
-1916.8691 6150.5972 741.8790 0.159 -0.467 -0.870 77 58 51
-1839.7177 6995.9800 566.7531 0.166 -0.676 -0.718 234 195 175
-1724.4252 6626.6875 522.7363 -0.427 -0.592 -0.683 235 189 167
-1539.8683 6087.9639 445.2847 0.370 -0.929 -0.007 241 197 184
-1516.0897 6030.3525 433.7326 0.555 -0.789 -0.266 241 197 184
-4166.3286 4997.5288 2697.4326 0.467 -0.138 -0.873 158 137 126
-4027.8718 4874.7759 2602.2817 0.882 -0.331 -0.337 137 107 85
-3925.4150 5337.2070 2456.8416 -0.704 -0.519 -0.485 116 81 61
-3902.0742 5461.3149 2421.1643 -0.290 -0.957 -0.013 105 72 55
-3981.2246 6052.5107 2404.9014 0.919 -0.039 0.392 68 36 13
-3628.9465 5822.0020 2151.7124 -0.807 -0.591 -0.014 109 71 38
-3438.6353 6254.6016 1939.3789 0.782 -0.404 -0.475 130 85 52
-3406.7876 6220.0132 1918.3539 0.718 -0.662 -0.212 130 87 52
-2167.3191 6325.5537 903.2262 0.575 -0.177 0.799 35 36 21
-2139.2856 6343.3301 878.1797 0.715 0.012 0.699 62 47 36
-1851.4752 5938.1196 700.7370 0.851 0.140 -0.506 79 62 55
-3964.8528 5379.1875 2464.7117 -0.708 -0.518 -0.480 116 81 61
-3922.3362 5476.4438 2417.0312 -0.240 -0.922 0.303 105 72 55
-3898.7808 5861.7480 2344.9172 0.196 -0.789 0.583 68 40 26
-3932.1357 6026.6270 2349.0681 0.987 -0.103 0.123 149 115 88
-3510.3125 5948.0537 2019.8960 0.178 -0.975 0.133 133 87 53
-3574.2241 6157.9595 2042.4685 0.695 -0.568 -0.441 140 95 62
-3579.8035 6369.8447 2017.7499 0.219 -0.949 0.226 121 76 43
-3485.9204 6272.7603 1955.4629 0.832 -0.460 -0.311 126 81 48
-3467.7549 6264.3892 1941.9750 0.834 -0.356 -0.422 126 81 48
-3360.3147 6138.1475 1872.7808 0.711 -0.666 -0.225 130 87 52
-3277.1401 6260.6797 1788.8434 0.908 -0.408 -0.093 140 99 69
-2798.0303 5518.8599 1504.9478 -0.008 -0.639 -0.769 33 23 10
-2894.5859 6078.2388 1505.6455 0.556 -0.678 -0.481 26 21 15
-1592.3486 5452.8726 542.2192 0.870 -0.492 0.017 27 13 7
-1713.6119 5960.6426 569.9483 1.000 -0.016 0.026 19 9 7
-4198.2188 4978.6172 2690.3650 0.747 -0.259 -0.613 235 227 212
-3938.2537 5485.1880 2410.1914 -0.244 -0.924 0.295 105 72 55
-3907.1843 5836.8608 2335.9031 -0.048 -0.815 0.577 68 40 26
-3891.1274 5833.8042 2323.4119 0.232 -0.784 0.575 68 40 26
-3863.7480 5901.4507 2291.9006 0.336 -0.940 -0.054 156 122 95
-3881.8599 5952.7119 2299.2893 -0.345 -0.772 -0.533 140 106 79
-3889.2761 6125.8398 2280.9915 -0.758 -0.636 0.145 107 71 37
-3719.3628 5916.0088 2173.6841 -0.549 -0.676 -0.492 114 78 44
-3587.0559 5831.5029 2079.0706 -0.794 -0.431 -0.429 154 109 78
-3457.7917 6226.5298 1919.6959 0.921 -0.347 -0.179 119 74 41
-3462.9966 6261.7866 1918.9425 0.895 -0.385 -0.226 119 74 41
-3467.0986 6426.0981 1899.2139 0.637 -0.730 0.249 125 82 47
-3292.3240 6244.4526 1784.0444 0.756 -0.609 -0.241 128 87 57
-2796.3477 5497.2539 1489.6935 0.155 -0.976 -0.154 33 23 10
-2864.5220 6018.6743 1471.4681 0.713 -0.283 -0.641 28 21 15
-2286.6123 6489.3608 940.4977 0.138 -0.625 0.768 33 30 25
-2092.2000 6210.8911 823.0978 0.696 -0.004 0.718 77 49 43
-4129.5566 4765.2427 2647.9412 0.276 -0.733 -0.622 127 124 117
-4120.4243 4770.6060 2639.8423 0.276 -0.733 -0.622 159 156 149
-4155.9077 4897.4053 2650.2837 0.402 -0.131 -0.906 229 228 212
-4195.0449 5014.6577 2665.0198 0.619 -0.256 -0.743 147 126 115
-4155.5947 5000.0278 2635.4163 0.748 -0.658 -0.088 137 106 86
-3878.0215 5797.5254 2298.8828 0.821 -0.284 0.495 68 41 27
-3849.7061 5796.9487 2276.2217 0.495 -0.868 -0.047 76 44 21
-3865.0947 5843.0151 2282.0212 0.468 -0.881 0.064 123 89 64
-3870.5681 5873.7358 2282.0422 0.485 -0.869 0.100 158 124 97
-3878.6226 5908.7202 2283.5288 0.300 -0.951 -0.070 147 113 86
-3847.9194 5927.1426 2256.2439 0.968 -0.037 -0.248 135 101 74
-3901.0422 6081.1885 2276.9731 0.979 -0.172 0.109 131 94 62
-3690.8220 5897.5410 2134.2771 0.482 -0.648 -0.590 139 97 62
-3574.0435 6372.0645 1972.8956 -0.127 -0.802 0.584 114 69 36
-3521.3857 6351.7690 1933.4906 0.176 -0.974 0.143 114 69 36
-3460.2891 6366.6943 1882.2913 0.941 -0.338 -0.014 119 78 43
-3495.2766 6460.0298 1897.1006 0.653 -0.716 0.247 119 78 43
-2801.1240 5488.9829 1477.8488 0.195 -0.973 -0.122 32 23 9
-2938.8506 5999.6245 1515.7449 0.757 -0.006 -0.653 29 24 15
-2899.7200 6047.9380 1477.4336 0.367 -0.373 -0.852 40 32 25
-2878.3137 6028.1221 1463.0621 0.707 -0.274 -0.652 29 20 14
-1961.4111 6146.8994 709.6772 0.558 -0.334 -0.760 66 44 35
-1984.8738 6441.9199 686.5046 -0.348 -0.793 0.500 75 59 52
-1888.6938 6262.3652 634.8246 -0.213 -0.595 0.775 39 25 18
-1621.0864 6199.4043 428.8460 -0.460 -0.886 0.067 221 176 169
-367.2715 1540.0472 85.3707 0.092 -0.082 -0.992 54 29 30
-4141.3130 4768.1597 2639.8818 0.238 -0.772 -0.589 33 30 25
-4130.9268 4772.0200 2630.9956 0.282 -0.740 -0.611 43 40 35
-4165.3726 4897.3604 2640.4790 0.408 -0.129 -0.904 231 226 215
-4204.8481 5014.8315 2655.1333 0.574 -0.258 -0.777 136 127 116
-3963.4414 5513.0059 2389.4922 -0.406 -0.435 -0.804 98 69 51
-3877.4343 5868.4087 2269.1082 0.485 -0.869 0.100 145 109 83
-3944.3945 6087.7402 2291.0620 0.949 0.008 -0.315 149 113 86
-3897.7776 6058.9688 2257.8474 0.961 -0.152 0.232 143 103 71
-3711.0413 5891.5503 2132.3457 0.467 -0.661 -0.587 126 85 50
-3704.1160 5902.8237 2125.1616 0.467 -0.661 -0.587 132 88 52
-3659.9387 6132.6846 2056.4817 -0.658 -0.400 -0.639 125 79 43
-3598.9631 6074.4116 2016.0228 -0.626 -0.394 -0.673 136 90 54
-3463.5791 6353.1899 1867.1353 0.951 -0.268 -0.154 135 97 67
-3493.7778 6437.0684 1879.2123 0.710 -0.663 0.237 130 92 62
-2607.1248 5032.3115 1371.5464 0.950 -0.080 0.303 91 72 57
-2960.2861 5921.2559 1526.0905 0.738 -0.008 -0.674 25 16 7
-2970.2935 6046.0615 1516.0563 0.734 -0.006 -0.679 33 25 16
-4145.9956 4795.3867 2622.5598 0.227 -0.933 0.280 52 49 43
-4230.9810 4983.3516 2662.9597 0.581 -0.248 -0.775 231 224 214
-4207.0620 4988.2705 2643.0923 0.680 -0.716 -0.158 192 185 175
-4200.5029 4997.4102 2636.4993 0.783 -0.154 -0.603 135 127 117
-4191.2080 5003.1602 2628.2146 0.699 -0.695 -0.166 129 114 99
-4263.5215 5660.4883 2589.4971 -0.342 -0.548 -0.763 127 92 70
-3890.9736 5873.5708 2259.9990 0.478 -0.871 0.115 134 98 72
-3894.5698 5923.6914 2255.5122 -0.025 -0.902 0.430 125 89 63
-3859.6218 5890.6812 2232.3911 -0.039 -0.901 0.432 132 96 70
-3927.7903 6021.5166 2267.7258 0.944 0.024 -0.329 139 103 77
-3414.1069 5756.2676 1895.5568 -0.386 -0.466 -0.796 149 100 64
-3434.3914 6356.1738 1823.6340 0.458 -0.850 0.262 113 77 48
-3408.0728 6331.7734 1806.1544 0.536 -0.813 0.225 99 66 40
-3382.2644 6360.7422 1781.2405 0.486 -0.503 -0.715 98 66 41
-2831.5173 5991.1201 1394.7440 0.678 -0.102 -0.728 26 16 10
-1937.8912 5980.2593 681.0886 0.965 -0.061 -0.254 57 28 22
-1955.3550 6282.2529 650.6873 -0.077 -0.684 0.725 57 46 40
-1933.9495 6283.0615 633.4357 -0.253 -0.570 0.782 44 40 33
-1723.5527 5912.9204 519.4293 0.040 -0.732 0.680 21 20 15
-4176.8682 4707.2080 2643.2656 0.052 -0.334 -0.941 226 225 220
-4155.3936 4795.4146 2612.9460 0.454 -0.891 0.009 25 22 16
-4133.4702 4801.8398 2594.4709 0.209 -0.919 0.334 231 227 218
-4159.3174 4866.6724 2605.4482 0.441 -0.116 -0.890 232 225 215
-4226.9150 4966.4995 2644.5625 0.558 -0.268 -0.785 231 224 214
-4212.7031 4983.3296 2630.6958 0.740 -0.170 -0.651 193 186 176
-4138.5186 4959.8745 2574.9233 0.234 -0.305 -0.923 140 107 85
-3818.9429 5766.4780 2199.2302 0.141 -0.885 0.444 119 82 56
-3898.4666 5913.5708 2240.8198 0.111 -0.970 -0.217 121 85 59
-3970.4065 6095.5645 2271.1426 0.985 -0.124 0.117 138 101 75
-3895.1318 6021.0991 2222.1108 0.961 -0.152 0.232 159 118 86
-3542.2969 6230.9761 1908.8844 0.301 -0.436 0.848 136 91 58
-3294.4866 6119.0347 1727.5911 0.822 -0.412 -0.394 98 66 41
-3497.4062 6647.0938 1810.9264 -0.794 -0.580 -0.182 69 37 12
-2853.8191 5589.6816 1454.4918 0.749 -0.389 0.537 23 24 6
-1948.5428 6194.2837 640.9746 -0.218 -0.857 0.468 44 33 27
-1773.4380 5953.1206 537.0537 -0.041 -0.820 0.571 36 33 26
-1727.6302 5862.4839 513.9785 0.030 -0.737 0.675 33 32 27
-1708.3229 5864.5264 498.2474 0.004 -0.744 0.668 35 34 29
-1691.4750 5839.5127 488.5186 -0.203 -0.785 0.586 39 38 33
-1439.0736 5676.6177 311.1602 0.859 -0.333 0.388 236 201 197
-4193.5986 4715.9492 2638.3408 0.059 -0.333 -0.941 226 225 220
-4156.5928 4802.0078 2595.7903 0.293 -0.735 -0.611 155 150 143
-4148.7993 4809.0767 2588.5037 0.290 -0.727 -0.623 230 226 217
-4238.3140 4968.6670 2635.7249 0.558 -0.268 -0.785 231 224 214
-4221.9487 4982.8521 2620.5237 0.444 -0.312 -0.840 195 188 178
-4215.8359 4992.5186 2614.1838 0.560 -0.272 -0.782 137 129 119
-4192.7168 4981.0962 2597.4749 0.275 -0.464 -0.842 129 114 99
-4187.2632 4991.5664 2591.5393 0.269 -0.452 -0.850 138 109 90
-4153.8887 4967.1694 2568.6160 0.234 -0.305 -0.923 141 107 86
-3860.7036 5772.6201 2212.7734 0.209 -0.945 -0.254 101 66 39
-3852.6638 5781.7612 2204.9766 0.229 -0.934 -0.276 108 71 45
-3824.1572 5758.8706 2185.7075 0.141 -0.885 0.444 118 81 55
-3877.1028 5885.9131 2208.6921 0.336 -0.812 -0.477 120 84 58
-3728.0146 5672.1045 2122.1692 0.654 -0.635 -0.412 127 91 65
-3773.1311 5787.1519 2140.7263 0.702 -0.644 -0.304 143 102 71
-3823.5806 5889.8887 2165.4019 0.799 -0.432 -0.419 146 103 71
-3835.2451 6138.6665 2137.0220 0.467 -0.884 0.034 150 106 69
-3601.2751 6001.5923 1971.1758 -0.154 -0.520 -0.840 132 86 50
-3545.4448 6193.0400 1897.6476 0.965 -0.254 -0.062 136 91 58
-3478.3110 6145.0840 1851.3671 0.972 -0.221 0.079 122 77 44
-3498.0359 6256.7349 1850.1871 0.857 -0.508 0.082 99 61 31
-3288.3013 6062.9185 1712.2654 0.630 -0.752 -0.196 99 66 40
-3303.4644 6117.1699 1716.1417 0.804 -0.433 -0.408 98 66 41
-3366.4233 6342.5771 1732.2130 0.252 -0.383 -0.889 91 59 34
-1996.0565 5753.4165 728.4810 0.693 -0.014 0.721 41 30 24
-2095.5486 6537.8467 689.0133 0.190 -0.947 0.259 39 28 22
-1953.0608 6215.6982 624.1651 -0.352 -0.831 0.431 35 24 18
-1740.8921 5845.1934 511.0656 0.153 -0.882 -0.446 43 42 37
-1729.2045 5839.0439 502.6754 -0.037 -0.971 0.234 43 42 37
-1716.8763 5830.4883 494.1387 -0.133 -0.844 0.520 42 41 36
-1697.5780 5832.1299 478.4981 -0.116 -0.839 0.532 66 65 60
-1533.4265 5952.8906 329.2825 0.639 -0.033 0.769 225 197 191
-4180.9756 4787.1948 2600.3684 0.224 -0.777 -0.588 38 35 30
-4174.3560 4795.6543 2593.7976 0.210 -0.793 -0.572 25 22 16
-4164.7642 4800.5469 2585.4087 0.119 -0.800 -0.588 150 145 138
-4156.6646 4807.2402 2577.9307 0.119 -0.800 -0.588 232 228 219
-4174.3550 4861.9429 2583.6062 0.410 -0.096 -0.907 233 226 216
-3879.9495 5765.1919 2210.3521 0.008 -0.944 0.331 91 60 37
-3881.3550 5788.9609 2207.8171 0.125 -0.628 -0.768 98 64 37
-3876.6382 5803.3291 2201.8528 0.002 -0.662 -0.750 100 63 37
-3867.7810 5811.2900 2193.5771 -0.005 -0.708 -0.706 100 63 37
-3712.6443 5632.2363 2097.5874 0.760 -0.604 -0.241 112 76 50
-3733.0088 5685.8184 2105.5640 0.740 -0.637 0.216 133 96 69
-3777.4070 5799.8867 2123.3770 0.652 -0.713 -0.258 144 101 69
-3840.5222 6153.6714 2119.2402 0.436 -0.834 0.338 157 113 76
-3610.1045 5883.4082 1977.3354 0.709 -0.639 0.299 139 93 57
-2352.1165 5859.5098 979.4335 0.429 -0.632 0.646 24 19 16
-2332.8965 5866.9824 962.9822 0.769 -0.470 -0.434 19 16 11
-1915.6075 5763.6118 646.6392 0.578 -0.226 0.784 31 16 5
-1872.5735 5659.7261 628.3471 0.998 0.059 -0.017 31 16 7
-1860.8668 5654.1719 619.8804 0.977 0.016 -0.214 30 16 7
-2128.0330 6575.7627 690.9149 0.058 -0.998 -0.004 28 18 9
-1976.9979 6230.0210 623.8156 -0.333 -0.828 0.451 24 13 7
-1912.1316 6086.3291 594.2606 -0.278 -0.815 -0.509 24 14 7
-323.4408 1222.5837 77.0908 0.170 0.048 -0.984 39 28 24
-4219.6509 4756.8691 2618.7417 0.253 -0.711 -0.656 221 218 213
-4186.0977 4798.4771 2585.5845 0.210 -0.793 -0.572 36 33 27
-4201.3667 4833.3101 2592.2866 0.121 -0.806 -0.579 144 140 132
-4189.2881 4835.3081 2582.3755 0.109 -0.806 -0.582 231 227 218
-4235.7437 4993.2852 2594.6550 0.739 -0.541 -0.401 150 143 132
-4227.6318 5000.5000 2587.0825 0.731 -0.529 -0.431 134 119 104
-3956.9448 5532.1274 2289.0237 -0.504 -0.556 -0.661 61 36 19
-3769.1724 5516.8779 2142.1663 0.726 -0.448 0.521 50 31 14
-3719.7876 5628.0293 2085.5791 0.760 -0.604 -0.241 112 76 50
-3661.0522 5975.7666 1984.6566 0.106 -0.526 -0.844 138 92 56
-3621.3264 6120.3662 1930.5286 -0.154 -0.504 -0.850 138 88 53
-3536.3357 6238.9214 1844.4878 0.517 -0.609 0.601 121 76 43
-3478.6682 6258.6851 1795.5728 0.654 -0.513 0.555 94 57 28
-2780.0925 5363.3027 1380.0312 0.466 -0.430 0.774 28 26 7
-3029.1553 6148.0376 1455.5728 0.646 -0.454 -0.614 50 34 21
-2337.8901 5828.4688 956.0241 0.440 -0.616 0.653 24 21 16
-1942.1047 6156.8667 590.2412 -0.358 -0.461 -0.812 24 14 7
-1720.6434 5751.8726 477.4030 -0.109 -0.982 -0.153 41 40 35
-1697.0573 5703.3813 466.2213 0.223 -0.936 -0.273 41 40 35
-4220.3027 4811.7139 2593.5183 0.396 -0.659 -0.640 164 161 156
-4216.7153 4823.8784 2588.7473 0.402 -0.696 -0.594 47 44 38
-4210.4854 4832.9126 2582.3752 0.388 -0.658 -0.645 155 151 143
-4204.6226 4842.4111 2576.2209 0.388 -0.658 -0.645 231 227 218
-4172.6304 4820.3457 2554.3306 0.268 -0.735 -0.623 232 228 217
-4243.4902 4990.9438 2583.5540 0.739 -0.541 -0.401 150 143 132
-4235.6025 4998.4287 2576.1118 0.731 -0.529 -0.431 134 119 104
-4086.8103 5685.5586 2349.3367 -0.296 -0.355 -0.887 68 40 21
-3886.7815 5787.5786 2174.4973 -0.375 -0.815 -0.442 88 52 28
-3883.1235 5803.5610 2169.0662 -0.066 -0.998 0.001 88 52 26
-3762.5691 5637.3286 2099.7261 0.235 -0.967 0.097 121 87 60
-3742.1421 5626.5479 2085.2258 0.715 -0.661 -0.227 128 94 67
-3723.8687 5619.0278 2071.9182 0.771 -0.588 -0.242 112 76 52
-3722.8660 5659.9287 2064.6509 0.734 -0.639 0.229 143 103 72
-3635.4131 6127.0889 1921.3474 -0.143 -0.489 -0.860 138 88 53
-3595.5171 6252.5850 1869.8373 0.341 -0.890 0.302 138 93 60
-3475.2805 6133.3296 1793.3158 0.550 -0.584 0.596 109 65 33
-3446.1006 6129.1313 1770.8298 0.433 -0.549 0.715 112 75 46
-3461.0020 6206.7139 1770.3756 0.640 -0.511 0.573 101 64 35
-3342.2253 6134.1372 1687.6265 0.778 -0.381 -0.499 105 73 48
-3314.8901 6107.1011 1670.2175 0.803 -0.413 -0.430 98 66 41
-3301.5894 6106.7612 1659.7190 0.819 -0.420 -0.390 93 61 36
-3037.5554 6198.7617 1435.6854 0.408 -0.703 -0.583 43 25 13
-3047.8674 6274.9849 1431.8054 0.547 -0.291 -0.785 46 28 16
-2701.1135 6251.4482 1160.4265 0.151 -0.986 -0.076 32 22 20
-2770.1650 6447.5078 1184.1863 0.975 -0.203 -0.093 32 22 20
-2675.9070 6278.4121 1136.1617 0.744 -0.562 0.362 32 22 20
-2452.4258 5927.7852 1014.3408 0.494 -0.597 0.632 39 34 31
-2397.7224 5846.1299 983.8616 0.346 -0.754 0.559 55 50 47
-1971.6952 6190.2246 591.4177 0.355 -0.238 -0.904 24 13 7
-1948.9500 6150.6992 579.6266 -0.181 -0.427 -0.886 25 15 8
-3942.4189 2815.3535 2676.6597 0.440 -0.818 0.370 208 199 190
-4223.7002 4820.9331 2577.5610 0.449 -0.557 -0.699 111 108 102
-4220.8271 4833.9761 2573.1921 0.377 -0.659 -0.650 154 149 141
-4212.8535 4840.9360 2565.7605 0.396 -0.650 -0.649 232 228 219
-4184.3345 4823.1216 2546.0332 0.268 -0.735 -0.623 231 227 216
-4246.6255 5034.6675 2561.4160 0.274 -0.418 -0.866 141 108 87
-4431.7705 5804.4336 2584.5090 -0.013 -0.427 -0.904 126 91 69
-3764.9749 5625.7383 2085.1069 -0.522 -0.782 -0.341 118 86 61
-3726.8704 5608.3760 2057.7158 0.550 -0.686 -0.476 109 77 53
-3729.8142 5634.1187 2055.9160 0.729 -0.683 0.044 131 96 72
-3716.1318 5633.7690 2045.1361 0.720 -0.684 -0.118 142 103 72
-3669.4722 5932.8032 1960.1930 0.009 -0.325 -0.946 155 109 73
-3646.2622 6128.1177 1910.4666 -0.148 -0.544 -0.826 137 89 54
-3338.0786 6107.2793 1669.7396 0.007 -0.992 0.123 105 73 48
-3192.5637 6505.5947 1490.5731 0.722 -0.479 -0.500 41 24 12
-3179.1604 6505.3916 1479.9908 0.675 -0.382 -0.631 46 28 17
-3293.6724 6957.6699 1498.0969 0.577 -0.280 0.767 24 15 10
-1771.5160 5872.0757 466.8206 -0.045 -0.972 -0.232 42 41 36
-1687.7867 5751.3979 419.8767 -0.444 -0.894 -0.054 45 45 38
-1484.4622 5381.2568 318.2523 0.403 -0.803 -0.439 51 43 33
-1474.3232 5376.6997 310.9539 0.379 -0.809 -0.448 44 36 26
-1433.3756 5321.2598 287.4220 0.142 -0.830 0.539 57 48 38
-1394.6154 5377.0181 247.7768 -0.051 -0.989 0.140 27 20 9
-1394.0286 5751.6699 187.1864 -0.135 -0.014 -0.991 97 95 87
-3971.1060 2822.8533 2685.8418 0.599 -0.799 -0.055 198 192 180
-3950.3091 2815.9211 2670.5286 0.499 -0.791 0.354 205 198 188
-3950.7869 2825.3049 2669.3794 0.438 -0.808 0.394 209 202 192
-3721.0735 5584.0269 2038.8457 0.505 -0.641 -0.577 96 73 51
-3826.8640 5770.9087 2092.0686 0.465 -0.785 0.409 121 95 75
-3474.1631 6070.0596 1764.5536 0.507 -0.709 0.490 121 81 51
-3321.1250 6056.3115 1645.8038 0.011 -0.941 -0.337 103 71 46
-3260.7312 5990.8477 1608.7115 -0.519 -0.750 -0.410 103 71 46
-3258.7031 6086.5947 1591.5270 0.356 -0.928 -0.111 85 56 33
-2714.8447 6297.0947 1127.3154 0.622 -0.520 0.585 13 9 8
-2077.1323 5932.1431 682.5494 -0.160 -0.971 0.176 38 25 17
-2004.0704 5838.6753 639.9993 -0.275 -0.957 0.097 35 24 15
-1763.7308 5992.2314 425.0061 -0.062 -0.904 -0.422 42 41 37
-1730.2969 5909.0894 412.1042 -0.034 -0.992 -0.119 43 42 38
-1724.4426 5923.8691 405.0709 -0.044 -0.952 -0.303 51 48 42
-1695.8866 5856.8257 393.4055 0.118 -0.964 -0.238 51 48 42
-3952.3813 2812.0254 2660.5312 0.499 -0.785 0.368 204 197 187
-3955.0427 2823.0686 2660.8096 0.476 -0.778 0.409 209 202 192
-3939.6189 2820.2122 2649.1089 0.516 -0.769 0.378 212 205 197
-4272.2495 4990.6899 2553.5354 0.795 -0.389 -0.466 179 169 160
-4268.7856 5003.5918 2548.6736 0.795 -0.389 -0.466 139 124 111
-4442.3569 6020.8662 2517.8254 -0.510 -0.412 -0.755 90 63 46
-3731.4409 5584.9878 2028.7010 0.505 -0.641 -0.577 91 70 49
-3836.6616 5770.5107 2081.1311 0.484 -0.783 0.390 114 91 71
-3763.0486 5676.6274 2038.5265 0.611 -0.750 -0.252 123 93 65
-3535.1045 5922.8608 1818.0175 0.606 -0.263 0.750 133 88 59
-3535.7224 6041.9155 1798.8640 0.870 -0.217 -0.443 116 77 48
-3697.4834 6354.1201 1875.0148 0.734 -0.456 -0.503 123 84 55
-3421.0374 5955.7827 1722.5677 0.060 -0.774 0.631 134 95 66
-3091.1489 6169.6475 1426.9471 0.778 -0.468 -0.419 58 45 36
-3111.9871 6239.5415 1431.8613 0.434 -0.873 -0.225 71 58 49
-3104.9353 6251.6675 1424.2958 0.481 -0.845 -0.233 71 58 49
-3099.8079 6267.8823 1417.5742 0.505 -0.836 -0.218 58 45 36
-3011.2163 6161.4199 1365.2241 0.698 -0.528 0.485 41 28 19
-2579.5342 6148.2671 1026.7234 -0.429 -0.450 -0.783 46 36 37
-2183.5588 6356.6152 679.8591 0.232 -0.719 -0.655 41 28 20
-3965.2415 2807.4175 2659.1760 0.588 -0.670 0.453 198 192 180
-3954.9768 2808.5408 2650.9019 0.491 -0.787 0.373 205 198 188
-3953.4490 2816.3494 2648.3926 0.591 -0.677 0.439 208 201 191
-4523.6992 3264.1628 3022.7388 0.447 -0.483 -0.753 212 205 197
-4279.9404 4988.2861 2542.4084 0.795 -0.389 -0.466 179 170 160
-3873.8369 5769.5869 2091.8435 -0.121 -0.794 -0.596 71 53 31
-3864.5884 5776.7705 2083.3567 0.601 -0.794 0.096 84 63 42
-3792.6338 5707.4697 2038.2610 0.220 -0.872 0.438 123 92 65
-3770.5308 5694.1748 2023.0720 0.603 -0.749 -0.275 129 96 65
-3768.1677 5755.0132 2011.0370 0.572 -0.789 -0.225 146 111 81
-3718.2407 5718.7285 1977.7734 0.773 -0.465 -0.431 141 106 76
-3640.0808 5878.5664 1889.4734 0.629 -0.364 0.687 154 111 76
-3375.5710 6023.0615 1656.9374 -0.037 -0.591 -0.806 88 54 29
-3367.5532 6032.5693 1649.0312 0.121 -0.703 -0.700 95 61 36
-3113.1211 6194.8555 1421.4591 0.713 -0.529 -0.460 51 38 29
-3113.8755 6249.7192 1412.8793 0.481 -0.845 -0.233 65 52 43
-3003.5413 6124.6274 1346.8783 0.698 -0.542 0.468 41 28 19
-2405.9912 5834.3687 924.6804 0.230 -0.930 -0.287 43 33 34
-2441.8577 5953.5659 933.0031 0.566 -0.807 -0.170 43 33 34
-1915.6985 6171.6338 482.0438 0.256 -0.666 -0.700 34 27 19
-3114.6816 2133.5232 2092.2581 -0.413 -0.911 0.024 207 200 192
-3956.6257 2813.3049 2639.1519 0.624 -0.664 0.412 209 202 192
-4517.0190 3252.7349 3005.3691 -0.338 -0.939 -0.061 211 204 196
-3530.1370 2535.2000 2350.8967 -0.385 -0.919 -0.085 209 202 194
-3195.3691 4533.9731 1748.9362 0.812 -0.385 -0.438 50 32 12
-2977.3098 4224.6147 1629.8816 0.948 0.092 -0.303 53 35 15
-3894.0403 5806.7944 2082.6682 -0.137 -0.806 -0.575 77 59 39
-3871.5869 5793.5513 2067.2556 -0.174 -0.834 -0.524 101 80 59
-3772.7751 5746.5215 1997.5214 0.606 -0.759 -0.236 156 121 91
-3758.7134 5745.8389 1986.5792 0.626 -0.747 -0.222 152 119 88
-3714.7625 5697.4106 1960.2238 0.713 -0.500 -0.493 143 108 78
-3661.6794 5875.3623 1888.3251 0.604 -0.361 0.711 154 111 76
-3486.5154 5714.4277 1777.8512 0.305 -0.153 -0.940 140 95 64
-3615.9656 5981.5977 1834.3743 0.458 -0.480 0.749 112 67 38
-3409.4749 5994.6572 1669.7811 0.168 -0.703 -0.691 101 67 42
-3403.9592 6032.9023 1658.9629 0.129 -0.700 -0.703 84 50 25
-3161.3860 6355.0610 1413.6163 0.594 -0.802 -0.068 46 33 24
-3168.1399 6396.5542 1411.8961 0.557 -0.829 -0.045 41 28 19
-2413.6919 5831.6797 914.3357 0.377 -0.908 -0.181 47 37 38
-2453.9885 5990.3896 919.1298 0.498 -0.539 0.679 41 22 31
-2426.7893 6037.0557 889.8329 -0.290 -0.882 0.371 51 32 40
-2007.4091 6339.6855 508.7581 0.324 -0.856 0.403 63 54 47
-1691.7128 5860.2266 341.7488 -0.509 -0.839 0.192 44 41 36
-1492.7443 5686.1865 214.7764 -0.394 -0.807 0.440 42 37 34
-3128.0054 2139.3489 2092.1711 -0.412 -0.911 0.024 205 198 190
-4541.5024 3265.2378 3008.4380 -0.279 -0.960 -0.004 211 204 196
-4554.1895 3285.3281 3014.9478 0.854 -0.424 -0.302 206 199 191
-3917.6548 5827.6294 2078.7786 -0.112 -0.946 0.303 75 57 37
-3903.9270 5828.0566 2067.9292 -0.131 -0.942 0.309 89 68 47
-3789.1189 5756.6113 1990.0730 0.852 -0.511 -0.114 163 128 98
-3739.7429 5699.9883 1961.0356 0.707 -0.495 -0.505 158 125 94
-3734.7349 5713.5210 1954.7808 0.707 -0.495 -0.505 141 106 76
-3644.6531 5655.0771 1894.1024 -0.059 -0.922 -0.382 144 104 68
-3668.8750 5870.7173 1876.0920 0.582 -0.376 0.721 160 117 82
-3638.1819 5910.0522 1845.2448 0.418 -0.678 -0.605 135 92 57
-3442.8926 6013.4346 1674.1952 0.071 -0.864 -0.499 102 68 41
-3428.4326 6035.3501 1659.0817 0.116 -0.875 -0.471 90 56 31
-3422.9263 6073.9175 1648.1375 0.148 -0.764 -0.628 103 69 44
-2457.8003 5948.7197 912.0226 0.578 -0.804 -0.142 65 52 54
-2382.7534 5928.9946 856.4984 0.687 -0.373 0.624 52 24 36
-2461.3645 6743.7900 778.3113 0.241 -0.082 -0.967 37 24 19
-2234.7649 6427.7051 654.7037 0.343 -0.581 -0.738 54 41 33
-2226.4998 6471.7026 640.6616 -0.355 -0.888 0.291 64 51 43
-2024.0641 6293.6099 512.3299 0.520 -0.545 -0.658 69 60 53
-1674.2806 5874.5479 309.7052 -0.450 -0.787 0.422 41 38 33
-1530.9519 5732.3647 221.6062 -0.454 -0.879 0.147 67 62 59
-1526.4919 5789.2837 208.3324 -0.378 -0.863 0.336 67 62 59
-3142.1211 2145.7466 2092.5522 -0.412 -0.911 0.024 206 199 191
-4306.3208 4867.8662 2531.3569 0.890 -0.449 0.082 222 220 208
-4301.6831 4878.8994 2525.8040 0.892 -0.443 0.084 181 177 166
-4296.1445 4888.8955 2519.7256 0.892 -0.443 0.084 216 209 199
-4316.3979 5031.5308 2510.7874 0.657 -0.223 -0.720 141 114 97
-3365.7295 4658.9180 1830.6570 -0.434 -0.604 0.668 50 32 18
-2983.1011 4210.6934 1608.7906 0.940 0.055 -0.337 58 40 20
-3871.6187 5553.3091 2071.5083 0.983 -0.151 0.102 65 47 27
-3780.9900 5728.0762 1970.0953 0.676 -0.568 -0.469 142 107 77
-3772.6450 5736.4131 1962.1061 0.672 -0.575 -0.467 141 108 77
-3743.6995 5712.0669 1943.6592 0.707 -0.495 -0.505 135 100 70
-3680.2949 5675.2935 1900.3715 -0.057 -0.944 -0.326 143 103 67
-3622.6943 5777.5527 1837.4502 0.388 -0.304 -0.870 156 113 78
-3602.6548 5810.9526 1815.9382 -0.379 -0.204 -0.903 144 101 66
-3515.0388 6175.1616 1683.9362 0.936 -0.341 -0.092 90 56 31
-3522.9595 6214.4429 1683.3105 0.931 -0.353 -0.089 103 69 44
-3017.8535 6120.2812 1303.8898 0.411 -0.703 -0.580 34 22 13
-2507.3694 5826.3931 954.9930 -0.206 -0.969 0.137 31 25 25
-2445.4268 5895.2192 894.4841 0.595 -0.803 -0.025 66 52 54
-2264.1611 6522.2231 643.3912 -0.366 -0.870 0.331 46 33 25
-2241.2031 6487.9893 631.3557 -0.369 -0.887 0.278 54 41 33
-2034.3430 6298.0156 502.3031 0.370 -0.835 0.406 73 64 57
-1525.8013 5755.3096 198.2050 -0.393 -0.832 0.392 62 57 54
-3150.1206 2147.5288 2088.9045 -0.390 -0.921 -0.011 205 198 190
-3872.4355 5539.8706 2056.3025 0.662 -0.584 -0.470 86 65 46
-4078.3508 6021.1626 2132.5850 -0.631 -0.595 -0.498 57 39 19
-3797.3298 5716.7168 1966.4009 -0.020 -0.840 0.543 95 60 30
-3653.9612 5724.9546 1852.8060 -0.088 -0.888 -0.452 155 115 79
-3664.3120 5807.8745 1846.2952 0.368 -0.347 -0.863 149 106 71
-3771.0020 6390.5591 1827.1021 -0.488 -0.452 -0.747 105 66 37
-3504.7729 6138.0273 1663.3430 0.805 -0.581 -0.120 90 56 31
-3503.9373 6161.0918 1658.6261 0.801 -0.579 -0.151 103 69 44
-2982.3975 5823.1870 1310.2012 0.787 -0.560 0.257 42 32 22
-3004.6560 6072.3306 1283.7225 0.698 -0.616 -0.365 27 15 6
-2947.4834 5977.9658 1255.6251 0.147 -0.571 -0.808 30 22 15
-3023.9712 6219.5225 1272.9014 0.676 0.179 -0.714 30 23 15
-2700.3870 6241.6650 1015.8917 0.912 -0.234 -0.335 27 21 21
-2454.4910 5867.7568 889.4190 -0.483 -0.844 -0.231 64 52 52
-2461.1226 5912.3311 886.7539 -0.333 -0.928 -0.164 66 51 53
-2316.8086 5604.6387 828.0745 0.498 -0.525 0.690 89 54 68
-2523.5161 6934.4062 755.5082 0.560 -0.183 -0.808 26 13 5
-2285.0986 6522.0894 641.6514 0.059 -0.817 -0.573 31 18 10
-2277.9272 6535.3140 633.7122 -0.345 -0.880 0.327 32 19 11
-2040.7305 6289.8872 491.4106 0.370 -0.835 0.406 59 50 43
-3169.8220 2250.9893 2076.2354 0.573 -0.737 -0.358 205 201 192
-3093.0596 4059.9062 1693.6023 -0.391 -0.440 -0.808 88 61 44
-3090.9775 4071.6833 1689.8759 -0.373 -0.447 -0.813 82 55 39
-2999.9800 4197.7847 1596.3281 0.935 0.040 -0.352 93 71 51
-3899.3376 5544.9468 2058.2383 0.627 -0.591 -0.507 98 76 56
-3984.5364 5840.0537 2072.1179 0.116 -0.562 -0.819 56 37 19
-3667.3574 5730.7930 1843.9509 -0.088 -0.888 -0.452 157 117 82
-3659.0657 5782.9741 1828.1678 0.571 -0.775 -0.269 144 101 66
-3517.8176 5813.7222 1712.3940 0.463 -0.692 0.553 101 56 27
-3658.1096 6102.1968 1770.4747 0.481 -0.723 0.496 111 67 38
-3812.6323 6444.8628 1829.9996 -0.502 -0.473 -0.724 100 61 32
-3517.7280 6192.4629 1644.7599 0.502 -0.805 0.315 103 69 44
-3006.1675 5803.4033 1314.7305 0.781 -0.564 0.266 26 16 6
-2997.8767 5811.1758 1306.8702 0.781 -0.564 0.266 32 22 13
-2095.1804 6295.0303 515.7153 -0.231 -0.499 -0.835 44 34 25
-1995.4727 6255.3320 444.9437 0.404 -0.844 0.353 29 20 14
-1536.5302 5735.7046 179.2915 -0.406 -0.820 0.404 48 43 40
-3174.5686 2250.2117 2070.2319 0.573 -0.737 -0.358 210 206 195
-4015.1812 5871.0542 2071.4348 0.234 -0.494 -0.837 65 44 22
-4108.6714 6035.2793 2114.6416 -0.032 -0.678 -0.734 67 45 22
-3676.7095 5751.8159 1829.1571 0.503 -0.847 -0.172 122 83 51
-3734.0334 6003.2871 1828.4165 -0.341 -0.186 -0.922 138 97 64
-3491.2095 5773.8027 1680.6019 0.483 -0.668 0.565 109 65 36
-3507.0930 6204.0112 1615.2780 0.611 -0.488 0.623 115 83 58
-3143.1602 5860.8979 1393.5912 0.111 -0.780 0.616 41 22 7
-2723.8379 6252.4492 996.0378 0.118 -0.987 0.109 25 15 10
-2711.0344 6338.4697 970.5215 0.829 -0.419 -0.372 62 44 37
-1464.7792 5461.1357 157.6183 -0.201 -0.943 -0.264 41 37 34
-3179.3145 2249.4338 2064.2288 0.573 -0.737 -0.358 210 206 195
-4345.9854 5003.2017 2468.4360 0.714 -0.630 0.304 162 151 141
-4337.0381 5009.4365 2460.3350 0.714 -0.630 0.304 139 115 99
-4341.5347 5049.1113 2456.5791 0.823 -0.531 -0.201 128 105 84
-3113.6321 4111.7798 1672.6047 -0.385 -0.455 -0.803 69 40 22
