ply
format ascii 1.0
element vertex 780
property float x
property float y
property float z
property float nx
property float ny
property float nz
property uchar diffuse_red
property uchar diffuse_green
property uchar diffuse_blue
end_header
-3239.6340 5622.2017 1046.4736 0.257 -0.829 -0.497 84 58 49
-3230.4226 5623.5327 1037.6240 0.224 -0.875 -0.429 78 56 43
-2952.8887 5640.3901 778.2625 0.724 -0.689 0.039 51 37 26
-2966.6270 5686.8530 776.3127 0.267 -0.956 0.121 51 37 26
-2957.4729 5688.2847 767.4844 0.267 -0.956 0.121 44 30 19
-2787.9944 5484.5088 676.0364 0.661 -0.746 0.080 25 17 6
-2843.6121 5863.2803 608.5253 0.545 -0.739 -0.395 31 16 9
-2840.3027 5877.6289 601.0091 0.524 -0.753 -0.398 82 63 55
-2834.2424 5886.1880 592.7845 0.524 -0.753 -0.398 112 86 77
-2420.3357 5523.6997 327.1800 -0.187 -0.908 0.374 129 78 49
-2424.1187 6006.1831 179.7850 0.608 -0.684 0.404 76 51 39
-2227.3179 5722.4502 88.3229 0.170 -0.489 -0.855 65 37 26
-2170.7278 5621.8584 67.9652 -0.730 -0.683 -0.026 58 30 19
-1919.8622 5086.4844 5.6861 0.772 -0.622 -0.133 220 186 177
-1886.8259 5088.1030 -25.0656 0.424 -0.860 -0.286 234 200 191
-1874.1479 5076.0820 -32.9141 0.226 -0.948 -0.222 228 194 185
-1826.7174 5157.1436 -101.6837 0.408 -0.838 -0.361 239 234 229
-1822.7469 5170.3188 -109.4384 0.435 -0.882 -0.181 251 243 243
-1687.4653 5448.9443 -320.4109 0.908 -0.419 -0.027 254 246 243
-1721.3521 5811.8066 -402.8430 0.707 -0.553 -0.440 235 177 173
-1563.7321 5605.6562 -482.6916 0.912 -0.332 -0.241 244 183 178
-961.0043 5887.1313 -1122.5161 0.312 -0.762 0.568 238 141 125
-526.6922 4282.3594 -1018.3762 0.844 -0.404 0.352 254 158 149
-527.0742 4785.4438 -1175.3263 0.362 -0.868 -0.338 250 172 146
-445.1500 4114.0942 -1040.4189 -0.586 -0.734 0.344 254 156 139
-416.0609 3943.1790 -1013.6106 -0.517 -0.780 0.352 235 80 93
-184.4838 3626.7424 -1126.6858 -0.640 -0.766 -0.068 253 55 80
-171.3421 3841.5613 -1205.8851 0.666 -0.743 -0.070 240 15 42
-109.1162 3051.3889 -1015.7908 -0.615 -0.787 -0.040 225 11 29
-85.7708 3235.3860 -1094.6948 -0.204 -0.792 -0.575 255 82 84
-3983.9668 5319.8076 1805.3068 -0.360 -0.838 0.411 169 124 91
-4040.9854 5412.1851 1828.3398 -0.247 -0.966 0.075 169 124 91
-3993.7090 5561.9565 1737.8408 0.768 -0.622 0.156 140 99 69
-3996.1509 5580.3179 1734.2836 0.625 -0.389 0.677 128 89 58
-4001.6118 5603.1123 1732.0902 -0.110 -0.475 0.873 118 79 50
-3778.7180 5368.2568 1602.2249 -0.100 -0.874 -0.476 96 60 34
-3807.1311 5454.0957 1601.1467 -0.303 -0.853 -0.424 107 70 44
-3797.8018 5455.2021 1592.2615 -0.303 -0.853 -0.424 115 75 50
-3806.1514 5482.5103 1591.2875 -0.543 -0.744 -0.390 141 100 78
-3793.4785 5478.7104 1580.8905 -0.543 -0.744 -0.390 125 84 62
-3780.8308 5474.9185 1570.5143 -0.543 -0.744 -0.390 61 23 7
-3781.6587 5630.2461 1522.2775 0.752 -0.625 0.212 197 146 115
-3828.0950 5733.4600 1532.2097 -0.457 -0.602 0.655 198 151 117
-2965.6460 5684.8525 758.4130 0.267 -0.956 0.121 43 29 18
-2854.8779 5823.6089 613.2947 0.951 -0.297 0.087 21 15 3
-2873.0168 5882.8994 611.1896 0.961 -0.276 -0.032 22 15 3
-2916.3127 5995.7910 615.1960 0.166 -0.788 -0.592 32 15 8
-2764.5293 5758.3452 551.2127 -0.344 -0.812 0.472 126 89 72
-2747.2466 5742.3594 540.4415 -0.351 -0.812 0.467 135 92 69
-2260.0083 5358.9600 215.5592 0.716 -0.635 0.291 126 78 58
-2532.7566 6127.3828 222.7401 0.895 -0.443 0.047 120 73 55
-2359.9390 5818.1025 162.1692 0.793 -0.245 0.557 78 53 40
-2352.2649 5823.2627 153.5200 0.793 -0.245 0.557 37 18 5
-2195.4739 5638.5190 68.3310 -0.683 -0.730 0.018 45 17 6
-1928.5033 5087.5669 -2.1591 0.768 -0.624 -0.144 203 167 158
-1902.2776 5084.8545 -25.2998 0.379 -0.898 -0.223 234 199 190
-1892.0488 5079.7720 -33.0555 0.328 -0.925 -0.191 230 193 185
-1882.3037 5075.9800 -40.7762 0.226 -0.948 -0.222 223 186 178
-1830.3021 5168.2349 -117.4565 0.435 -0.882 -0.181 214 204 204
-1779.0355 5546.4180 -283.6532 -0.159 -0.967 -0.197 244 229 232
-1754.0015 5582.0522 -317.7989 0.797 -0.558 -0.232 249 249 244
-1699.9575 5674.7070 -396.4740 0.882 -0.465 -0.073 232 179 175
-542.5178 4423.4663 -1060.8424 0.676 -0.715 0.179 255 166 143
-435.8285 4025.6035 -1032.9656 -0.170 -0.941 0.293 242 115 112
-401.5577 3740.9482 -974.5355 -0.654 -0.669 0.354 236 80 94
-195.1030 3633.1753 -1129.4443 -0.633 -0.771 -0.064 253 70 90
-179.5330 3410.0791 -1073.3204 0.146 -0.978 0.146 253 55 80
-116.7711 3168.2981 -1054.4830 -0.656 -0.752 0.067 226 12 30
-95.2144 3248.9578 -1099.6492 -0.559 -0.815 0.149 254 75 79
-4041.3979 5398.2324 1815.6855 -0.242 -0.967 0.075 169 125 91
-3732.8704 5092.4575 1630.8468 0.580 -0.735 -0.351 169 125 90
-3844.4429 5419.8291 1628.7100 0.336 -0.366 0.868 156 120 93
-3823.8098 5448.5078 1600.7172 -0.583 -0.770 -0.260 98 60 34
-3816.6187 5452.7607 1592.7883 -0.227 -0.926 -0.301 115 75 50
-3820.0671 5472.7124 1589.5935 -0.240 -0.920 -0.309 121 81 56
-3769.5378 5518.2134 1528.9099 -0.403 -0.874 -0.272 120 70 38
-2947.2559 5609.9678 747.7863 0.672 -0.727 0.143 51 37 27
-2541.3193 5522.4521 404.4269 0.957 -0.289 0.028 157 96 76
-2538.8840 5538.1094 397.2181 0.916 -0.370 0.157 157 96 76
-2517.5225 5553.7383 372.7113 0.058 -0.809 0.585 152 91 71
-2485.7085 5611.1147 325.3632 0.360 -0.929 0.082 147 92 57
-2476.7866 5612.4326 316.7854 0.173 -0.985 0.031 144 89 54
-2467.8582 5613.7319 308.2074 0.173 -0.985 0.031 143 88 52
-2459.1331 5615.5063 299.6641 0.053 -0.878 0.475 144 89 55
-2408.7351 5518.7764 284.3558 -0.061 -0.895 0.443 143 88 56
-2389.6331 5495.5420 274.2808 -0.086 -0.892 0.445 140 87 64
-2382.1138 5499.7061 266.0800 0.136 -0.840 0.525 139 85 65
-2380.4773 5517.9600 258.7756 0.296 -0.803 0.517 139 85 66
-2378.6765 5535.9492 251.4049 0.276 -0.813 0.513 138 86 67
-2368.5234 5533.9336 242.7619 0.276 -0.813 0.513 135 83 64
-2360.2126 5794.6216 152.2163 0.793 -0.245 0.557 79 52 40
-2353.8298 5802.9648 143.7248 0.816 -0.322 0.480 39 17 5
-2383.4280 5903.1709 138.9070 0.802 -0.358 0.478 36 18 6
-2321.8276 5770.5293 124.7811 0.824 -0.328 0.461 30 13 3
-2221.3872 5608.8896 84.3650 -0.012 -0.738 -0.675 37 15 4
-1990.7670 5164.6128 14.8364 -0.621 -0.770 0.146 191 159 148
-1925.8235 5080.7134 -17.8555 0.809 -0.495 -0.317 194 156 146
-1909.4257 5081.8726 -33.2190 0.379 -0.900 -0.214 242 204 196
-1899.8513 5078.6299 -40.9426 0.328 -0.925 -0.191 240 201 193
-1892.4136 5081.2881 -48.5896 0.316 -0.928 -0.196 233 194 186
-1885.4470 5085.2715 -56.2278 0.316 -0.928 -0.196 229 189 182
-1872.2164 5095.2871 -71.5130 0.572 -0.726 -0.382 206 171 170
-1869.0134 5110.0054 -79.1251 0.544 -0.724 -0.423 185 153 153
-1861.0646 5111.3423 -86.8193 0.485 -0.763 -0.428 247 222 219
-1854.3790 5140.4609 -102.1976 0.458 -0.773 -0.439 216 201 193
-1831.3340 5351.1016 -190.2929 0.359 -0.914 0.190 252 236 237
-1820.5889 5398.4712 -215.1909 0.962 -0.262 -0.074 252 236 237
-1807.7517 5386.0029 -222.9624 0.839 -0.363 -0.405 251 235 236
-1798.6079 5384.8384 -230.9534 0.756 -0.291 -0.587 251 235 236
-1784.3456 5535.5088 -291.9359 0.755 -0.518 -0.402 244 229 232
-1781.5336 5555.3472 -300.8194 0.806 -0.537 -0.250 244 229 232
-1701.6763 5619.3467 -394.2078 0.881 -0.460 -0.109 228 180 177
-1700.5439 5646.4775 -403.8757 0.881 -0.465 -0.085 231 180 174
-1602.2689 5618.0884 -484.7097 -0.697 -0.698 -0.164 245 184 179
-1020.5645 6038.7690 -1150.4969 0.318 -0.780 -0.539 233 143 126
-412.2693 2317.6453 -522.7571 -0.430 -0.710 0.557 235 142 126
-664.3450 4529.8203 -996.1202 0.165 -0.320 0.933 252 55 84
-647.3641 4456.3853 -988.2827 0.208 -0.407 0.890 248 36 75
-205.5653 3635.4111 -1131.0637 -0.544 -0.823 0.164 255 83 100
-200.3006 3638.0500 -1136.7177 -0.633 -0.771 -0.064 254 69 90
-184.2105 3410.3750 -1078.9893 -0.192 -0.978 -0.084 253 55 80
-110.4202 3483.9307 -1169.8701 -0.368 -0.573 0.732 251 63 70
-3490.7197 4652.8428 1534.2040 0.880 -0.440 -0.180 174 136 97
-3487.8306 4673.1562 1525.0443 0.880 -0.441 -0.176 174 136 97
-3816.6248 5293.2251 1626.5247 0.591 -0.646 -0.482 152 111 77
-3812.6233 5301.6265 1620.1715 0.591 -0.646 -0.482 147 107 73
-3851.0713 5473.1572 1600.2581 0.711 -0.250 0.657 119 79 47
-3819.8198 5471.8911 1572.1039 0.173 -0.868 -0.465 134 97 69
-3818.7700 5500.3101 1562.0236 0.178 -0.867 -0.465 123 87 56
-3812.2788 5505.7539 1554.3442 0.178 -0.867 -0.465 149 113 82
-3805.7788 5511.2041 1546.6548 0.178 -0.867 -0.465 152 115 85
-3799.2354 5516.6089 1538.9401 0.169 -0.862 -0.477 131 92 61
-3788.1543 5515.2358 1529.2538 -0.511 -0.860 -0.020 116 76 43
-3793.6780 5538.7881 1526.7432 -0.402 -0.877 -0.264 117 76 41
-3780.9385 5534.9502 1516.3322 -0.404 -0.873 -0.274 118 76 42
-3769.2495 5532.6689 1506.3818 -0.404 -0.873 -0.274 121 80 45
-3780.1890 5595.7417 1496.1368 0.704 -0.669 0.239 183 141 107
-3639.6790 5648.5308 1350.7831 0.118 -0.196 0.973 184 143 104
-3574.3530 5592.8213 1308.9613 0.722 -0.466 -0.511 167 129 85
-3571.0344 5703.6211 1270.3685 -0.237 -0.931 -0.277 101 66 45
-3363.5491 5628.2666 1104.9324 0.090 -0.790 -0.607 178 135 114
-2992.3938 5659.7212 755.6396 0.674 -0.709 0.207 47 36 27
-2406.3345 5064.7891 410.9782 -0.521 -0.800 0.297 164 104 79
-2497.4556 5342.5947 405.0951 -0.112 -0.844 0.525 159 99 74
-2545.0454 5530.9443 388.1388 0.913 -0.372 0.167 157 96 69
-2517.0349 5531.4209 362.3871 0.043 -0.794 0.607 150 89 62
-2500.4495 5536.4482 345.6161 0.048 -0.810 0.585 150 89 61
-2491.6746 5537.8662 337.1417 0.129 -0.970 0.204 144 92 58
-2499.3948 5577.2368 331.5617 0.352 -0.935 0.037 142 93 57
-2494.1462 5586.9404 323.6508 0.337 -0.941 0.045 142 93 58
-2493.4771 5607.3228 316.4977 0.360 -0.929 0.082 141 94 58
-2485.4177 5610.6484 308.0652 0.173 -0.985 0.031 141 94 58
-2482.4268 5625.8281 300.4599 0.074 -0.889 0.452 142 95 59
-2416.3875 5537.0996 268.5831 0.703 -0.711 -0.015 144 87 58
-2417.5637 5584.4102 254.4743 -0.191 -0.838 0.512 150 90 64
-2395.0989 5553.1865 243.9646 -0.196 -0.850 0.489 154 94 68
-2388.6245 5560.1001 235.8289 -0.192 -0.859 0.475 145 85 59
-2405.7695 5836.2744 162.8628 0.870 -0.348 0.348 130 73 48
-2333.6108 5679.6450 147.1856 0.814 -0.352 0.462 126 73 51
-2230.4348 5608.5684 75.7044 -0.011 -0.749 -0.663 43 16 6
-2245.8296 5673.0029 69.0943 0.853 -0.212 0.476 59 22 5
-2234.7998 5668.8198 60.3568 0.839 -0.204 0.504 65 26 9
-2226.3181 5671.2822 51.8150 0.809 -0.174 0.562 116 75 58
-2063.8730 5290.6040 25.5311 -0.419 -0.768 -0.484 210 166 151
-1900.2701 5080.2832 -56.4853 0.316 -0.928 -0.196 236 191 179
-1876.8136 5108.7783 -87.0672 0.544 -0.724 -0.423 178 144 141
-1868.8727 5110.1465 -94.7635 0.572 -0.726 -0.382 247 220 216
-1863.0095 5141.5156 -110.1893 0.445 -0.780 -0.440 250 221 216
-1817.4794 5613.5151 -303.2819 0.810 -0.443 -0.384 248 232 233
-1796.9117 5605.8242 -319.6103 0.937 -0.133 0.322 236 222 222
-1791.4739 5617.6045 -328.3607 0.938 -0.135 0.320 231 217 217
-1690.6851 5906.0146 -513.0331 -0.462 -0.830 -0.312 252 191 186
-182.6475 3385.5564 -1082.3131 -0.055 -0.965 0.255 248 34 64
-192.1576 3963.0845 -1258.9727 -0.718 -0.595 0.361 244 10 40
-125.7981 3180.9827 -1068.6122 -0.639 -0.769 -0.014 218 13 32
-86.5463 3104.1870 -1079.8376 -0.424 -0.864 -0.273 246 121 104
-3972.5854 5442.9263 1703.4740 0.569 -0.711 -0.413 163 120 85
-3848.0889 5295.3218 1637.5438 0.659 -0.633 -0.406 160 117 82
-3927.5710 5436.7256 1664.3671 0.739 -0.670 -0.068 150 110 75
-3839.3650 5325.2251 1619.8964 0.631 -0.623 -0.463 145 105 70
-3860.6519 5471.8667 1591.8715 0.662 -0.697 0.275 140 100 65
-3847.4600 5512.1772 1566.7739 0.761 -0.541 0.359 134 98 66
-3840.4077 5516.8169 1558.8309 0.761 -0.541 0.359 114 78 46
-3827.4443 5512.7124 1548.3195 0.748 -0.546 0.378 149 113 81
-3820.2019 5517.0771 1540.2919 0.748 -0.546 0.378 161 124 95
-3779.9775 5548.4375 1493.4012 -0.356 -0.808 -0.470 167 127 92
-3784.9377 5586.9316 1485.4714 0.704 -0.669 0.239 173 135 99
-3559.6892 5617.9785 1269.6904 0.795 -0.402 -0.455 123 86 44
-3584.9939 5709.2988 1263.2426 -0.237 -0.931 -0.277 94 59 39
-2934.9424 4845.0869 949.2592 0.916 -0.262 -0.305 187 146 124
-2962.6785 5582.8018 735.7958 0.649 -0.741 0.173 46 37 28
-2782.6885 5631.4365 555.6588 0.946 -0.304 0.117 24 13 3
-2517.2661 5553.4917 338.4651 0.315 -0.949 0.021 159 99 69
-2508.9614 5556.0610 330.0482 0.315 -0.949 0.021 153 100 66
-2504.7285 5567.9712 322.3269 0.341 -0.939 0.037 151 100 65
-2502.1091 5583.6719 314.8523 0.337 -0.941 0.045 151 101 66
-2500.6047 5602.0542 307.5277 0.342 -0.936 0.078 150 101 66
-2492.6025 5605.4985 299.1041 0.304 -0.952 0.040 150 101 66
-2473.3589 5604.8579 281.7353 0.043 -0.790 0.612 152 100 66
-2423.5427 5532.1611 259.7673 0.727 -0.686 0.003 163 103 74
-2411.1892 5637.3364 214.4393 0.847 -0.063 0.528 145 82 54
-2380.7100 5586.5151 203.0516 -0.205 -0.847 0.491 144 82 54
-2351.3923 5560.8101 184.5951 0.598 -0.608 -0.522 141 81 55
-2408.6213 5819.4209 153.1536 0.870 -0.348 0.348 135 78 51
-1944.0217 5039.9673 -18.8827 0.737 -0.634 -0.234 221 173 161
-1932.6399 5123.4692 -56.3077 0.860 -0.478 0.181 227 181 168
-1871.2228 5141.3462 -118.1898 0.445 -0.780 -0.440 253 221 216
-1791.2122 5530.4917 -317.2329 0.935 -0.132 0.330 244 228 229
-1797.8265 5580.4976 -327.3783 0.937 -0.133 0.322 237 221 222
-1792.4597 5592.3442 -336.1149 0.938 -0.135 0.320 232 216 217
-1781.9340 5587.5674 -344.1823 0.940 -0.135 0.314 241 225 226
-1732.6934 5634.3979 -404.3154 0.698 -0.487 -0.526 255 238 240
-1728.3734 5650.4790 -413.4662 0.698 -0.487 -0.526 227 194 189
-1080.0927 6014.6030 -1123.4408 0.260 -0.430 -0.865 244 160 151
-1062.3868 6129.6069 -1176.8389 0.280 -0.467 -0.838 239 152 143
-946.5995 5752.1221 -1160.4028 -0.092 -0.969 -0.228 228 122 106
-907.0662 5781.0166 -1205.8638 0.599 -0.782 0.170 232 126 109
-534.9854 4611.7773 -1167.2253 0.648 -0.762 0.016 253 167 146
-197.0280 3951.3733 -1262.1288 -0.762 -0.575 0.298 245 9 40
-128.8626 3287.1497 -1109.3806 -0.526 -0.815 -0.245 224 27 40
-3679.9624 4751.3394 1644.5916 0.855 -0.511 0.091 173 133 98
-3590.3149 4655.4106 1594.0773 0.637 -0.771 -0.018 173 133 98
-3396.8638 4499.1602 1468.5029 0.765 -0.620 -0.176 179 137 99
-3828.4500 5253.0806 1616.3350 0.776 -0.549 -0.311 143 100 65
-3840.1042 5500.8750 1546.0787 0.415 -0.864 0.284 133 97 65
-3827.9944 5498.0146 1535.9586 0.676 -0.731 0.092 147 111 79
-3817.2727 5497.1860 1526.4423 0.677 -0.723 0.140 129 92 63
-3797.7810 5559.4434 1488.3259 0.264 -0.898 0.353 166 128 91
-3792.6106 5567.0806 1481.1129 0.292 -0.898 0.328 164 126 90
-3651.1963 5506.0181 1371.9634 0.454 -0.682 -0.573 119 75 38
-3640.8940 5521.3389 1357.5577 0.222 -0.763 -0.607 184 141 106
-3635.5232 5528.7046 1350.2506 0.222 -0.763 -0.607 193 150 115
-3514.3621 5495.5449 1250.4791 0.747 -0.423 -0.512 175 137 98
-3609.0208 5731.3618 1259.9001 -0.236 -0.919 -0.316 135 100 80
-3475.0510 5873.8281 1091.1024 -0.141 -0.862 -0.486 169 124 101
-2848.2351 5768.1138 553.4515 0.067 -0.709 -0.702 39 20 4
-2850.9756 5794.6260 547.2979 0.092 -0.671 -0.736 88 53 38
-2824.0566 5779.9097 527.5303 0.061 -0.762 -0.644 135 93 77
-2535.8677 5553.0254 338.5375 0.057 -0.837 0.544 110 49 20
-2523.1877 5545.6895 329.3582 0.185 -0.970 0.157 110 50 20
-2513.9312 5546.0728 320.7834 0.185 -0.970 0.157 105 50 17
-2518.4116 5577.8179 314.5099 0.337 -0.941 0.045 104 49 16
-2510.0725 5580.4038 306.0537 0.337 -0.941 0.045 104 50 16
-2508.4478 5598.4468 298.6803 0.342 -0.936 0.078 104 49 16
-2500.7278 5602.5356 290.2988 0.304 -0.952 0.040 111 56 23
-2492.8567 5606.2915 281.8878 0.046 -0.790 0.611 113 59 25
-2479.5774 5597.4741 272.6447 0.043 -0.790 0.612 113 58 24
-2430.9182 5549.7578 243.8058 0.728 -0.684 -0.040 139 75 47
-2428.0125 5565.0522 236.1603 0.725 -0.683 -0.083 146 82 54
-2423.1145 5575.7251 228.2052 0.727 -0.683 -0.075 154 89 61
-2411.7100 5616.0679 204.6249 0.817 -0.073 0.572 147 82 54
-2405.2830 5623.3711 196.3739 0.817 -0.073 0.572 145 83 54
-2364.1328 5546.6685 183.8520 0.591 -0.612 -0.527 147 87 59
-2359.4731 5558.0210 175.8925 0.591 -0.612 -0.527 148 88 60
-2354.7976 5569.4121 167.9060 0.591 -0.612 -0.527 148 88 60
-2260.5696 5638.8379 59.2293 0.792 -0.163 0.588 50 14 1
-2247.9207 5630.4355 50.4263 0.797 -0.156 0.583 87 46 27
-2018.3591 5170.8022 -9.0685 -0.603 -0.790 0.111 212 167 148
-1913.0720 5070.2314 -72.3431 0.311 -0.931 -0.191 243 197 184
-1877.8632 5136.6963 -126.1800 0.414 -0.849 -0.329 253 221 216
-1815.0829 5356.9639 -255.3942 0.772 -0.319 -0.549 252 236 237
-1772.6447 5529.2915 -350.3896 0.940 -0.124 0.316 237 217 219
-1748.9624 5510.4585 -365.8589 0.974 -0.125 0.187 255 241 244
-1722.8079 5602.1367 -419.6619 0.605 -0.510 -0.611 226 194 189
-954.8801 5590.7964 -1116.9296 0.014 -0.962 0.273 243 151 140
-963.6834 5697.8647 -1143.8472 -0.101 -0.966 -0.237 250 146 131
-910.1985 5747.0356 -1208.7208 0.675 -0.636 0.375 232 126 109
-677.8912 4440.6831 -994.3043 0.143 -0.342 0.929 243 59 84
-669.8413 4431.8960 -998.7836 0.143 -0.342 0.929 251 47 83
-590.8738 3921.2427 -904.1592 -0.549 -0.743 -0.383 253 34 80
-575.1812 4917.1167 -1243.5940 0.736 -0.590 -0.332 253 166 146
-457.6785 4017.9402 -1057.3085 -0.028 -0.964 -0.264 250 87 109
-133.3111 3286.5193 -1114.6156 -0.414 -0.815 0.405 224 27 41
-125.6816 3354.3938 -1143.7380 -0.423 -0.832 0.359 240 53 66
-3685.1863 4698.0454 1651.4148 0.399 -0.405 0.822 182 141 109
-3653.7656 4703.9521 1620.8064 0.576 -0.611 -0.542 173 133 98
-3534.0674 4591.2505 1548.7139 -0.390 -0.669 0.633 183 137 103
-3477.7349 4527.1372 1518.4312 -0.388 -0.664 0.640 184 136 103
-3391.4783 4433.6729 1470.5126 0.745 -0.603 0.285 184 136 102
-3378.1052 4426.9565 1460.5242 0.798 -0.589 0.129 183 135 102
-3987.2461 5419.6470 1689.4072 0.908 -0.395 0.138 170 126 91
-3829.7205 5485.1118 1524.1504 0.663 -0.745 0.075 121 85 53
-3815.0632 5478.4497 1512.9725 0.660 -0.740 0.125 99 64 35
-3817.8896 5497.6475 1509.2306 0.675 -0.722 0.152 59 22 0
-3556.5667 5662.0708 1216.7045 -0.400 -0.914 0.069 140 104 82
-3383.6135 5427.0005 1136.3156 0.040 -0.915 0.402 190 154 132
-3124.3000 5028.6621 1030.8944 -0.207 -0.977 0.047 191 153 130
-3469.9807 5846.6455 1076.9500 -0.092 -0.851 -0.517 193 148 125
-3426.8735 5789.8638 1056.3185 0.056 -0.847 -0.528 190 145 122
-3235.4753 5740.4829 897.9705 -0.139 -0.622 -0.771 140 100 75
-2902.4778 5356.5464 720.5888 0.151 -0.880 0.450 62 49 27
-2891.6521 5353.8149 711.6121 0.151 -0.880 0.450 59 50 30
-2917.8938 5458.6597 701.0345 0.210 -0.950 0.233 46 37 28
-2849.8594 5345.5190 676.2174 0.363 -0.749 0.555 40 31 24
-3091.9482 5853.3267 729.8858 0.698 -0.716 0.004 28 20 9
-2847.3557 5766.3047 535.4028 0.009 -0.707 -0.708 88 53 38
-2542.4490 5546.7241 329.5383 0.057 -0.837 0.544 169 108 79
-2531.2424 5542.7368 320.6276 0.185 -0.970 0.157 169 108 79
-2521.9836 5543.1216 312.0544 0.185 -0.970 0.157 169 108 77
-2523.1106 5567.1260 305.1798 0.074 -0.987 0.143 168 107 76
-2519.8389 5581.2534 297.5442 0.134 -0.991 -0.005 169 108 76
-2516.2900 5594.8398 289.8337 0.342 -0.936 0.078 169 108 77
-2508.8545 5599.5728 281.4924 0.304 -0.952 0.040 152 91 60
-2499.2651 5599.3535 272.8167 0.140 -0.868 0.477 146 85 54
-2437.2522 5542.8320 234.8526 0.717 -0.697 -0.008 122 58 30
-2376.9028 5623.6450 153.1928 0.832 -0.065 0.551 153 93 65
-2288.4570 5614.5039 75.5168 0.695 -0.398 0.598 108 71 51
-2259.9519 5613.5464 49.8276 0.790 -0.169 0.590 106 67 48
-2237.8103 5604.7129 32.5371 0.788 -0.160 0.595 153 108 89
-2223.9409 5592.9546 23.7557 0.794 -0.169 0.584 177 132 113
-2192.4692 5535.2031 14.0580 0.805 -0.157 0.573 185 140 121
-2171.9119 5505.5142 5.0785 0.732 -0.184 0.656 210 165 146
-2071.2917 5265.0986 -7.5640 -0.430 -0.875 -0.220 212 167 148
-1938.1611 5047.6206 -57.4160 0.835 -0.546 0.059 232 184 172
-1929.7649 5047.5820 -65.0629 0.799 -0.581 0.153 207 159 147
-1915.7010 5032.1060 -72.7978 0.796 -0.602 0.057 237 189 177
-1920.9337 5069.2251 -80.2445 0.311 -0.931 -0.191 226 178 166
-1808.0211 5155.6152 -211.6917 0.754 -0.343 -0.560 245 226 224
-1826.7516 5340.0439 -255.3219 0.852 -0.334 -0.403 252 236 237
-1791.7212 5476.9980 -332.3668 0.967 -0.163 0.198 246 227 229
-1741.3680 5574.7520 -410.4846 0.602 -0.511 -0.613 255 239 242
-1731.5873 5602.2588 -428.4629 0.605 -0.510 -0.611 226 194 189
-472.7796 2837.6155 -666.6513 0.184 -0.921 0.344 232 126 109
-581.6237 4174.6055 -1007.5197 -0.564 -0.781 -0.268 254 24 73
-577.4001 4344.4263 -1067.2808 -0.534 -0.845 -0.020 253 152 146
-527.5484 4428.9897 -1140.5986 0.322 -0.923 -0.211 254 166 144
-224.4577 3430.8696 -1088.4965 -0.177 -0.972 -0.156 248 91 103
-219.1502 3427.5879 -1092.2578 -0.189 -0.969 -0.158 252 89 102
-214.0224 3427.3406 -1096.8542 -0.189 -0.969 -0.158 255 83 103
-208.8982 3427.0938 -1101.4476 -0.189 -0.969 -0.158 249 61 85
-146.8718 3145.8350 -1065.4362 -0.401 -0.916 0.032 209 2 22
-130.2343 3354.3303 -1149.2545 -0.423 -0.832 0.359 240 53 65
-3662.0874 4702.5942 1613.4933 0.576 -0.611 -0.542 160 120 85
-3653.1326 4702.6113 1605.3231 0.621 -0.618 -0.481 164 126 90
-3613.4795 4661.6865 1582.7571 0.709 -0.701 0.078 171 129 95
-3542.5161 4602.1226 1537.8328 -0.374 -0.622 0.688 175 120 89
-3381.9214 4420.2837 1451.7834 0.796 -0.590 0.136 175 121 90
-3300.6028 4389.1226 1387.9889 0.772 -0.619 0.144 183 126 93
-3318.9587 4425.9438 1392.5005 0.804 -0.572 0.160 183 127 94
-3795.5100 5150.9507 1586.2899 0.956 -0.240 0.168 167 124 89
-3845.0039 5477.2686 1523.0825 0.669 -0.740 0.074 115 79 47
-3838.3933 5482.4712 1515.3284 0.669 -0.740 0.074 109 73 41
-3839.2197 5513.6890 1505.7181 0.755 -0.566 0.331 76 40 10
-3558.8914 5632.1953 1210.7964 -0.651 -0.737 0.184 161 126 104
-3253.5391 5165.5342 1087.3252 -0.053 -0.995 -0.084 188 153 131
-3166.4568 5098.4224 1030.2109 -0.132 -0.988 -0.083 196 158 135
-3430.6257 5778.2148 1045.3785 0.051 -0.840 -0.540 191 146 123
-3306.7180 5580.8608 997.9281 0.130 -0.767 -0.629 191 146 123
-2954.3923 5419.0151 730.4371 0.111 -0.806 0.581 69 50 28
-2920.4697 5390.6694 708.9195 0.399 -0.767 0.503 62 52 33
-2937.4275 5441.0972 707.6390 0.223 -0.946 0.234 46 39 22
-2937.2031 5458.9346 701.5129 0.199 -0.953 0.228 40 32 21
-2918.4060 5441.1860 690.2675 0.171 -0.958 0.231 40 31 22
-2550.0139 5542.6489 320.7146 0.038 -0.988 0.149 179 118 89
-2524.0759 5548.0264 295.2815 0.039 -0.991 0.129 179 112 82
-2526.9236 5575.9702 288.6007 0.126 -0.992 -0.005 179 112 82
-2522.3235 5587.1040 280.7106 0.147 -0.989 0.008 179 112 82
-2513.5967 5588.8486 272.1751 0.145 -0.989 0.014 177 108 80
-2503.1980 5586.7456 263.3925 0.144 -0.866 0.478 177 108 79
-2257.4045 5583.5103 40.3729 0.789 -0.170 0.590 146 100 78
-2241.6750 5567.0913 31.4827 0.788 -0.165 0.593 151 106 85
-2224.5342 5546.8882 22.5623 0.842 -0.206 0.499 151 106 87
-2208.2708 5528.7681 13.7502 0.809 -0.194 0.555 170 125 106
-2180.8918 5481.6294 4.4376 0.780 -0.190 0.597 198 153 134
-2121.8477 5351.5381 -6.2059 -0.096 -0.731 -0.675 210 165 146
-1961.8568 4977.8213 -28.0046 0.780 -0.599 -0.181 210 165 146
-1975.4670 5057.9160 -42.1859 0.735 -0.639 -0.229 211 161 149
-1937.3151 5114.4751 -95.7463 0.773 -0.623 0.120 235 189 177
-1929.3970 5116.0107 -103.4751 0.867 -0.379 0.323 216 179 172
-1856.4333 5077.0605 -157.0664 0.596 -0.791 0.135 255 233 229
-1789.9069 4934.7158 -170.4637 0.121 -0.890 -0.439 248 233 228
-1760.7422 5379.8345 -344.8252 0.957 -0.111 0.269 247 228 230
-1753.7247 5385.3223 -353.0451 0.952 -0.124 0.281 247 228 230
-486.5268 2899.5486 -683.1360 0.569 -0.822 0.002 237 131 114
-575.3776 4178.6538 -1026.7700 -0.485 -0.865 -0.127 255 104 126
-784.3627 6078.1606 -1466.8380 -0.397 -0.728 0.559 251 169 137
-142.1052 3282.1719 -1124.1748 -0.453 -0.794 0.405 231 34 47
-138.1440 3308.0903 -1136.3907 -0.416 -0.791 0.449 240 46 62
-107.2964 3252.3545 -1146.0117 -0.563 -0.779 0.275 246 122 105
-4092.0249 5167.8354 1834.1403 0.707 -0.701 0.094 186 147 116
-3682.1123 4681.1895 1623.5438 0.754 -0.656 0.038 158 118 83
-3666.4375 4684.1294 1608.2773 0.577 -0.619 -0.534 151 111 76
-3618.3152 4655.8052 1573.9114 0.709 -0.701 0.078 172 128 95
-3415.0022 4441.7241 1460.3217 0.056 -0.923 0.382 164 103 74
-3289.5928 5801.4604 890.8841 0.836 -0.179 0.518 170 120 101
-3049.6272 5435.9766 794.5797 0.071 -0.717 0.693 169 119 100
-3035.4993 5427.6348 784.4989 0.071 -0.717 0.693 168 115 97
-3021.4219 5419.3232 774.4545 0.071 -0.717 0.693 165 113 94
-3007.3955 5411.0415 764.4463 0.071 -0.717 0.693 151 102 87
-3008.3042 5484.3643 740.7297 0.268 -0.796 0.543 85 58 41
-3012.2344 5509.9414 735.7487 -0.102 -0.711 0.696 85 64 45
-2951.5483 5449.6938 700.6212 0.134 -0.954 0.267 40 33 16
-2925.5269 5436.4634 681.3401 -0.142 -0.879 0.455 36 27 18
-2535.5803 5531.5693 294.1963 0.046 -0.988 0.150 182 112 84
-2536.0972 5575.4370 279.9825 0.184 -0.983 0.024 183 109 82
-2519.1323 5579.9917 262.9999 0.137 -0.869 0.476 181 106 80
-2508.2861 5576.8564 254.1669 0.137 -0.869 0.476 181 106 79
-2269.8416 5498.1738 63.2421 0.023 -0.824 0.566 141 92 63
-2257.7815 5491.0298 54.6449 0.210 -0.812 0.545 148 99 69
-2266.0146 5558.4229 39.5870 0.859 -0.241 0.452 148 99 70
-2266.9712 5584.4854 31.7342 0.862 -0.201 0.466 148 99 74
-2230.6414 5539.1958 13.7920 0.842 -0.204 0.500 151 106 85
-2165.6211 5418.9258 -5.1923 -0.101 -0.744 -0.661 198 153 132
-2087.0037 5284.0806 -31.6869 -0.318 -0.780 -0.539 210 165 146
-2025.5530 5145.6738 -41.3477 0.280 -0.909 0.309 211 164 147
-1973.7268 5053.7139 -57.7867 0.270 -0.941 0.203 219 171 159
-1971.0265 5068.9365 -65.3430 0.265 -0.917 0.299 232 184 172
-1962.5673 5068.8750 -73.0301 0.265 -0.917 0.299 242 194 182
-1935.1381 5017.8389 -80.9385 0.799 -0.578 0.168 237 189 177
-1951.1226 5083.4780 -88.3465 0.773 -0.626 0.102 236 188 176
-1947.0048 5095.2031 -96.0235 0.772 -0.625 0.121 236 188 176
-1924.0410 5101.7847 -119.1505 0.667 -0.684 0.295 219 183 180
-1913.3634 5095.6514 -126.8266 0.662 -0.688 0.297 219 184 180
-1794.6174 5019.7012 -209.6001 0.505 -0.709 -0.493 245 230 227
-1850.4829 5360.1865 -272.6739 0.936 -0.299 -0.183 252 238 238
-1740.9025 5401.1519 -386.2333 0.966 -0.129 0.224 250 226 229
-1747.1183 5449.5088 -396.7571 -0.513 -0.816 0.267 254 233 236
-235.0303 3449.0422 -1104.8745 -0.158 -0.974 -0.161 253 96 108
-224.6204 3447.3022 -1113.7772 0.393 -0.913 0.107 250 74 94
-131.4080 3416.3306 -1188.3419 -0.454 -0.832 0.319 255 87 92
-3625.8914 4583.7495 1589.9144 0.103 -0.363 0.926 164 123 91
-3686.8833 4675.1899 1614.5927 0.754 -0.656 0.038 158 118 83
-3623.1450 4649.9307 1565.0765 0.709 -0.701 0.078 173 128 95
-3421.1526 4438.1602 1452.6132 0.056 -0.923 0.382 188 122 94
-3392.4290 4410.8696 1435.6674 0.788 -0.599 0.140 180 115 87
-3268.2129 5762.4863 866.3638 0.632 -0.132 0.764 189 133 116
-3044.9329 5427.1875 776.2080 0.109 -0.711 0.695 175 118 101
-3013.5908 5476.0562 731.1732 0.268 -0.796 0.543 94 66 50
-2994.4302 5494.4570 707.5144 -0.190 -0.632 0.751 36 26 8
-2945.8933 5420.7046 688.2084 -0.289 -0.923 0.253 19 11 0
-2930.8501 5410.1924 678.0576 -0.293 -0.921 0.258 29 21 10
-2586.1736 5560.1821 313.5636 0.094 -0.866 0.491 179 118 89
-2574.7451 5555.8779 304.6091 0.076 -0.844 0.531 179 118 89
-2525.2451 5572.4902 253.9265 0.011 -0.988 0.154 184 105 80
-2514.1606 5568.8130 245.0739 0.155 -0.873 0.463 184 104 79
-2482.3071 5517.4771 233.3937 0.045 -0.881 0.470 184 104 79
-2257.0103 5466.4238 45.4643 0.238 -0.852 0.467 154 101 68
-2038.8362 5158.3804 -49.2410 0.387 -0.865 0.320 210 165 147
-1900.6938 5131.4849 -165.9590 0.611 -0.765 -0.204 247 213 209
-1894.3508 5137.4980 -173.7646 0.606 -0.767 -0.210 254 222 221
-1820.0071 4998.2939 -194.4804 0.250 -0.926 -0.284 239 220 219
-1858.4760 5358.5220 -281.0316 0.934 -0.300 -0.191 238 222 223
-554.5394 4071.6721 -1034.0969 -0.115 -0.948 0.297 255 165 146
-334.4781 3293.7080 -971.9161 0.801 -0.557 -0.221 254 60 99
-318.3900 3171.7771 -945.4128 0.802 -0.403 0.441 254 66 101
-228.6672 3435.2971 -1116.0582 0.586 -0.746 0.317 252 74 95
-231.3200 4490.9146 -1469.9282 -0.629 -0.747 0.215 219 0 24
-154.6710 3135.2874 -1082.1833 -0.156 -0.933 0.325 208 2 22
-3691.1370 4531.6250 1652.0011 -0.112 -0.970 -0.214 180 144 113
-3659.7417 4525.0571 1625.6638 0.958 -0.267 -0.106 183 144 115
-3636.1235 4654.8540 1560.0022 0.706 -0.705 0.068 173 128 94
-3598.9099 4617.2871 1538.9180 -0.375 -0.719 0.586 180 126 95
-3427.3008 4434.5967 1444.9069 0.056 -0.923 0.382 199 133 106
-3396.0747 4404.0181 1426.8942 0.788 -0.599 0.140 188 123 95
-2956.5081 5002.8896 823.0696 -0.426 -0.780 -0.458 186 141 118
-3333.6377 5733.3516 917.7234 0.733 -0.060 0.677 183 137 114
-3238.1003 5707.6763 839.5138 0.854 -0.165 0.493 179 121 104
-3057.8477 5433.0952 768.9050 -0.228 -0.890 0.396 176 119 102
-3035.1016 5408.9639 756.4160 -0.242 -0.867 0.435 171 113 97
-3027.2661 5412.1411 748.2039 -0.190 -0.844 0.501 164 113 98
-3012.2944 5473.4888 713.7030 -0.132 -0.715 0.686 131 105 87
-2935.4126 5418.7583 662.3584 0.474 -0.052 0.879 24 16 6
-2476.6277 5160.4722 332.7193 0.827 -0.549 -0.120 189 129 103
-2428.3682 5436.3452 194.9248 0.424 -0.728 0.539 165 98 67
-2272.4226 5459.4653 45.1350 0.224 -0.845 0.486 141 85 50
-2263.4241 5459.8853 36.8028 0.238 -0.852 0.467 153 97 62
-2247.8442 5489.8652 12.4223 0.779 -0.266 0.568 154 98 68
-2152.0110 5407.8657 -46.8905 -0.287 -0.779 -0.558 210 165 145
-1980.1681 5005.1689 -66.2501 0.755 -0.646 -0.113 210 162 149
-1977.5383 5042.3496 -81.2952 0.172 -0.908 0.382 232 184 172
-1961.9283 5023.2476 -89.0015 0.727 -0.681 -0.087 242 194 182
-1911.2107 5021.7134 -134.6364 0.543 -0.639 -0.545 232 194 191
-1732.9965 5321.8535 -398.9573 0.979 -0.141 0.148 243 219 223
-143.0809 3640.3857 -1273.7289 -0.525 -0.848 0.074 254 98 101
-124.0556 3211.1052 -1144.9669 -0.555 -0.698 0.452 251 106 102
-3712.4946 4547.0493 1651.2065 -0.117 -0.976 -0.183 189 157 133
-3664.8979 4519.9712 1617.2051 0.943 -0.330 0.034 195 153 135
-3658.6963 4523.2031 1610.4559 0.945 -0.326 0.035 191 148 129
-3473.8550 4318.8184 1512.4518 0.912 -0.320 -0.258 170 130 96
-3483.6689 4486.6938 1463.7878 -0.313 -0.661 0.682 181 131 96
-3397.0801 4404.9087 1413.0892 0.278 -0.726 0.629 180 131 96
-3226.3684 5508.6206 879.1919 0.815 -0.098 0.571 188 141 121
-3042.8628 5388.0264 753.6581 -0.261 -0.872 0.414 172 125 102
-3001.9841 5454.0454 693.8297 0.547 -0.062 0.835 120 84 62
-2462.1799 4999.4438 358.8137 0.287 -0.761 0.583 200 143 118
-2687.1279 5740.7271 309.1122 0.312 -0.509 0.802 184 123 92
-2314.7766 5093.9077 192.3401 -0.576 -0.693 0.433 187 111 81
-2229.5981 5444.2085 -5.3034 -0.026 -0.970 -0.244 141 91 61
-2224.7659 5455.0708 -13.4251 -0.218 -0.969 -0.119 140 93 64
-2062.8562 5176.7910 -65.2223 0.039 -0.757 0.652 208 161 137
-1987.6881 5003.3516 -74.0913 0.768 -0.634 -0.091 218 171 157
-1996.7737 5071.2065 -89.1053 0.750 -0.643 -0.153 229 183 170
-1899.4636 5105.4468 -189.3578 0.422 -0.614 -0.667 227 188 184
-1877.6619 5163.5576 -229.1223 0.213 -0.839 -0.500 255 242 238
-1816.7435 5706.8276 -470.8991 0.737 -0.657 -0.159 255 218 225
-807.5059 5193.6401 -1212.7806 0.020 -0.875 0.483 254 17 73
-488.7990 3888.0500 -1054.7692 0.681 -0.682 0.268 251 112 122
-258.6018 3592.1799 -1162.6415 -0.087 -0.995 0.051 252 90 101
-239.7008 3546.0188 -1163.9969 -0.204 -0.967 -0.155 244 45 68
-161.8726 3722.7549 -1295.4136 -0.601 -0.641 0.478 255 81 86
-3471.6016 4304.7231 1501.0497 0.917 -0.313 -0.247 169 129 95
-3515.7402 4506.0024 1471.5638 -0.318 -0.651 0.689 174 132 94
-3446.2961 4436.4102 1432.5071 0.763 -0.616 0.193 176 132 95
-3409.1628 4398.1226 1411.9943 0.770 -0.615 0.169 178 133 97
-3329.4946 4313.7017 1368.7720 0.379 -0.600 0.705 178 134 97
-3301.9055 4354.6006 1329.5502 0.693 -0.531 0.488 166 122 85
-3498.4382 5326.8057 1171.9843 0.854 -0.300 -0.425 204 164 139
-3321.3254 5657.6069 896.5933 0.618 -0.034 0.786 188 141 121
-3318.1641 5687.6011 883.3470 0.494 -0.046 0.868 186 139 119
-3046.0981 5376.3701 743.6746 -0.234 -0.886 0.400 180 134 110
-2959.7068 5339.4883 677.9011 0.505 -0.744 0.438 143 102 80
-2758.5723 5788.9785 339.6292 0.370 -0.718 0.590 194 133 104
-2241.6685 5451.9370 -13.6706 -0.030 -0.972 -0.233 107 57 25
-2081.6353 5203.3462 -73.1694 0.027 -0.753 0.658 208 161 137
-2020.5833 5089.5063 -89.2962 0.776 -0.618 -0.130 218 172 159
-1999.4838 5101.1196 -112.4914 0.793 -0.522 -0.315 234 188 175
-1922.6584 5031.0264 -158.0845 0.505 -0.847 0.165 222 178 175
-1901.1299 5110.5928 -205.1694 0.437 -0.621 -0.651 248 214 212
-663.4466 4138.6172 -994.0703 -0.079 -0.973 -0.217 254 19 74
-656.6375 4406.7734 -1092.9940 0.293 -0.555 0.779 251 30 74
-640.1063 4336.5151 -1083.7239 0.074 -0.587 0.806 238 32 69
-134.1315 3114.7571 -1121.1340 -0.358 -0.893 -0.273 248 111 101
-4090.2720 4927.7012 1831.7080 -0.739 -0.673 0.011 183 149 123
-3344.4998 4344.5293 1357.5135 0.511 -0.627 0.588 173 131 93
-3310.0046 4342.6562 1326.8301 0.493 -0.633 0.597 172 130 92
-3298.7578 4338.5894 1318.0309 0.499 -0.627 0.599 173 129 92
-3504.9468 5321.3691 1162.7473 0.854 -0.300 -0.425 204 164 139
-3301.9983 5605.9507 879.1782 0.618 -0.034 0.786 188 141 121
-3269.2891 5601.1748 851.1288 0.525 -0.047 0.850 151 104 84
-3015.2397 5354.5781 706.3041 -0.239 -0.849 0.472 166 124 100
-2361.3872 5409.3887 93.2152 0.491 -0.783 0.381 179 109 75
-2334.0200 5387.8032 75.8784 0.505 -0.788 0.353 177 107 73
-2325.6182 5389.5015 67.6539 0.505 -0.788 0.353 176 106 72
-2259.6082 5451.3589 -13.8751 -0.120 -0.982 -0.147 158 103 68
-2250.5066 5451.4941 -22.1905 -0.120 -0.982 -0.147 161 111 79
-2241.9312 5452.9385 -30.4841 -0.121 -0.979 -0.162 174 127 97
-2236.7454 5462.9287 -38.6777 -0.128 -0.976 -0.178 190 143 115
-2187.8201 5385.0820 -55.9862 -0.194 -0.941 0.279 208 161 131
-2106.3071 5244.8301 -81.1441 0.065 -0.701 0.710 208 161 137
-2050.9414 5124.3579 -89.4441 -0.097 -0.969 0.228 208 161 147
-1948.7534 5056.5972 -158.6542 0.631 -0.759 0.161 228 185 179
-1930.7000 5030.5864 -165.9875 0.510 -0.838 0.191 232 188 185
-1907.5541 5200.8682 -246.3733 0.638 -0.692 -0.339 248 222 218
-1882.8887 5228.7041 -278.4837 0.524 -0.805 -0.278 254 228 231
-1877.2068 5312.9473 -313.0121 0.820 -0.389 0.420 254 230 233
-1855.3911 5274.4526 -319.4111 0.379 -0.519 0.766 255 234 237
-1838.9025 5251.3271 -326.3286 0.372 -0.517 0.771 244 222 225
-1829.8274 5249.9893 -334.1064 0.380 -0.526 0.760 221 199 202
-1801.1454 5215.6431 -348.1891 0.409 -0.545 0.731 244 232 232
-1761.3898 5499.9287 -483.4052 0.964 -0.259 -0.056 253 208 212
-1764.1108 5596.6738 -514.6582 0.892 -0.452 0.024 250 191 195
-768.8784 4695.6860 -1104.6815 0.829 -0.346 0.439 246 47 78
-581.0864 4508.1582 -1209.9070 0.732 -0.545 0.409 255 143 140
-429.4211 4340.6641 -1289.2971 0.968 -0.036 -0.247 255 94 119
-180.1711 3113.0034 -1087.7676 -0.358 -0.926 -0.117 207 0 20
-171.6245 3129.3259 -1101.2216 -0.390 -0.915 -0.104 212 12 28
-133.1384 3231.9368 -1171.9534 -0.097 -0.887 0.451 236 129 105
-4359.5762 5261.7207 1942.5701 -0.736 -0.672 0.080 190 158 135
-3729.0876 4727.9121 1557.7222 0.712 -0.575 -0.402 168 124 85
-3714.8135 4721.0698 1547.1669 0.568 -0.823 0.016 172 129 90
-3675.6294 4681.4009 1525.5306 0.474 -0.880 0.031 174 132 94
-3509.8723 4748.2539 1351.5521 0.191 -0.292 0.937 190 145 112
-3472.8892 4708.9702 1331.7786 0.191 -0.292 0.937 194 155 120
-3382.6748 4606.8843 1285.7440 0.187 -0.290 0.939 193 164 125
-3629.1631 5088.3262 1340.3633 0.403 -0.878 0.257 192 161 133
-3613.7737 5079.7842 1329.3931 0.391 -0.880 0.268 192 161 133
-3592.7246 5062.9619 1316.1937 0.296 -0.905 0.306 197 163 136
-3587.8340 5069.5894 1309.4249 0.310 -0.901 0.303 197 163 136
-3270.9431 5551.4434 852.4151 0.618 -0.034 0.786 188 141 121
-3244.1226 5539.1401 832.3879 0.617 -0.034 0.786 147 100 80
-3191.1545 5497.7192 798.8530 0.527 -0.044 0.849 186 141 118
-3183.2603 5501.0938 790.5001 0.794 0.009 0.608 201 157 132
-2710.8103 5728.4141 281.6957 0.103 -0.303 0.947 201 138 107
-2695.7810 5717.0298 272.0509 0.566 -0.297 0.769 202 137 107
-2683.2878 5711.1089 262.7888 0.563 -0.299 0.771 204 136 106
-2306.9197 5345.0063 49.7265 0.741 -0.662 0.113 176 106 72
-2300.3652 5350.9736 41.6793 0.741 -0.662 0.113 176 107 72
-2111.5024 5236.0034 -89.3898 0.065 -0.701 0.710 208 161 135
-2074.1165 5162.3105 -97.4385 0.028 -0.904 0.428 203 157 142
-1930.4386 5053.0239 -189.4818 0.367 -0.880 -0.302 223 179 176
-1880.4838 5297.6440 -320.7872 0.820 -0.389 0.420 247 221 224
-1859.0370 5260.3564 -327.1567 0.379 -0.519 0.766 243 217 220
-1842.5364 5237.2578 -334.0212 0.372 -0.517 0.771 219 194 197
-1832.2754 5232.3750 -341.6212 0.357 -0.562 0.746 188 164 167
-251.0353 3576.7622 -1195.4760 0.303 -0.950 -0.072 246 31 60
-184.7477 3118.4231 -1094.6111 -0.372 -0.920 -0.126 207 0 20
-176.6860 3144.7715 -1111.1884 -0.466 -0.834 -0.295 212 12 28
-173.9958 3187.5566 -1128.6641 -0.299 -0.922 -0.245 221 28 39
-175.0111 3314.1892 -1172.2372 -0.622 -0.782 -0.050 231 41 49
-3535.8186 4331.8804 1507.0869 0.496 -0.838 0.228 172 129 108
-3694.8855 4659.1714 1535.5059 0.059 -0.718 0.693 154 109 70
-3681.7598 4653.7148 1525.5288 0.025 -0.818 0.575 154 109 70
-3699.2727 4688.3491 1529.1534 0.848 -0.526 0.069 162 118 79
-3316.9919 4454.6714 1265.0511 0.319 -0.875 -0.365 195 128 101
-3471.0559 4681.1963 1324.6166 0.188 -0.292 0.938 187 121 95
-3452.7583 4667.9736 1312.6974 0.179 -0.292 0.940 189 131 102
-3421.2219 4636.1235 1295.3628 0.163 -0.300 0.940 203 154 122
-3840.7778 5321.9287 1433.1670 -0.278 -0.919 -0.281 197 163 136
-3818.0300 5332.1401 1408.9108 -0.274 -0.959 0.077 194 164 136
-3778.9331 5304.3945 1383.2627 -0.295 -0.950 0.105 195 164 136
-3209.0835 5409.2954 829.0660 0.121 -0.989 0.083 198 151 131
-3217.3325 5474.6230 813.4150 0.750 -0.062 0.659 159 112 92
-2788.4292 5225.8921 512.3416 0.567 -0.766 -0.302 193 155 144
-2785.5400 5238.0737 505.4059 0.530 -0.776 -0.342 194 156 145
-2663.4314 5667.6826 242.4681 0.553 -0.291 0.781 202 130 97
-2264.3992 5351.6748 -7.6763 0.881 -0.237 0.410 169 110 76
-2191.8108 5327.7314 -65.0591 0.458 -0.631 0.627 207 160 130
-1995.8235 5115.2329 -167.6305 0.492 -0.769 0.408 234 190 184
-1898.3898 5224.8408 -294.8532 0.554 -0.801 -0.227 252 228 229
-1912.7889 5290.7456 -305.1281 0.854 -0.219 -0.472 252 227 230
-1843.3942 5240.4141 -350.2680 0.346 -0.577 0.740 239 212 214
-1826.7479 5216.6694 -356.9627 0.385 -0.546 0.744 255 240 241
-1823.6904 5233.0601 -365.5415 0.347 -0.690 0.635 255 242 242
-1111.0673 6011.7798 -1287.9119 0.730 -0.538 -0.422 251 156 149
-1067.9498 5976.5298 -1314.5504 0.875 -0.414 -0.251 240 132 120
-671.8336 4380.2031 -1108.6299 -0.112 -0.980 -0.163 245 22 67
-184.6849 3124.3137 -1105.8711 -0.550 -0.828 -0.108 212 7 27
-3532.9431 4349.1211 1483.9954 0.829 -0.465 -0.311 158 119 77
-3657.3982 4609.8066 1503.8054 -0.023 -0.826 0.563 157 112 73
-3648.9631 4621.9565 1491.8201 0.582 -0.651 0.488 173 129 92
-3181.9285 4232.9468 1207.1642 0.160 -0.987 0.007 195 128 99
-3275.4480 4373.4316 1241.8246 0.290 -0.923 -0.253 201 122 96
-3287.1736 4459.6636 1221.6791 0.523 -0.798 -0.299 212 159 128
-3085.2354 5145.8647 793.6427 -0.264 -0.632 -0.729 202 157 134
-3251.0549 5448.0376 836.1536 0.657 -0.031 0.753 198 153 130
-3201.0117 5428.7759 797.6499 0.753 -0.062 0.655 159 112 92
-2806.3721 5260.5068 499.8537 0.595 -0.731 -0.333 198 154 145
-2667.4771 5613.3159 247.9794 0.140 -0.246 0.959 206 143 112
-2526.1768 5387.1128 200.5870 0.241 -0.509 0.826 207 132 100
-2059.7493 4603.8560 57.1976 0.685 -0.667 0.294 188 116 83
-2052.7854 4661.4272 30.3343 0.136 -0.843 0.520 184 114 80
-2046.9535 4704.2271 9.7698 0.160 -0.767 0.621 183 114 80
-2047.1902 4723.9150 2.9573 0.558 -0.624 0.547 176 112 80
-2234.9280 5301.8457 -33.0808 0.333 -0.341 0.879 174 115 81
-2155.5969 5259.2983 -89.8312 0.354 -0.410 0.841 206 159 129
-1982.2070 5147.8398 -207.2773 0.037 -0.887 0.459 233 189 186
-1938.5304 5192.8179 -262.9365 0.672 -0.729 -0.131 213 184 180
-1936.4812 5211.0889 -271.3159 0.697 -0.710 -0.104 232 203 199
-1914.6357 5246.9893 -303.9390 0.686 -0.717 -0.121 248 223 225
-1922.5872 5294.3501 -313.6328 0.862 -0.225 -0.454 249 223 226
-1917.9604 5306.1299 -322.0327 0.873 -0.216 -0.438 251 222 226
-1878.6976 5243.2754 -335.2017 0.444 -0.644 0.623 254 226 230
-1856.7722 5254.9717 -359.2581 0.333 -0.687 0.645 245 219 220
-1847.2347 5252.3525 -366.9717 0.333 -0.687 0.645 253 236 237
-1821.1064 5226.0332 -381.2705 0.720 -0.586 -0.373 252 238 238
-1808.0667 5290.4766 -416.0964 0.938 -0.337 0.076 254 240 240
-1739.1367 5374.1128 -508.4529 0.500 -0.765 0.405 255 202 206
-1711.1145 5312.1265 -511.7389 0.437 -0.898 0.057 252 196 199
-1041.0249 5670.0122 -1247.1069 0.986 -0.013 0.164 246 140 127
-983.3174 5638.5747 -1288.2147 0.394 -0.773 -0.496 237 129 115
-972.6101 5626.3257 -1293.5521 0.277 -0.835 -0.475 229 121 101
-497.8909 3784.3057 -1066.5636 -0.728 -0.643 0.240 251 75 101
-188.0539 3395.6157 -1208.7883 -0.018 -0.960 -0.280 236 46 53
-153.0663 3159.9319 -1156.3939 -0.491 -0.856 -0.163 248 112 101
-149.8216 3196.9827 -1172.5604 -0.556 -0.692 0.461 240 124 106
-3684.1362 4620.9644 1508.8457 0.066 -0.761 0.645 163 119 80
-3658.8647 4599.6777 1493.6003 0.088 -0.817 0.570 164 120 81
-3610.5281 4548.2271 1468.3026 -0.195 -0.821 0.537 168 124 85
-3226.8875 5389.3794 818.0678 0.662 -0.027 0.749 198 153 130
-3210.1560 5393.8848 801.2844 0.666 -0.038 0.745 176 129 109
-3212.4219 5414.6045 795.8849 0.549 -0.051 0.834 150 103 83
-3197.5374 5405.5674 785.6467 0.536 -0.056 0.842 159 112 92
-2671.5933 5643.3442 223.4858 0.227 -0.551 0.803 213 141 109
-2528.1047 5371.1831 191.3473 0.241 -0.509 0.826 213 140 107
-2071.8181 4668.9761 30.4268 0.257 -0.811 0.525 194 124 90
-2051.8491 5218.5015 -185.3351 0.752 -0.505 -0.424 234 190 184
-1958.5181 5061.9102 -213.5893 0.600 -0.770 -0.219 238 194 191
-1880.6572 5224.6216 -342.6777 0.445 -0.637 0.629 247 218 220
-1856.4285 5179.5283 -348.4146 0.857 -0.369 -0.359 249 220 224
-1842.9055 5240.2417 -382.5083 0.789 -0.462 -0.406 246 230 230
-1750.0621 5381.8569 -517.5861 0.482 -0.788 0.384 252 195 201
-1743.7650 5389.7534 -526.1331 0.479 -0.782 0.398 247 188 192
-1439.5958 5632.4629 -889.0869 0.615 -0.709 0.344 252 192 184
-1458.0453 5744.2046 -912.5607 0.760 -0.574 0.306 248 188 180
-981.2247 5628.9658 -1303.2236 0.277 -0.835 -0.475 229 121 101
-737.5034 4373.8428 -1072.6239 -0.175 -0.723 0.668 254 28 72
-412.8004 3982.2336 -1226.0206 0.340 -0.657 -0.673 255 105 128
-360.6270 3551.0212 -1118.1945 0.575 -0.645 -0.503 253 117 132
-341.8862 3462.5461 -1103.3535 0.612 -0.624 -0.486 251 94 115
-263.5253 3541.1624 -1202.6458 0.597 -0.495 0.632 244 28 57
-195.2573 3666.7900 -1309.7014 -0.630 -0.691 0.353 255 67 76
-4023.7385 4671.7656 1782.7745 0.887 -0.460 -0.050 184 149 119
-4025.2888 4684.6719 1779.5002 0.889 -0.456 -0.030 183 149 120
-4024.5706 4706.0298 1771.1078 0.812 -0.584 0.011 188 156 128
-3988.6174 4892.8252 1670.8354 -0.660 -0.742 -0.121 159 118 81
-3280.7808 4414.6582 1203.0806 0.609 -0.661 -0.438 242 145 129
-3089.5823 5948.7725 473.8245 -0.107 -0.993 -0.041 204 145 135
-2594.4246 5475.4722 196.9270 0.292 -0.588 0.755 216 145 114
-2681.3167 5772.2393 168.0517 0.579 -0.121 0.807 208 135 105
-2394.1665 5316.9727 73.0082 0.887 -0.369 0.279 201 129 98
-2077.5488 4608.9385 42.8999 0.704 -0.650 0.287 197 128 96
-2026.7625 5175.6611 -208.5238 -0.213 -0.789 0.576 233 190 185
-2021.1001 5183.5708 -216.5191 -0.346 -0.867 0.359 233 189 186
-2001.5916 5154.6299 -223.6973 -0.292 -0.884 0.364 228 184 180
-1969.3574 5137.1978 -246.5727 -0.268 -0.886 0.378 231 189 185
-1947.4586 5124.1348 -261.6711 -0.268 -0.886 0.378 224 191 188
-1847.1940 5228.1538 -390.1850 0.791 -0.401 -0.462 243 225 224
-1758.2720 5380.8921 -526.0859 0.479 -0.782 0.398 249 190 193
-1749.8400 5381.9712 -534.1138 0.479 -0.782 0.398 244 183 187
-1445.8787 5623.2383 -896.8642 0.615 -0.709 0.344 253 192 184
-618.0356 4492.2588 -1236.6750 0.171 -0.752 -0.637 255 144 133
-340.7337 3235.1123 -1032.1320 0.641 -0.536 -0.549 255 118 137
-290.4586 3479.8547 -1166.3804 0.486 -0.854 -0.185 253 92 106
-208.7342 3073.7358 -1093.1868 0.316 -0.864 -0.392 220 1 23
-204.9842 3088.8225 -1102.0516 0.040 -0.858 -0.512 210 0 19
-200.1191 3663.3486 -1314.7134 -0.603 -0.618 0.504 254 69 77
-4042.6890 4682.8447 1780.3124 0.893 -0.313 0.324 194 161 141
-4029.1877 4677.7056 1769.9690 0.889 -0.456 -0.030 189 157 136
-3877.0264 4603.5415 1659.3308 -0.212 -0.752 0.624 201 169 148
-3834.1926 4561.9194 1635.7632 0.067 -0.746 0.662 198 163 141
-3818.4126 4564.4458 1620.5571 0.457 -0.735 -0.501 188 153 131
-3667.2224 4463.5771 1520.5522 0.848 -0.505 0.163 163 119 82
-4002.2041 4933.6050 1652.0742 0.765 -0.503 -0.402 158 117 73
-3411.3716 4466.1567 1288.0286 -0.246 -0.716 0.653 169 144 104
-3183.1023 5313.5283 771.8978 0.525 -0.055 0.849 196 154 135
-3106.0884 5262.2378 720.9238 0.519 -0.059 0.853 199 158 138
-3090.6504 5251.6987 710.7999 0.519 -0.059 0.853 203 162 142
-2922.1233 6282.4580 181.7592 0.524 -0.596 0.608 203 141 116
-2207.1526 4926.8330 29.7703 0.807 -0.459 0.371 196 138 112
-2200.2825 4949.9707 15.1006 0.808 -0.459 0.370 195 137 111
-2197.3831 4962.9087 7.7505 0.803 -0.466 0.371 195 137 111
-2069.3013 5242.1870 -210.1923 0.679 -0.630 -0.376 235 190 184
-2029.5959 5183.5659 -224.7190 -0.346 -0.867 0.359 235 190 184
-2023.7955 5191.1494 -232.7393 -0.337 -0.869 0.362 234 189 183
-2012.2623 5183.5044 -240.3859 -0.337 -0.869 0.362 234 189 183
-2000.7694 5175.8862 -248.0061 -0.337 -0.869 0.362 233 189 183
-1992.5757 5177.0591 -255.8509 -0.328 -0.877 0.351 233 189 183
-1982.5911 5173.3911 -263.5487 -0.324 -0.880 0.348 210 166 163
-1944.0048 5138.4849 -285.7247 -0.308 -0.879 0.365 213 170 167
-1867.3485 5262.4302 -400.3824 0.885 -0.357 -0.298 236 199 198
-773.7142 4392.5498 -1072.5410 -0.102 -0.995 -0.003 251 104 104
-777.3347 4455.5479 -1092.2749 0.019 -0.998 -0.060 248 75 85
-632.6934 4451.1733 -1221.5980 0.508 -0.679 0.529 255 158 144
-347.6805 3208.9890 -1025.8499 0.696 -0.488 -0.526 254 84 115
-292.6696 3445.3201 -1161.9658 0.428 -0.900 0.084 246 87 100
-213.5406 3082.4351 -1101.0399 0.072 -0.886 -0.459 216 0 21
-203.9268 3076.7419 -1107.6624 -0.016 -0.904 -0.428 209 5 24
-204.0550 3433.3567 -1237.8048 0.101 -0.971 -0.218 238 53 59
-4023.5798 4681.4287 1747.9293 0.818 -0.575 0.015 203 174 156
-3834.0967 4550.2939 1624.7883 0.078 -0.745 0.663 197 162 140
-3841.1335 4569.8984 1623.9384 0.115 -0.909 -0.401 191 156 134
-3835.2151 4573.6147 1617.2167 0.115 -0.909 -0.401 187 152 130
-3827.3787 4574.9717 1609.6287 0.162 -0.983 -0.083 188 153 131
-3712.9851 4520.6841 1526.1295 -0.011 -0.680 -0.733 163 120 77
-3917.2385 4860.8379 1585.7026 -0.535 -0.842 -0.064 176 135 89
-3281.7668 4312.3677 1212.7230 -0.019 -0.907 0.421 203 97 86
-3272.8191 4368.0771 1184.1251 0.711 -0.609 -0.352 234 106 103
-3287.9773 4412.1821 1181.6044 0.766 -0.643 -0.013 198 170 136
-2430.8096 3326.6025 805.7618 -0.601 -0.790 0.120 191 166 135
-2336.3499 3217.4663 760.4818 0.672 -0.733 0.106 201 157 132
-2345.8027 3257.8933 754.1536 0.503 -0.844 -0.185 196 144 120
-2269.9219 3245.5010 690.0733 0.876 -0.405 0.262 206 169 143
-2958.5598 5067.7241 642.3450 0.291 -0.834 0.469 203 165 146
-2453.8047 5390.7998 66.8398 0.739 -0.226 0.634 200 142 118
-2439.0815 5378.2422 58.1431 0.720 -0.234 0.653 200 142 118
-1949.7469 5131.3086 -293.6218 -0.062 -0.695 0.716 235 187 185
-1808.3855 5484.6040 -551.5259 0.968 -0.215 -0.130 249 189 188
-1305.0494 5058.2900 -849.9360 0.488 -0.613 -0.622 244 179 173
-1023.7297 5258.0640 -1177.9423 -0.170 -0.985 -0.041 245 148 142
-536.6680 3871.0986 -1108.0652 -0.749 -0.638 0.178 244 71 98
-352.6479 3213.0232 -1032.3252 0.109 -0.521 -0.847 254 83 115
-285.4952 3566.8982 -1223.3140 0.756 -0.574 -0.315 254 23 59
-328.8965 4753.5767 -1620.8079 -0.465 -0.882 -0.078 223 2 25
-217.0599 3070.0049 -1102.3396 0.013 -0.875 -0.484 215 0 21
-173.9059 3234.3025 -1201.8457 -0.561 -0.711 0.424 244 119 105
-4017.5886 4662.6064 1733.8805 0.884 -0.463 0.064 204 175 157
-3934.8687 4639.9360 1667.5051 -0.221 -0.731 0.645 203 172 153
-3798.3396 4538.5327 1581.6807 -0.185 -0.959 0.215 183 148 126
-3912.8003 4842.6187 1572.3932 0.138 -0.989 -0.050 183 142 96
-3535.8616 4426.7241 1385.8517 0.206 -0.978 0.009 187 150 106
-3526.2778 4425.3706 1377.6897 0.236 -0.944 -0.233 187 150 106
-3292.9607 4282.6172 1219.6987 0.520 -0.371 0.769 171 143 108
-3293.0049 4293.7427 1215.6129 0.935 -0.354 -0.021 178 139 108
-3299.0542 4313.0537 1213.9205 0.933 -0.359 -0.027 194 118 99
-3286.7898 4398.5073 1171.1439 0.830 -0.557 0.011 203 169 136
-2391.4937 3269.9363 780.2694 -0.425 -0.897 0.122 202 172 142
-2371.9636 3250.7966 769.7111 0.132 -0.991 0.038 203 168 140
-2359.6704 3241.9797 761.8670 0.163 -0.983 0.083 196 152 127
-2352.7852 3258.7842 749.4109 0.438 -0.880 -0.182 173 120 96
-2270.7251 3237.3035 683.1909 0.871 -0.465 0.159 205 168 142
