ply
format ascii 1.0
element vertex 798
property float x
property float y
property float z
property float nx
property float ny
property float nz
property uchar diffuse_red
property uchar diffuse_green
property uchar diffuse_blue
end_header
-1106.9226 2674.1892 -877.1608 0.942 0.148 -0.302 54 22 11
-1111.6620 2694.8894 -886.5486 0.970 0.134 -0.201 47 15 4
-1116.0247 2714.8989 -895.7228 0.987 0.160 -0.033 46 14 3
-1118.8629 2731.6140 -903.7546 0.971 0.167 0.171 44 12 4
-1123.3856 2752.2747 -913.2192 0.983 0.037 0.182 44 12 4
-1123.2213 2762.4089 -918.9491 0.967 0.025 0.255 58 26 17
-1122.6943 2771.7783 -924.4178 0.964 0.009 0.265 57 25 16
-1124.3011 2786.1133 -931.6833 -0.001 -0.863 0.506 58 26 17
-1069.2335 2865.0645 -1000.8712 0.733 0.299 0.611 100 61 49
-1052.6920 2917.1426 -1037.4805 0.311 0.003 0.950 32 8 4
-1049.6805 2933.4700 -1047.9656 0.342 -0.317 0.885 23 7 6
-1046.8149 2938.1328 -1051.8754 0.366 -0.312 0.877 18 8 7
-971.6246 2957.7891 -1097.1602 -0.187 -0.943 0.275 34 13 8
-1034.4714 3179.9915 -1192.4668 0.670 -0.385 0.635 45 24 19
-1028.0531 3175.4216 -1192.8462 0.917 -0.169 0.360 49 28 25
-1031.4766 3199.7119 -1204.8378 0.863 -0.255 0.436 51 30 29
-1032.7335 3217.8162 -1214.3663 0.761 -0.200 0.616 56 31 34
-1028.9623 3221.1421 -1217.9435 0.761 -0.200 0.616 60 34 37
-1026.5343 3228.4819 -1223.1472 0.772 -0.524 0.360 63 37 40
-1022.0302 3229.6394 -1225.8488 0.894 -0.441 0.076 86 58 62
-1024.3035 3251.2107 -1236.8480 0.778 -0.493 -0.389 95 74 76
-1013.4819 3233.2957 -1231.7903 0.939 -0.043 -0.342 118 93 96
-1019.3426 3265.9719 -1247.3490 0.880 -0.154 -0.448 126 107 108
-992.6454 3305.1584 -1281.3998 0.954 0.237 0.185 113 70 77
-998.7570 3340.2942 -1298.2164 0.963 0.244 0.113 137 84 90
-1003.6360 3371.8169 -1313.5792 0.960 0.246 0.134 161 101 107
-1012.6504 3416.9727 -1334.6622 0.960 0.242 0.140 168 104 110
-1017.3594 3448.6216 -1350.1732 0.957 0.237 0.169 166 96 107
-1019.8882 3473.4714 -1362.8855 0.944 0.235 0.233 165 90 101
-1025.3198 3508.0623 -1379.7084 0.953 0.186 0.238 154 72 83
-1024.8252 3523.4746 -1388.5343 0.803 0.166 0.572 156 66 81
-1035.5264 3593.6108 -1422.7865 0.984 0.173 0.037 191 85 87
-1041.5540 3631.4629 -1441.1571 0.989 0.144 -0.011 200 89 88
-1052.9851 3687.8728 -1467.4169 0.983 0.120 -0.136 206 96 97
-1060.2123 3730.6394 -1487.9824 0.975 0.116 -0.192 207 97 98
-1014.8228 3704.9656 -1494.3719 0.979 0.178 -0.100 220 55 75
-1072.1763 3946.9587 -1603.2290 0.977 0.116 -0.178 232 42 70
-1088.0911 4045.2847 -1650.8318 0.399 -0.762 -0.510 237 25 63
-2629.0029 1641.8958 387.0662 0.385 -0.628 0.676 48 35 26
-2616.8398 1644.2958 380.1889 0.355 -0.608 0.710 53 40 31
-2609.8032 1644.9885 376.5998 0.367 -0.806 0.464 53 40 31
-2601.1509 1644.8309 372.7519 0.409 -0.847 0.340 53 40 31
-2605.2827 1651.3112 371.0025 0.727 -0.636 0.258 57 44 35
-2600.6313 1653.2296 367.8120 0.686 -0.669 0.287 57 44 35
-2329.8132 1689.1843 224.4756 0.831 -0.106 -0.545 65 51 40
-2346.5173 1712.5116 219.0108 0.909 0.035 -0.414 122 105 90
-2354.3306 1721.7213 217.4075 0.915 0.039 -0.401 151 132 116
-2291.8469 1849.3550 117.5042 0.568 -0.070 0.820 62 52 42
-2213.6174 1882.7408 63.2190 0.843 -0.532 0.075 62 48 37
-2230.5376 1904.9785 58.4627 0.595 -0.381 0.707 57 40 30
-2237.0872 1914.7871 55.9493 0.522 -0.784 0.336 58 41 31
-2235.2002 1918.4722 53.0271 0.751 -0.547 0.371 59 42 32
-2250.0386 1949.8672 42.1954 0.897 0.060 -0.438 62 45 35
-2248.9866 1954.2626 39.2553 0.857 -0.115 -0.502 65 47 37
-2244.2676 1955.9362 36.1712 0.866 -0.167 -0.472 65 47 37
-2243.9917 1960.9266 33.2509 0.861 -0.161 -0.483 66 47 38
-2242.2932 1964.8654 30.2725 0.863 -0.372 -0.342 74 56 46
-2239.5376 1968.0172 27.2538 0.920 -0.357 0.160 83 65 55
-2237.4519 1971.6785 24.2545 0.894 -0.402 0.196 90 71 62
-2229.5762 1970.9619 21.0730 0.699 0.164 0.696 97 78 68
-2227.4429 1974.5870 18.0724 0.699 0.164 0.696 113 89 79
-2225.3074 1978.2170 15.0680 0.699 0.164 0.696 129 101 92
-2193.8088 1975.0854 2.4924 0.759 0.113 0.641 167 138 130
-2190.2671 1977.6042 -0.5294 0.914 0.266 0.308 174 146 137
-2190.6882 1993.7948 -9.4049 0.875 0.176 0.452 182 141 135
-2238.8076 2081.0515 -36.3803 0.803 0.143 0.578 192 143 138
-2305.5940 2181.5576 -62.2839 0.854 -0.493 0.168 193 145 141
-2362.6379 2234.7190 -66.1050 0.940 0.092 -0.329 188 140 136
-2679.2490 2560.1924 -104.3452 0.650 -0.595 0.473 57 40 48
-2665.0896 2562.3992 -112.0226 0.914 -0.291 0.283 50 45 49
-1858.4604 1905.8219 -111.2754 0.462 -0.873 0.157 48 44 58
-1833.0698 1888.5660 -113.1624 0.837 -0.444 -0.319 48 44 58
-1850.7463 1909.1917 -116.6719 0.320 -0.791 0.521 48 45 57
-1968.8751 2108.3923 -174.4900 0.782 0.436 0.445 214 166 157
-2259.2903 2927.8267 -501.2780 -0.296 -0.904 0.308 221 165 147
-2276.4680 2956.9580 -509.7777 -0.117 -0.932 0.343 211 156 136
-2295.7603 2988.7766 -518.8206 0.413 -0.553 0.724 198 143 123
-2289.1707 2989.9170 -522.4569 0.392 -0.530 0.752 189 134 114
-2280.6465 2988.7268 -525.6682 0.494 -0.456 0.740 163 108 88
-2188.3315 2966.3208 -555.1163 0.121 -0.946 -0.300 67 25 13
-2203.0408 3011.8804 -573.9393 0.955 0.254 0.155 77 42 35
-1761.2966 2564.6138 -524.4175 -0.010 -0.691 0.723 133 76 37
-1684.7522 2494.0417 -519.7170 0.547 -0.023 0.837 145 82 41
-1679.0923 2494.0381 -522.2899 0.669 0.022 0.743 137 73 33
-1675.6239 2496.9524 -525.4998 0.669 0.022 0.743 138 75 34
-1670.5182 2497.6667 -528.2225 0.679 0.024 0.734 140 77 36
-1667.1322 2500.6877 -531.4548 0.679 0.024 0.734 142 77 36
-1661.6116 2500.8213 -534.0409 0.083 -0.425 0.902 141 68 24
-1541.5690 2425.0320 -546.2070 0.922 -0.206 0.329 144 63 20
-1537.5023 2426.7170 -549.0007 0.840 -0.142 0.523 144 63 20
-1534.1525 2429.4155 -552.0358 0.842 -0.136 0.522 144 63 20
-1430.5424 2514.0747 -646.5815 0.689 -0.408 -0.599 168 83 44
-1429.9297 2521.1870 -650.8433 0.692 -0.406 -0.596 167 83 46
-1430.6971 2530.5452 -655.7349 0.721 -0.382 -0.579 168 85 47
-1405.2085 2497.7229 -648.9490 0.637 -0.566 -0.523 170 89 54
-1142.4158 2617.3499 -835.4932 0.961 0.230 0.156 144 83 55
-1144.1671 2630.6155 -842.1255 0.955 0.255 0.151 144 82 57
-1096.7480 2596.0791 -844.3561 0.543 -0.684 -0.488 118 59 38
-1120.1993 2657.0002 -867.8051 0.775 -0.632 0.024 102 50 34
-1113.6460 2652.5168 -868.2755 0.994 0.113 -0.015 75 41 30
-1107.2926 2648.4153 -868.8689 0.980 0.194 -0.033 59 31 25
-1104.4614 2652.0601 -872.1979 0.970 0.240 0.027 44 17 12
-1119.2998 2695.0220 -889.5075 0.978 0.211 0.003 33 6 1
-1123.1708 2713.8286 -898.2787 0.982 0.138 -0.129 36 9 3
-1116.6837 2719.8000 -904.5739 0.971 0.167 0.171 37 10 5
-1119.7831 2737.1465 -912.8783 0.961 0.049 0.271 37 10 5
-1119.5608 2747.0710 -918.5375 0.884 0.062 0.463 41 14 9
-1117.7164 2753.3569 -922.8968 0.884 0.062 0.463 39 13 10
-1115.2625 2758.2778 -926.7689 0.652 -0.025 0.758 39 13 10
-1110.8049 2758.6060 -928.9805 0.653 -0.025 0.757 41 13 11
-1108.4108 2763.6865 -932.9150 0.656 -0.025 0.754 45 18 15
-1107.7825 2772.8906 -938.3553 0.626 -0.058 0.777 48 24 20
-1101.6082 2769.2153 -939.1058 0.601 -0.073 0.796 56 30 27
-1043.5095 2885.4575 -1030.6349 0.981 -0.140 0.135 43 14 6
-1038.0066 2919.0691 -1051.9617 0.939 -0.239 -0.246 20 12 10
-1036.3179 2926.7793 -1057.0476 0.933 -0.263 -0.247 21 13 11
-1040.0959 2949.0808 -1067.8184 0.948 -0.274 -0.161 18 10 8
-1042.6079 3180.1938 -1196.1047 0.677 -0.354 0.645 41 20 15
-1021.4200 3146.8071 -1187.0461 0.865 -0.478 0.155 43 19 17
-1018.3055 3151.7388 -1191.2250 0.865 -0.474 0.166 54 30 30
-1024.2814 3183.4626 -1206.2726 0.835 -0.445 0.323 53 28 31
-1013.0715 3164.6116 -1200.8152 0.802 -0.559 0.213 54 28 31
-1015.4919 3200.5139 -1219.8202 0.939 -0.333 0.081 74 47 50
-1010.7949 3200.9456 -1222.1987 0.936 -0.070 -0.345 86 65 66
-1011.7504 3218.4226 -1231.5516 0.928 -0.084 -0.362 108 84 87
-1016.0379 3246.1621 -1245.1359 0.932 -0.079 -0.355 120 101 102
-1023.8376 3284.8699 -1263.2651 0.798 -0.358 -0.485 116 110 108
-1018.9708 3331.1077 -1291.3734 0.665 -0.529 -0.527 77 50 54
-990.6311 3288.6477 -1280.4871 0.964 0.198 0.177 86 43 51
-988.6747 3297.9497 -1286.5864 0.964 0.239 0.121 131 78 84
-998.8384 3346.0552 -1308.9031 0.971 0.221 0.090 156 96 102
-1006.0159 3385.0427 -1327.4718 0.971 0.221 0.090 166 103 109
-1016.8553 3436.2383 -1351.2115 0.985 0.169 -0.044 167 96 108
-1016.9738 3453.1348 -1360.6202 0.980 0.161 0.121 172 95 107
-1019.5605 3478.2361 -1373.5007 0.954 0.180 0.241 171 87 99
-1022.2040 3503.7588 -1386.5916 0.857 0.198 0.476 170 77 94
-1021.3169 3517.8740 -1394.9000 0.994 0.094 -0.049 174 74 85
-1032.6740 3572.7214 -1420.4493 0.988 0.125 -0.094 185 79 81
-1040.4800 3616.2847 -1441.2948 0.987 0.124 -0.098 194 84 83
-1049.5358 3664.4761 -1464.1635 0.958 0.060 -0.280 199 90 91
-2626.9736 1641.9119 379.6643 0.384 -0.647 0.659 52 39 30
-2618.7502 1642.0127 375.8788 0.415 -0.783 0.463 53 40 31
-2618.9216 1646.4285 373.4746 0.421 -0.836 0.351 53 40 31
-2614.1936 1652.6639 367.8260 0.398 -0.861 0.316 57 44 35
-2608.7512 1654.1836 364.5042 0.400 -0.852 0.338 57 44 35
-2391.9734 1732.1515 222.3857 0.530 -0.141 -0.836 111 97 83
-2348.4961 1710.3923 214.9008 0.907 0.030 -0.420 144 127 112
-2355.1711 1723.3761 210.6301 0.917 0.049 -0.397 182 161 142
-2301.0510 1794.7161 145.9931 0.995 -0.036 -0.096 200 179 160
-2297.9773 1859.6941 108.0786 0.956 -0.282 -0.085 59 51 40
-2243.7244 1951.7384 31.7445 0.757 -0.507 -0.411 61 49 37
-2210.8489 1947.8158 19.0420 0.785 -0.481 -0.391 68 56 44
-2209.6829 1952.1074 16.1012 0.785 -0.481 -0.391 75 62 50
-2208.1255 1956.1136 13.1434 0.785 -0.484 -0.387 85 68 56
-2202.8271 1978.2013 -1.6735 0.789 0.186 0.585 146 125 114
-2201.6416 1982.5574 -4.6593 0.789 0.186 0.585 153 131 120
-2200.6306 1987.0599 -7.6485 0.913 0.271 0.304 161 135 126
-2202.1628 1998.8749 -13.5942 0.913 0.271 0.304 176 138 131
-2198.5049 2006.7007 -19.6514 0.851 0.225 0.474 179 136 130
-2182.4521 2020.9066 -34.9149 0.937 -0.180 -0.300 180 134 128
-2192.0288 2033.9833 -37.9221 0.976 -0.213 0.044 184 137 131
-2199.5105 2045.4453 -40.9718 0.657 -0.059 0.751 192 143 138
-2311.8279 2182.3955 -67.0146 0.720 -0.651 0.239 204 156 153
-1847.1799 1892.2983 -114.6582 0.929 -0.366 -0.056 48 44 58
-1844.1013 1899.6781 -120.2020 0.371 -0.829 0.419 48 45 57
-1778.3102 1871.2727 -134.0694 0.912 0.348 -0.217 89 65 78
-1864.7109 1980.4900 -156.2768 0.885 0.466 -0.014 209 162 156
-1886.6539 2005.9775 -160.6521 0.888 0.458 -0.030 213 164 160
-2284.1924 2959.8643 -516.5205 -0.115 -0.984 -0.140 198 143 123
-2241.1421 2979.7783 -547.2340 0.638 -0.669 -0.382 162 120 106
-2237.2285 2984.0281 -551.3973 0.653 -0.627 -0.424 118 76 64
-2238.6946 2994.8611 -556.8211 0.107 -0.966 -0.235 79 37 23
-2225.8396 3006.3560 -569.1108 0.092 -0.922 -0.376 72 30 18
-1752.9764 2510.2964 -504.7189 0.250 -0.667 0.702 101 54 35
-1756.0519 2521.8071 -509.7939 0.215 -0.546 0.810 112 64 38
-1680.2756 2482.8623 -522.2654 0.583 -0.046 0.811 155 98 55
-1676.0083 2484.6892 -525.2272 0.583 -0.046 0.811 148 91 48
-1672.1676 2487.0806 -528.3128 0.669 0.022 0.743 145 89 46
-1651.2157 2466.5181 -526.2563 0.379 -0.416 0.827 143 85 43
-1648.4044 2470.2114 -529.6068 0.366 -0.439 0.821 142 82 39
-1651.5333 2489.4824 -539.0192 0.404 -0.056 0.913 141 68 23
-1656.8698 2504.3218 -544.9399 0.094 -0.377 0.922 142 68 23
-1431.6919 2502.3435 -645.9338 0.867 -0.157 -0.472 150 65 26
-1433.3007 2512.9265 -651.1525 0.688 -0.417 -0.594 150 65 26
-1433.2784 2520.9717 -655.6843 0.700 -0.415 -0.582 149 65 28
-1432.8680 2528.4370 -660.0663 0.696 -0.413 -0.587 149 66 29
-1405.7380 2501.1118 -657.0101 0.643 -0.568 -0.514 151 72 39
-1391.6809 2518.8757 -673.3685 0.495 -0.805 0.328 151 74 42
-1387.2987 2519.8655 -675.9118 0.511 -0.795 0.327 140 69 40
-1382.8248 2520.6921 -678.4050 0.564 -0.708 0.424 117 59 40
-1286.6580 2439.9863 -676.6509 0.920 -0.107 -0.377 52 31 36
-1264.2883 2630.9988 -794.1524 -0.536 -0.844 -0.002 94 51 31
-1249.0183 2610.9661 -789.8173 -0.533 -0.846 0.023 103 57 33
-1177.8342 2571.9038 -800.1404 0.375 -0.912 0.166 112 54 30
-1166.7843 2567.9741 -802.9423 0.620 -0.444 -0.646 109 51 27
-1136.6500 2598.8569 -833.9641 0.960 0.236 0.152 139 78 50
-1138.1489 2611.4919 -840.3859 0.957 0.254 0.140 138 78 52
-1099.9666 2596.6555 -849.3607 0.560 -0.677 -0.477 103 43 23
-1118.6467 2686.8198 -891.5670 0.984 0.148 -0.104 31 9 5
-1122.5204 2705.5601 -900.3434 0.984 0.130 -0.122 33 10 7
-1094.8579 2767.7170 -947.8221 0.575 -0.314 0.756 68 36 30
-1090.1040 2767.2783 -949.7310 0.760 -0.178 0.626 69 36 29
-1072.5691 2736.5571 -940.4153 0.841 -0.203 0.501 70 35 26
-1067.4575 2735.0813 -941.9037 0.932 -0.172 0.320 74 37 28
-1042.1357 2760.3381 -967.5812 0.982 0.167 0.091 137 90 70
-1042.3441 2771.8723 -973.9695 0.969 0.172 0.175 139 90 70
-1042.1758 2782.5515 -980.0482 0.909 0.220 0.353 138 88 69
-1043.4503 2808.1760 -993.8724 0.784 0.262 0.563 123 81 66
-1044.1797 2867.5962 -1026.9387 0.850 0.089 0.519 66 35 22
-1041.0198 2871.2136 -1030.4045 0.947 -0.302 0.108 54 22 9
-1039.6908 2952.2026 -1076.5270 0.980 -0.087 0.179 16 8 6
-1041.2030 2968.6685 -1085.0958 0.757 -0.101 0.646 16 8 6
-1029.1979 3104.9412 -1167.1313 0.055 -0.987 0.150 29 8 3
-1033.4757 3144.6870 -1187.5306 0.703 -0.692 0.163 41 20 15
-1032.1487 3154.7893 -1193.8104 0.770 -0.516 0.374 41 20 15
-999.8594 3130.3450 -1194.7129 0.932 -0.060 -0.357 48 23 26
-1000.4178 3146.1299 -1203.3315 0.895 -0.094 -0.436 58 32 35
-1006.8387 3179.6028 -1219.2334 0.926 -0.046 -0.375 66 46 47
-1010.5599 3205.2603 -1231.9668 0.937 -0.041 -0.347 84 60 63
-1014.6813 3232.3601 -1245.3293 0.953 -0.025 -0.300 94 74 75
-1019.0131 3260.3467 -1259.0950 0.950 -0.085 -0.301 101 95 92
-987.9905 3285.6538 -1287.3859 0.986 0.166 -0.021 114 61 67
-994.9128 3323.2297 -1305.3663 0.985 0.172 -0.021 145 86 91
-1002.4960 3363.2859 -1324.4413 0.987 0.157 -0.026 160 97 103
-1009.7364 3402.6306 -1343.2717 0.987 0.153 -0.058 164 94 106
-1013.7177 3431.8145 -1357.8691 0.993 0.113 -0.040 171 95 108
-1015.0831 3452.7671 -1369.0265 0.968 0.142 0.205 170 86 99
-1016.5906 3474.3755 -1380.4879 0.970 0.082 0.227 168 77 95
-1019.7471 3501.6042 -1394.3605 0.994 0.094 -0.049 172 73 83
-1027.5193 3544.3489 -1414.8606 0.984 0.077 -0.160 179 73 75
-1032.3707 3577.8137 -1431.4696 0.978 0.050 -0.203 188 78 79
-1053.5712 3666.2312 -1471.5513 0.952 0.068 -0.299 194 85 86
-1066.0223 3744.6951 -1510.0059 0.972 0.140 -0.189 201 93 93
-1069.3477 3774.6672 -1525.3439 0.958 0.075 -0.277 201 92 93
-2625.0828 1641.9984 372.2885 0.435 -0.833 0.341 53 40 31
-2620.3196 1643.8772 369.0760 0.421 -0.836 0.351 53 40 31
-2619.9075 1647.9983 366.5651 0.374 -0.866 0.331 53 40 31
-2616.8718 1650.7708 363.6293 0.408 -0.859 0.309 57 44 35
-2329.3960 1660.7439 228.0740 0.918 0.168 -0.359 66 52 43
-2300.2810 1790.7441 141.5856 0.993 -0.036 -0.112 200 179 160
-2341.7273 1836.9989 134.2269 0.998 -0.051 -0.034 170 149 130
-2269.9792 1822.5830 109.9307 0.931 -0.111 -0.348 112 99 90
-2281.3542 1835.0841 108.0203 0.900 -0.115 -0.420 90 80 70
-2290.9675 1846.4496 105.9544 0.806 -0.134 -0.576 64 54 45
-2299.1838 1856.9171 103.7634 0.956 -0.282 -0.085 50 42 31
-2213.9609 1946.3815 14.7811 0.776 -0.466 -0.425 60 52 39
-2212.6401 1950.5548 11.8301 0.732 -0.466 -0.497 66 57 45
-2212.5679 1955.6825 8.9050 0.584 -0.609 -0.537 70 59 45
-2191.2356 1986.4893 -18.1136 0.892 -0.427 0.149 116 81 72
-2190.5625 1996.5817 -24.1107 0.850 0.208 0.485 119 79 73
-2192.9690 2003.8066 -27.0984 0.857 0.247 0.452 115 75 68
-2190.6401 2012.6990 -33.1670 0.913 0.244 0.326 143 104 97
-2192.7263 2019.7413 -36.1965 0.930 0.245 0.273 162 122 116
-2180.4919 2015.4177 -39.2872 0.847 0.234 0.478 177 131 126
-2188.8687 2027.5018 -42.3175 0.681 -0.025 0.732 184 136 132
-2192.1223 2035.5444 -45.3835 0.657 -0.038 0.753 192 143 139
-2188.7319 2049.2490 -54.6462 0.901 0.095 0.423 195 146 142
-2250.0757 2110.1968 -61.2996 0.975 0.217 0.037 195 146 142
-2257.5029 2121.9651 -64.5810 0.784 -0.130 0.608 196 150 148
-2307.2739 2168.4626 -68.3141 0.861 -0.505 0.060 194 149 148
-2309.2976 2176.0193 -71.6619 0.719 -0.652 0.240 192 146 146
-1780.5078 1869.6641 -137.8515 0.898 0.332 -0.289 108 81 92
-1801.1302 1898.2203 -144.6387 0.904 0.348 -0.250 167 130 142
-2243.2334 2976.0088 -552.7720 0.602 -0.742 -0.295 120 78 62
-2242.1340 2983.6746 -557.5929 0.529 -0.847 0.044 77 35 21
-2246.7954 2998.3955 -563.7898 0.114 -0.966 -0.233 55 13 1
-2253.0798 3024.3384 -575.5830 -0.186 -0.914 -0.360 79 37 21
-1685.2030 2476.7000 -523.3378 0.221 -0.412 0.884 166 115 70
-1672.1626 2466.9099 -523.7094 0.689 0.034 0.724 172 120 75
-1668.3892 2469.3477 -526.7899 0.703 0.051 0.709 167 115 70
-1664.6265 2471.7983 -529.8729 0.703 0.050 0.710 160 107 63
-1646.9731 2455.6606 -528.7488 0.342 -0.387 0.856 150 97 53
-1642.1174 2456.5762 -531.4598 0.334 -0.386 0.860 145 88 44
-1643.5721 2465.9829 -536.1083 0.375 -0.397 0.838 140 69 24
-1648.5165 2487.7000 -546.1237 0.352 -0.141 0.925 141 68 23
-1424.3972 2407.8774 -602.3928 0.382 -0.551 -0.742 151 64 19
-1410.1705 2502.7188 -662.3199 0.736 -0.503 -0.453 145 68 34
-1393.9753 2517.0415 -677.7188 0.506 -0.797 0.330 127 56 26
-1388.7483 2516.6489 -679.8597 0.507 -0.792 0.340 116 50 24
-1296.4827 2388.1394 -649.0723 0.991 -0.132 0.036 77 38 29
-1297.8320 2405.9495 -658.5085 0.947 0.080 -0.311 61 31 31
-1298.3346 2422.5295 -667.6337 0.994 0.022 -0.111 54 34 38
-1242.3652 2539.0132 -758.6352 0.550 -0.612 -0.569 42 22 20
-1241.5266 2546.1736 -763.0532 0.568 -0.648 -0.507 49 28 21
-1239.7231 2551.5593 -766.9062 0.560 -0.653 -0.509 59 34 23
-1181.9160 2564.8245 -800.5156 0.225 -0.972 0.074 105 48 23
-1178.9052 2567.9097 -803.6168 0.519 -0.843 0.143 105 49 24
-1172.8159 2564.8374 -804.6359 0.597 -0.436 -0.673 105 49 24
-1171.3717 2571.0574 -808.7971 0.622 -0.451 -0.640 101 45 22
-1125.5342 2550.7412 -818.0546 0.563 -0.470 0.679 131 69 44
-1134.3683 2597.1687 -840.2502 0.957 0.254 0.140 131 71 46
-1138.1198 2614.5662 -848.3681 0.911 0.293 0.290 132 71 50
-1139.5695 2627.2075 -854.8435 0.892 0.284 0.353 125 66 46
-1108.6659 2618.7490 -864.0397 0.849 -0.526 -0.059 65 17 7
-1114.4198 2670.7468 -890.7695 0.956 0.180 -0.231 31 11 10
-1122.7875 2699.3643 -903.1299 0.976 0.163 -0.142 31 11 10
-1104.9238 2741.5598 -935.0050 0.650 -0.031 0.759 40 19 22
-1101.1882 2743.4729 -937.7725 0.619 -0.440 0.651 43 25 26
-1096.8638 2744.0149 -940.0327 0.633 -0.456 0.625 52 32 32
-1101.5197 2765.4585 -950.0241 0.555 -0.284 0.781 64 37 34
-1096.4183 2764.2395 -951.6421 0.549 -0.294 0.783 83 48 41
-1091.6179 2763.6943 -953.5043 0.721 -0.192 0.666 84 48 39
-1086.1741 2761.6033 -954.7853 0.753 -0.275 0.598 85 47 36
-1052.7616 2735.5808 -955.2080 0.841 0.145 0.521 128 84 67
-1049.1332 2737.5715 -957.9709 0.855 0.136 0.501 138 88 64
-1046.9596 2743.0999 -962.0717 0.928 0.174 0.330 146 93 70
-1040.4703 2738.1008 -962.1848 0.968 0.195 0.161 152 100 76
-1039.9619 2747.7275 -967.8447 0.982 0.167 0.091 153 101 77
-1038.5385 2755.1604 -972.6807 0.963 0.199 0.181 151 97 72
-1034.7185 2767.7375 -981.5016 0.869 0.232 0.437 151 98 76
-1038.1003 2844.2959 -1023.1575 0.908 0.082 0.410 100 62 45
-1038.6495 2857.3496 -1030.2725 0.936 0.169 0.309 90 51 33
-1040.4633 2873.7666 -1038.7131 0.984 0.136 0.113 74 40 25
-1041.1652 2887.4270 -1046.1013 0.981 0.160 0.107 53 30 22
-1040.6016 2897.8909 -1052.2583 0.982 0.160 0.100 35 23 20
-1040.5144 2933.9646 -1072.6460 0.984 -0.119 0.131 15 5 4
-1043.5165 2954.2180 -1082.7135 0.939 0.026 0.343 18 8 7
-1040.8645 2959.5474 -1086.9182 0.757 -0.101 0.646 16 8 6
-1047.1744 2988.9333 -1100.6421 0.987 -0.066 0.149 16 8 6
-1029.1661 3095.9277 -1169.1338 0.029 -0.987 0.160 28 9 3
-1027.1067 3103.6453 -1174.4178 -0.093 -0.942 0.321 39 20 14
-1021.8603 3102.2700 -1176.0133 -0.101 -0.962 0.256 40 21 15
-1004.8113 3135.7810 -1202.6215 0.479 -0.335 -0.811 40 18 20
-1005.8307 3167.1843 -1219.8744 0.445 -0.367 -0.817 43 23 24
-1008.3600 3189.1401 -1231.1160 0.445 -0.367 -0.817 52 31 32
-1018.6570 3249.5115 -1260.5156 0.927 -0.141 -0.348 64 57 54
-1007.6124 3275.7825 -1280.3263 0.532 -0.342 0.774 77 52 55
-1003.0512 3276.8491 -1282.9895 0.532 -0.342 0.774 64 33 38
-996.7064 3272.3228 -1283.3038 0.537 -0.335 0.774 65 29 36
-992.6426 3274.8848 -1286.5857 0.534 -0.332 0.777 76 35 42
-982.5617 3258.4426 -1281.8674 0.991 0.135 0.023 92 41 46
-989.2261 3294.9524 -1299.4495 0.988 0.151 -0.022 128 71 76
-996.8168 3334.7705 -1318.4790 0.987 0.151 -0.045 150 89 96
-1004.6857 3375.8696 -1338.1053 0.988 0.144 -0.054 160 92 104
-1010.5463 3410.8960 -1355.2139 0.993 0.104 -0.048 168 95 107
-1012.5146 3433.6443 -1367.1560 0.970 0.142 0.196 168 88 100
-1013.5061 3453.4189 -1377.8622 0.967 0.146 0.210 168 79 96
-1018.2481 3485.6606 -1393.9055 0.987 0.094 -0.127 167 71 81
-1027.3712 3532.6458 -1416.2852 0.962 0.021 -0.271 170 67 69
-1036.1869 3579.0842 -1438.4955 0.904 -0.042 -0.426 182 72 73
-1047.2363 3633.4272 -1464.1548 0.878 -0.036 -0.476 188 78 81
-1139.2228 4039.2878 -1651.5140 0.941 0.034 -0.337 213 76 89
-1089.3047 3967.9238 -1633.8212 0.901 -0.083 -0.426 240 32 66
-2690.2651 1602.7737 417.3852 0.955 0.284 -0.084 40 30 21
-2721.5505 1635.2145 413.1143 0.600 -0.013 0.800 47 37 27
-2736.7788 1651.4508 410.7832 0.555 0.075 0.828 46 36 26
-2330.5791 1658.2262 223.9589 0.926 0.167 -0.339 68 53 44
-2402.8381 1727.4248 217.3378 0.667 0.005 -0.745 135 118 108
-2386.3384 1731.0526 207.8512 0.922 -0.011 -0.386 196 178 158
-2303.7192 1789.5236 137.5320 0.999 0.035 -0.008 199 180 162
-2338.0769 1816.6718 137.6413 0.998 0.029 0.058 198 180 162
-2342.5137 1829.1456 132.5786 0.962 0.151 -0.228 174 157 137
-2274.7234 1817.4991 108.6328 0.948 -0.077 -0.309 80 70 60
-2300.3892 1854.1421 99.4515 0.956 -0.282 -0.085 53 45 34
-2309.4199 1865.1965 97.2619 0.983 -0.151 -0.109 54 46 35
-2199.9346 1926.9877 12.9602 0.797 -0.480 -0.366 61 55 41
-2209.4783 1939.2500 10.3179 0.671 -0.504 -0.544 66 60 46
-2205.6580 1941.5242 7.3095 0.718 -0.529 -0.451 72 65 52
-2185.3357 1936.4694 1.0160 0.821 -0.430 0.376 70 58 45
-2173.8840 1932.9138 -2.1301 0.722 -0.676 0.149 69 56 44
-2175.0564 1944.0824 -7.9244 0.155 -0.801 -0.578 62 50 37
-2172.2927 1962.7025 -19.7102 0.690 -0.655 -0.308 84 58 47
-2198.5972 1988.3490 -22.3787 0.545 -0.595 -0.590 87 56 47
-2186.9844 1995.2225 -31.5012 0.853 0.215 0.476 85 51 43
-2183.2412 1997.6107 -34.5394 0.861 0.226 0.456 96 62 54
-2183.6533 2003.2753 -37.5604 0.864 0.224 0.452 125 91 83
-2186.5696 2010.9413 -40.5863 0.915 0.250 0.318 150 115 108
-2176.2927 2013.5417 -46.6881 0.733 0.034 0.680 183 137 133
-2185.1174 2025.9850 -49.7567 0.767 0.093 0.634 192 144 141
-2184.2620 2030.7329 -52.8299 0.771 0.092 0.631 197 149 146
-2169.3179 2024.1674 -55.8453 0.699 -0.680 0.222 197 149 146
-2225.5354 2080.5322 -62.4278 0.936 -0.223 0.273 193 145 142
-2308.7480 2165.3997 -72.9844 0.861 -0.505 0.060 187 147 149
-2309.1829 2171.6411 -76.3217 0.839 -0.497 0.222 160 122 123
-2601.5310 2465.2351 -110.8241 0.787 -0.252 0.563 51 35 56
-2685.8394 2543.1958 -116.9774 0.638 -0.608 0.473 44 33 52
-1780.2911 1865.8970 -141.5017 0.898 0.332 -0.289 123 92 101
-1799.3214 1892.9541 -148.2456 0.903 0.344 -0.256 189 149 158
-2297.1340 2962.6453 -529.5336 0.097 -0.993 -0.063 210 156 139
-2290.3516 2963.5349 -533.0927 0.097 -0.993 -0.063 197 143 124
-2333.8647 3033.0894 -552.8648 -0.142 -0.989 0.032 191 137 118
-1687.3936 2466.9614 -523.6110 0.126 -0.559 0.820 171 123 82
-1666.7167 2454.5469 -525.8979 0.694 0.051 0.719 182 135 93
-1641.6539 2436.0515 -526.7183 0.171 -0.217 0.961 168 119 76
-1637.1707 2437.4229 -529.5143 0.192 -0.194 0.962 154 105 62
-1645.8091 2471.2800 -544.7891 0.405 -0.064 0.912 139 69 26
-1640.6240 2471.7712 -547.4030 0.333 -0.156 0.930 140 69 26
-1516.0344 2403.0874 -564.6476 0.721 -0.655 -0.227 151 69 25
-1513.1296 2406.3337 -567.7940 0.708 -0.649 -0.278 152 69 25
-1564.7145 2510.8547 -603.7245 0.633 -0.089 -0.769 153 70 26
-1573.9517 2539.9968 -616.0605 0.605 -0.121 -0.787 153 69 26
-1450.4678 2419.3594 -603.3962 0.868 -0.464 0.176 147 63 20
-1447.8580 2423.0142 -606.6409 0.868 -0.464 0.176 150 65 20
-1452.5190 2524.1470 -661.7921 0.746 -0.389 -0.540 153 68 29
-1387.9117 2517.8625 -687.3394 0.578 -0.730 0.365 73 28 18
-1249.7837 2582.2222 -785.9984 0.647 -0.648 -0.402 78 45 29
-1191.2054 2559.0293 -799.2579 0.233 -0.958 0.170 112 61 33
-1186.9510 2559.6594 -801.5312 0.233 -0.958 0.170 103 52 25
-1182.7035 2560.2886 -803.8008 0.233 -0.958 0.170 101 46 20
-1178.9413 2561.8684 -806.3899 0.477 -0.860 0.184 101 46 22
-1176.7910 2566.6592 -810.0707 0.753 -0.334 -0.567 101 46 22
-1173.8479 2569.8801 -813.2198 0.743 -0.348 -0.571 97 42 18
-1126.9279 2613.0798 -858.8120 0.963 0.107 0.249 90 34 14
-1117.5831 2641.3782 -879.0413 0.814 -0.574 -0.086 34 7 7
-1117.2655 2650.5125 -884.3552 0.904 -0.423 0.062 31 11 11
-1116.4248 2719.1865 -923.6100 0.852 -0.023 0.523 36 15 15
-1114.0168 2724.0730 -927.4610 0.862 -0.016 0.507 38 17 16
-1104.3022 2722.7251 -931.0743 0.473 -0.391 0.790 43 18 17
-1099.1278 2742.2266 -944.4451 0.323 -0.379 0.867 58 35 34
-1079.8947 2739.6941 -951.6757 0.770 -0.164 0.617 104 60 45
-1075.2869 2739.4648 -953.6218 0.747 -0.188 0.638 111 66 51
-1047.5579 2715.9329 -952.7921 0.653 -0.051 0.755 144 95 74
-1044.2690 2729.3892 -961.8911 0.913 0.119 0.391 155 97 70
-1035.4270 2718.6228 -959.7797 0.948 0.205 0.243 160 104 76
-1032.1638 2721.4028 -962.8235 0.974 0.198 0.107 158 101 74
-1035.4203 2740.2271 -972.0128 0.963 0.195 0.187 153 94 65
-1030.9559 2751.0657 -980.1595 0.905 0.045 0.423 151 94 67
-1030.3046 2760.4675 -985.7754 0.878 0.029 0.478 155 103 79
-1035.6320 2830.3374 -1022.9283 0.908 0.100 0.408 140 90 70
-1036.2019 2843.3582 -1030.0426 0.936 0.169 0.309 131 79 59
-1037.9246 2859.4443 -1038.3729 0.982 0.145 0.118 117 71 54
-1038.9556 2873.8660 -1046.0725 0.981 0.160 0.107 92 59 49
-1039.1980 2886.3481 -1053.0294 0.982 0.155 0.109 68 46 41
-1039.8873 2900.0894 -1060.4977 0.959 0.193 0.205 49 32 28
-1041.2072 2915.5886 -1068.6772 0.961 0.158 0.225 33 18 16
-1042.8120 2931.9597 -1077.2218 0.944 0.163 0.287 23 8 8
-1042.7396 2944.0183 -1084.0808 0.939 0.026 0.343 19 7 7
-1043.7960 2959.1687 -1092.1815 0.947 0.057 0.317 18 7 7
-1045.9554 2977.3860 -1101.5212 0.990 -0.039 0.134 16 7 6
-1046.8130 2992.2534 -1109.5514 0.970 -0.010 0.244 12 7 4
-1017.3846 3094.1016 -1180.4645 -0.117 -0.979 0.167 36 20 14
-1005.6948 3115.2297 -1197.6910 0.509 -0.333 -0.794 36 15 16
-1011.7773 3147.0981 -1212.9916 0.484 -0.345 -0.804 35 14 15
-1015.1891 3171.3525 -1225.1848 0.473 -0.356 -0.806 29 6 8
-1016.6215 3204.3904 -1243.2422 0.493 -0.387 -0.780 33 13 14
-1017.6579 3222.0796 -1252.7891 0.624 -0.340 -0.704 36 17 17
-1021.7305 3249.0898 -1266.2448 0.956 -0.097 -0.278 32 23 20
-1018.6459 3299.8923 -1296.3934 0.574 -0.366 0.733 67 41 44
-998.6354 3268.3823 -1287.5703 0.524 -0.338 0.782 64 30 36
-980.9850 3243.5217 -1281.4481 0.992 0.063 -0.113 80 34 38
-983.6443 3267.1819 -1293.6440 0.990 0.126 -0.058 115 62 66
-992.7472 3311.5505 -1314.6602 0.988 0.146 -0.040 138 80 86
-1000.8502 3353.1589 -1334.5642 0.986 0.154 -0.069 152 89 100
-1009.3965 3396.5996 -1355.3058 0.988 0.137 -0.066 169 99 110
-1012.5422 3423.0220 -1368.8462 0.989 0.135 0.060 167 90 103
-1013.3159 3441.9888 -1379.2347 0.967 0.149 0.205 165 81 97
-1018.3116 3474.9106 -1395.6211 0.972 0.054 -0.229 164 73 83
-1028.1978 3524.2046 -1419.0725 0.961 0.003 -0.275 166 67 70
-1038.8448 3576.5051 -1443.8833 0.904 -0.042 -0.426 175 70 71
-1050.9717 3634.2444 -1471.1062 0.878 -0.036 -0.476 184 73 78
-1107.4910 3878.9377 -1584.1647 0.872 -0.026 -0.488 205 87 94
-1084.4386 3858.6477 -1583.0634 0.461 -0.738 -0.493 217 52 74
-2699.9519 1621.3312 404.6999 0.910 0.039 0.413 51 41 32
-2706.9814 1629.0911 403.4477 0.605 0.012 0.796 51 41 32
-2707.3835 1633.6118 401.0599 0.601 0.004 0.799 51 41 32
-2298.1667 1768.5469 140.6575 0.918 0.037 -0.394 199 179 155
-2334.9788 1806.3883 135.6880 0.979 0.173 -0.107 198 183 174
-2337.4539 1812.7424 133.1895 0.983 0.142 -0.117 191 180 168
-2339.9414 1819.1293 130.6779 0.967 0.251 -0.047 175 163 148
-2343.7476 1826.4064 128.2526 0.963 0.150 -0.223 131 116 105
-2275.8750 1810.0165 107.0885 0.919 -0.127 -0.373 51 42 33
-2272.7727 1812.6783 104.1833 0.930 -0.126 -0.346 51 42 33
-2300.4458 1845.7333 97.8297 0.811 -0.128 -0.571 52 43 34
-2300.7771 1850.8143 95.0918 0.956 -0.281 -0.083 52 44 33
-2170.6333 1921.6213 -3.5712 0.814 -0.512 -0.274 68 59 49
-2197.1611 1946.8082 -5.9691 0.724 -0.590 -0.356 65 55 46
-2183.4160 1941.5365 -9.1459 0.126 -0.738 -0.663 60 51 41
-2204.8613 1989.3401 -26.6749 0.542 -0.627 -0.559 71 55 46
-2186.6636 2012.4780 -47.9910 0.812 0.247 0.529 169 133 131
-2193.6348 2023.4062 -51.0694 0.699 0.003 0.715 183 142 143
-2190.5078 2026.3390 -54.1396 0.699 0.003 0.715 191 148 151
-2179.8574 2023.2584 -57.1716 0.859 0.091 0.503 198 153 157
-2169.7712 2020.5942 -60.1867 0.810 -0.573 0.128 203 157 161
-2227.4688 2078.0266 -66.9085 0.938 -0.191 0.289 176 133 137
-2310.2207 2162.3386 -77.6513 0.861 -0.505 0.060 130 110 116
-2310.0564 2168.0798 -80.9868 0.839 -0.497 0.222 82 66 73
-1789.4464 1870.4923 -145.6810 0.912 0.180 -0.369 158 116 118
-1803.3594 1887.9122 -149.3305 0.881 0.349 -0.320 184 136 138
-2287.9841 2919.3872 -517.7306 0.112 -0.994 -0.011 212 154 140
-2316.6470 2961.5259 -528.8007 0.009 -0.998 0.068 212 155 140
-2302.8342 2954.2444 -530.8658 0.003 -0.997 0.071 198 149 135
-2305.3499 2966.0532 -536.4453 0.042 -0.996 -0.076 194 146 131
-2298.2695 2966.6196 -539.9460 0.042 -0.996 -0.076 190 141 128
-1776.2225 2479.5305 -497.6258 0.905 -0.118 0.408 90 42 29
-1779.1936 2490.6443 -502.6057 0.894 -0.030 0.447 104 56 43
-1783.5031 2510.9802 -512.2240 0.931 0.060 0.361 138 91 77
-1717.5894 2471.4561 -519.3655 0.576 -0.359 0.734 156 110 83
-1720.4307 2482.5532 -524.3942 0.976 0.196 0.097 161 115 87
-1715.9778 2484.2278 -527.3449 0.954 -0.216 0.208 164 118 91
-1648.9581 2426.0061 -524.3607 0.540 -0.241 0.806 170 128 100
-1623.7928 2414.5012 -529.1240 0.190 -0.113 0.975 150 108 77
-1620.8011 2417.7883 -532.3347 0.196 -0.101 0.975 147 101 71
-1617.4821 2420.6414 -535.4459 0.178 -0.127 0.976 140 89 49
-1627.1593 2448.3840 -546.8619 0.267 -0.124 0.956 135 75 37
-1521.2831 2405.4368 -570.0024 0.418 -0.744 -0.521 139 59 18
-1573.7330 2510.6887 -606.2476 0.575 -0.239 -0.782 139 59 18
-1428.8486 2497.3862 -663.7448 0.738 -0.468 0.486 149 76 43
-1419.1859 2490.0740 -663.9293 0.630 -0.657 0.414 150 81 49
-1414.6108 2490.7900 -666.3903 0.806 -0.401 0.436 139 77 48
-1402.0725 2494.7686 -674.2805 0.805 -0.305 0.508 110 59 38
-1181.6898 2561.2271 -810.9912 0.319 -0.936 0.150 107 58 35
-1178.4919 2563.9319 -813.9637 0.577 -0.539 -0.614 107 58 35
-1178.5803 2573.2085 -819.1943 0.635 -0.376 -0.675 96 47 24
-1131.8427 2560.6719 -833.0577 0.416 -0.417 0.808 120 67 44
-1125.2097 2565.3855 -838.7139 0.880 0.258 0.400 131 77 56
-1127.7738 2580.0916 -845.9174 0.896 0.287 0.339 127 74 53
-1129.3954 2592.9124 -852.4731 0.896 0.287 0.339 118 65 45
-1123.8018 2590.5408 -853.6373 0.948 0.185 0.259 101 51 30
-1122.8086 2597.9116 -858.2708 0.965 0.161 0.209 89 41 19
-1124.2465 2610.5156 -864.7858 0.966 0.121 0.229 78 26 8
-1098.8557 2713.7373 -934.8289 0.463 -0.232 0.855 98 59 49
-1094.5374 2714.2141 -937.0387 0.463 -0.232 0.855 95 59 48
-1094.8177 2725.2771 -943.1980 0.528 -0.418 0.739 99 61 48
-1089.2887 2722.9607 -944.3646 0.079 -0.665 0.742 109 63 45
-1084.1401 2721.4868 -945.8391 0.078 -0.689 0.720 136 81 60
-1080.4426 2723.3684 -948.5682 0.537 -0.389 0.749 139 80 56
-1058.8318 2683.2097 -935.4567 0.981 -0.149 0.125 139 81 55
-1030.5747 2699.7126 -957.5201 0.944 0.219 0.247 157 93 59
-1028.3452 2704.9407 -961.4913 0.983 0.181 -0.018 159 94 62
-1032.2036 2725.1282 -971.2278 0.969 0.159 0.190 161 96 63
-1032.4613 2736.6028 -977.6310 0.893 0.088 0.442 160 96 62
-1031.0732 2766.1199 -995.0236 0.844 0.132 0.520 168 99 74
-1029.9296 2774.3840 -1000.2322 0.844 0.131 0.520 169 100 72
-1029.5613 2784.6555 -1006.2329 0.925 0.117 0.362 168 100 75
-1025.5594 2785.7969 -1008.6783 0.976 0.141 0.164 166 99 75
-1032.3092 2814.2764 -1021.8273 0.962 0.120 0.245 166 97 72
-1033.1677 2827.9392 -1029.2040 0.961 0.179 0.211 167 97 71
-1035.2065 2844.7349 -1037.8304 0.983 0.150 0.110 163 99 75
-1036.2350 2859.0564 -1045.5050 0.982 0.164 0.099 141 86 70
-1035.9253 2870.0193 -1051.8723 0.959 0.204 0.197 115 69 60
-1036.9445 2884.5193 -1059.6525 0.955 0.192 0.224 89 51 45
-1039.3376 2902.7244 -1068.9205 0.932 0.208 0.296 67 34 30
-1041.1875 2919.6475 -1077.7043 0.922 0.188 0.337 47 19 18
-1044.8586 2941.5127 -1088.4780 0.927 0.226 0.299 35 12 15
-1044.0299 2951.6233 -1094.5942 0.927 0.220 0.303 27 7 15
-1045.0306 2966.6797 -1102.6986 0.965 0.153 0.214 17 4 9
-1046.7206 2983.6982 -1111.6084 0.981 0.042 0.190 12 7 5
-1052.7009 3012.3943 -1125.2261 0.970 0.114 0.216 9 10 4
-1024.5406 3233.1235 -1263.2711 0.606 -0.391 -0.693 29 11 7
-1025.1392 3249.6636 -1272.3992 1.000 0.031 -0.004 31 11 9
-1000.9537 3250.5522 -1283.7635 0.519 -0.355 0.777 51 24 24
-982.1857 3237.3955 -1284.7161 0.982 -0.013 -0.189 79 43 45
-982.8796 3254.7700 -1294.2753 0.989 0.069 -0.127 95 54 57
-990.9814 3295.7727 -1313.9319 0.987 0.156 -0.035 112 66 72
-998.6079 3335.6614 -1333.1691 0.984 0.174 -0.032 137 84 92
-1007.7713 3380.8611 -1354.7335 0.984 0.173 -0.032 168 107 118
-1020.4487 3470.9634 -1400.2303 0.915 -0.035 -0.403 159 83 92
-1030.8258 3521.6960 -1424.3931 0.891 -0.076 -0.448 162 77 81
-1036.7489 3558.2915 -1442.5242 0.893 -0.072 -0.444 167 76 78
-1052.6193 3628.1338 -1475.0770 0.882 -0.030 -0.470 175 70 79
-974.5399 3488.0312 -1430.5404 0.086 -0.765 -0.639 228 37 64
-1002.4585 3601.9187 -1482.7064 0.607 -0.316 -0.729 231 36 66
-2614.8689 1622.7404 359.2726 0.998 0.061 0.021 67 58 49
-2641.1255 1666.5632 346.0378 1.000 0.017 -0.007 82 72 63
-2640.1277 1670.4478 343.3765 1.000 0.027 -0.009 72 62 53
-2358.9949 1694.6221 203.7776 0.970 0.121 -0.210 197 178 164
-2284.1580 1760.7118 132.6048 0.938 0.114 -0.327 196 179 158
-2301.7847 1776.7065 131.3740 0.986 0.166 -0.031 198 182 170
-2302.7568 1781.9844 128.7999 0.986 0.166 -0.031 195 182 173
-2340.0710 1815.6848 126.2850 0.967 0.250 -0.043 145 133 120
-2344.5542 1823.3901 123.8982 0.965 0.150 -0.216 102 88 79
-2276.5425 1806.9652 102.8255 0.927 -0.127 -0.353 51 42 33
-2279.4207 1818.3855 97.6023 0.927 -0.126 -0.354 52 43 34
-2289.9661 1830.2639 95.5492 0.890 -0.117 -0.440 52 43 34
-2303.8386 1849.3053 90.9013 0.910 -0.336 0.243 52 44 33
-2157.8259 1903.2250 -5.1862 0.916 0.059 0.397 62 55 45
-2161.2598 1910.8464 -7.9948 0.909 0.179 -0.375 66 59 49
-2171.8506 1923.9093 -10.7028 0.909 0.232 -0.346 62 55 45
-2183.3079 1937.6964 -13.4360 0.888 0.176 -0.424 58 51 41
-2157.0083 1953.6797 -34.3188 0.737 -0.676 0.008 69 55 46
-2157.4302 1964.4242 -40.2559 0.773 0.208 0.599 77 63 54
-2165.3066 1975.8230 -43.2299 0.859 0.195 0.473 90 76 67
-2169.2712 1984.2070 -46.2358 0.866 0.207 0.454 109 95 86
-2171.1018 1990.9476 -49.2596 0.867 0.218 0.447 127 111 103
-2167.5322 2009.4894 -61.4287 0.555 -0.307 -0.773 191 149 155
-2229.0420 2075.2319 -71.3839 0.946 -0.203 0.254 191 151 156
-1753.2155 1810.6342 -133.4722 0.134 -0.729 0.672 65 49 45
-1765.6312 1831.1436 -139.6091 0.840 -0.062 -0.538 88 59 53
-1781.8522 1855.2344 -146.0849 0.926 0.224 -0.303 157 115 114
-1793.2534 1870.3013 -149.5729 0.933 0.193 -0.305 173 127 129
-1807.3284 1887.8363 -153.2714 0.954 0.189 -0.234 194 141 143
-2321.5986 2961.0603 -535.0137 0.009 -0.998 0.068 212 155 140
-2316.3286 2963.7805 -538.9231 0.012 -0.999 0.052 208 159 145
-2312.2886 2967.9360 -543.1005 -0.014 -0.994 0.111 201 153 139
-2134.3884 2877.7068 -571.2726 0.702 -0.421 0.575 94 46 36
-1744.1151 2419.9390 -484.9378 0.889 -0.353 0.292 89 41 27
-1773.3163 2463.4382 -496.6704 0.890 -0.363 0.277 89 42 26
-1775.6132 2473.6238 -501.4497 0.893 -0.332 0.304 95 48 32
-1780.0540 2486.5466 -506.8303 0.898 -0.168 0.406 109 62 46
-1763.1564 2494.9177 -519.1652 0.088 -0.100 0.991 153 108 85
-1622.6234 2393.4785 -524.2230 0.061 -0.367 0.928 164 124 98
-1630.3702 2447.5623 -551.5917 0.941 0.300 0.156 132 76 38
-1652.8920 2485.4329 -563.1043 0.848 0.268 0.456 133 69 33
-1651.6610 2498.9255 -571.3480 0.417 -0.112 0.902 136 61 26
-1525.0231 2405.6296 -574.8302 0.494 -0.734 -0.466 138 59 18
-1520.5280 2406.6384 -577.4171 0.311 -0.822 -0.478 138 59 18
-1517.5259 2409.7644 -580.5428 0.415 -0.790 -0.451 138 59 18
-1524.7178 2450.0645 -600.3012 0.903 -0.280 -0.327 138 59 18
-1513.3383 2448.7385 -604.6379 0.435 -0.894 -0.104 138 59 18
-1239.4432 2586.3164 -805.6544 0.797 0.248 0.550 99 63 38
-1188.7839 2560.1313 -813.3967 0.324 -0.935 0.147 99 53 29
-1184.7889 2561.2715 -815.8347 0.333 -0.932 0.143 100 54 30
-1182.4238 2611.6707 -845.6280 -0.355 -0.756 -0.550 94 46 23
-1180.9725 2618.0903 -849.9377 -0.352 -0.756 -0.552 97 47 24
-1129.8456 2541.1934 -828.9761 0.874 -0.267 0.406 106 56 33
-1132.0991 2555.0103 -835.8452 0.416 -0.417 0.808 112 62 39
-1122.4467 2553.3965 -839.2450 0.870 0.156 0.469 124 73 52
-1122.3611 2562.4783 -844.4611 0.898 0.287 0.334 128 77 56
-1121.9425 2580.2861 -854.8016 0.980 0.160 0.118 113 63 43
-1121.7844 2589.3801 -860.0572 0.993 0.114 -0.021 105 57 35
-1123.6302 2602.7974 -866.8810 0.991 0.077 -0.105 94 43 22
-1126.0741 2617.5857 -874.2188 0.993 0.077 -0.089 85 32 16
-1125.8928 2675.9741 -907.5898 0.954 -0.164 -0.250 36 5 1
-1127.2124 2688.8953 -914.3662 0.821 -0.196 -0.536 62 33 24
-1122.6256 2729.6868 -939.6761 0.193 -0.791 -0.580 121 79 64
-1107.5471 2705.9905 -932.9139 0.892 -0.084 0.444 131 86 71
-1102.0126 2703.7278 -934.1006 0.478 -0.228 0.848 133 88 72
-1097.7478 2704.3179 -936.3458 0.478 -0.228 0.848 126 82 67
-1093.9438 2705.9465 -938.9767 0.467 -0.233 0.853 123 82 67
-1089.6548 2706.4524 -941.1846 0.467 -0.233 0.853 126 82 66
-1088.8120 2714.8989 -946.3776 0.093 -0.695 0.713 131 80 59
-1083.1079 2712.1226 -947.3474 0.089 -0.704 0.704 139 80 56
-1078.2588 2711.2915 -949.0437 0.558 -0.545 0.626 143 79 53
-1057.9108 2674.1685 -936.9845 0.977 -0.147 0.151 144 80 52
-1056.2550 2680.6235 -941.4058 0.977 -0.147 0.151 144 83 54
-1048.5355 2672.8013 -940.4008 0.999 -0.032 0.034 151 90 61
-1055.8284 2700.4792 -952.9175 0.615 -0.312 0.724 151 90 62
-1049.5209 2706.5349 -959.1929 0.661 -0.560 0.500 154 91 60
-1045.3251 2707.0664 -961.3737 0.657 -0.556 0.509 156 93 59
-1041.4237 2708.2913 -963.8181 0.667 -0.547 0.507 157 93 57
-1039.6011 2714.5439 -968.1986 0.735 -0.474 0.485 158 92 58
-1035.7540 2737.4888 -983.0022 0.838 0.059 0.543 159 95 60
-1032.0085 2750.0925 -991.8644 0.901 0.056 0.431 166 97 68
-1030.6906 2757.8276 -996.8645 0.906 0.062 0.420 171 98 73
-1029.0000 2764.6787 -1001.5271 0.906 0.062 0.420 172 98 71
-1028.7153 2775.1025 -1007.5976 0.977 0.055 0.208 171 99 74
-1028.0295 2784.5859 -1013.3115 0.977 0.055 0.208 169 98 73
-1028.1294 2796.1260 -1019.8463 0.979 0.101 0.175 170 96 71
-1031.1903 2815.2930 -1029.4044 0.992 0.078 0.100 170 96 69
-1031.7896 2828.3125 -1036.5593 0.984 0.160 0.077 166 97 73
-1033.8512 2845.1892 -1045.2588 0.984 0.160 0.077 150 91 72
-1032.7478 2854.0222 -1050.7887 0.959 0.204 0.197 130 80 66
-1036.4022 2875.2615 -1061.2628 0.956 0.145 0.253 111 67 58
-1036.9886 2888.6748 -1068.6479 0.930 0.138 0.341 94 55 48
-1039.1102 2906.2104 -1077.6964 0.930 0.176 0.321 71 37 34
-1040.6196 2922.2749 -1086.1799 0.946 0.168 0.277 54 25 28
-1044.8041 2945.5388 -1097.5710 0.955 0.225 0.192 40 15 22
-1045.6227 2960.0549 -1105.4810 0.977 0.195 0.091 26 8 13
-1048.4043 2979.9226 -1115.5635 0.991 0.122 -0.052 15 7 6
-1045.0034 2983.3726 -1119.0526 0.855 -0.168 -0.491 10 10 4
-1047.9899 3029.6436 -1144.0974 0.908 -0.191 -0.373 9 9 3
-1019.9957 3166.8777 -1234.8693 0.902 -0.433 -0.015 25 12 6
-1017.2233 3187.2498 -1247.7250 0.858 -0.502 -0.106 25 12 6
-1002.1393 3259.4360 -1295.6322 0.498 -0.391 0.774 69 43 42
-983.8061 3247.7390 -1297.1680 0.986 0.164 0.039 96 57 60
-988.4161 3277.5601 -1312.1072 0.983 0.180 0.021 106 62 67
-995.5978 3315.8281 -1330.7115 0.985 0.169 -0.029 126 76 83
-1047.1371 3598.5562 -1468.8424 0.917 0.006 -0.399 171 72 79
-1070.3683 3729.6484 -1533.1875 0.884 -0.025 -0.466 205 66 87
-1080.5884 3782.5627 -1558.7826 0.882 -0.047 -0.469 212 62 83
-991.1578 3551.3154 -1466.9609 0.424 -0.428 -0.798 226 30 60
-948.5476 3509.3403 -1462.0984 0.416 -0.589 -0.693 242 21 62
-2786.0364 1521.2604 487.2603 0.346 -0.922 0.173 45 34 28
-2789.6702 1543.3354 476.2504 0.468 -0.862 0.194 47 34 28
-2789.6284 1547.4445 473.8807 0.336 -0.914 0.227 45 34 28
-2784.2681 1549.1754 470.4992 0.294 -0.913 0.285 46 36 27
-2740.7854 1533.7225 459.9455 0.777 -0.479 -0.408 46 37 28
-2293.5710 1758.7719 131.6971 0.967 -0.225 -0.116 199 178 155
-2295.9138 1764.8717 129.2519 0.960 0.130 -0.247 197 178 158
-2302.7529 1773.8955 127.1394 0.987 0.160 -0.014 193 177 165
-2335.2852 1799.5885 126.9496 0.964 0.259 -0.064 176 163 154
-2339.2119 1811.6024 121.8271 0.967 0.250 -0.043 91 79 67
-2345.8994 1820.7296 119.5877 0.964 0.151 -0.217 66 52 43
-2224.5745 1782.7538 87.1992 0.575 -0.153 0.804 52 43 34
-2107.6479 1847.3413 -1.9115 0.991 -0.122 0.050 58 50 39
-2145.9280 1885.6588 -6.7608 0.639 -0.578 -0.508 57 49 38
-2176.6885 1913.6835 -9.0750 0.737 -0.584 -0.342 51 44 34
-2162.4446 1908.0469 -12.2034 0.909 0.179 -0.375 52 45 35
-2169.7356 1918.5953 -14.9867 0.912 0.185 -0.365 70 63 53
-2180.8086 1937.1835 -20.6833 0.900 0.176 -0.399 112 105 95
-2163.8372 1955.1788 -38.5499 0.619 -0.782 -0.067 70 56 47
-2172.8638 1972.6310 -44.5092 0.321 -0.677 0.662 72 58 49
-2166.5825 1972.9877 -47.5150 0.950 -0.091 0.299 82 68 59
-2167.5330 1978.9951 -50.5284 0.967 -0.140 0.215 102 88 79
-2165.7634 1982.8872 -53.5447 0.939 -0.030 0.342 121 104 96
-2164.2930 1987.0238 -56.5674 0.936 -0.025 0.350 152 123 123
-2161.7317 1990.3077 -59.5889 0.932 -0.042 0.360 166 134 137
-2165.2000 1998.3800 -62.6606 0.594 -0.233 -0.770 173 139 145
-2173.4192 2010.2689 -65.7968 0.552 -0.307 -0.775 181 143 150
-2175.8484 2017.5942 -68.9047 0.719 -0.672 0.177 177 140 145
-2229.0537 2071.1848 -75.8353 0.946 -0.207 0.249 135 99 106
-2410.0774 2265.5935 -106.3247 0.924 -0.044 -0.380 47 37 46
-1769.3655 1830.9388 -143.4182 0.835 -0.066 -0.546 99 69 63
-1789.7567 1858.6832 -150.1973 0.951 0.058 -0.303 179 136 135
-1802.9462 1875.3242 -153.8356 0.936 0.170 -0.308 194 144 147
-1811.0342 1887.5173 -157.2044 0.944 0.175 -0.280 206 151 154
-1822.2603 1912.7635 -166.6423 0.947 -0.190 0.258 212 163 156
-2324.3125 2966.8428 -545.8163 0.036 -0.944 0.327 203 155 141
-2286.8384 3021.4580 -593.7811 0.672 -0.678 0.298 94 46 36
-2147.6611 2879.1870 -574.4579 0.552 -0.338 0.762 94 46 36
-1778.8217 2465.1694 -502.0900 0.185 -0.979 0.082 89 42 26
-1778.8188 2472.4866 -506.2779 -0.222 -0.958 0.181 102 55 37
-1809.1534 2517.7537 -518.6477 -0.078 -0.996 0.050 116 69 51
-1628.5482 2417.9807 -542.1197 0.178 -0.281 0.943 156 113 86
-1626.3125 2422.2942 -545.5850 0.938 0.321 0.132 137 91 51
-1616.3718 2416.3018 -546.5904 0.950 0.306 0.062 136 85 45
-1625.1299 2435.3770 -553.5981 0.954 0.269 0.133 132 77 38
-1639.6678 2462.3613 -562.5532 0.904 0.294 0.311 132 70 33
-1649.2828 2482.8545 -569.9901 0.834 0.298 0.465 133 62 28
-1638.7351 2476.0933 -570.8263 0.443 -0.226 0.868 136 60 28
-1510.1976 2401.5942 -585.5345 0.950 -0.302 -0.082 138 59 18
-1507.6421 2405.3342 -588.8143 0.954 -0.286 -0.087 138 59 18
-1500.7905 2417.7866 -598.9953 0.937 -0.279 0.209 138 59 18
-1185.6348 2621.2473 -855.9861 -0.365 -0.763 -0.534 95 47 24
-1180.8916 2621.0029 -857.9620 -0.367 -0.763 -0.531 95 47 24
-1174.7153 2617.8042 -858.8868 -0.347 -0.778 -0.524 95 47 24
-1133.6472 2542.8806 -834.3360 0.784 -0.377 0.493 99 51 28
-1119.2598 2540.5813 -839.4379 0.868 0.154 0.471 115 67 44
-1118.6090 2548.4192 -844.2129 0.882 0.152 0.446 131 81 60
-1120.9158 2562.5049 -851.2434 0.929 0.086 0.359 133 80 64
-1118.7219 2567.2102 -854.9142 0.786 -0.405 -0.467 130 79 60
-1118.1683 2575.4036 -859.8491 0.940 -0.041 -0.339 126 78 56
-1120.9833 2590.7983 -867.4020 0.942 -0.038 -0.333 112 61 40
-1122.7787 2604.1274 -874.2278 0.941 -0.020 -0.338 105 52 35
-1131.3364 2632.0291 -886.3751 0.989 0.126 -0.073 89 39 24
-1129.1908 2676.5212 -912.7894 0.821 -0.211 -0.531 49 13 4
-1126.8053 2711.6211 -933.9366 0.318 -0.936 -0.154 86 46 35
-1129.0665 2726.9146 -941.6786 0.202 -0.884 -0.422 110 66 48
-1125.4429 2729.1145 -944.5536 0.202 -0.884 -0.422 118 71 52
-1123.3569 2734.7764 -948.7236 0.235 -0.883 -0.407 126 77 57
-1101.1422 2694.9133 -935.8240 0.465 -0.230 0.855 133 82 63
-1095.7085 2692.8235 -937.0519 0.462 -0.239 0.854 138 89 72
-1092.1310 2694.9309 -939.8536 0.482 -0.227 0.847 138 91 72
-1093.6561 2708.7334 -947.0707 0.118 -0.700 0.704 139 90 69
-1089.4697 2709.4832 -949.3671 -0.257 -0.864 0.433 142 88 64
-1082.5642 2703.9294 -949.2696 -0.220 -0.829 0.514 141 81 55
-1077.3716 2702.2839 -950.6442 0.101 -0.723 0.683 143 79 52
-1051.2689 2651.8210 -933.4139 0.569 -0.544 0.616 143 79 51
-1043.2788 2653.5540 -937.9694 0.535 -0.562 0.631 154 90 62
-1045.9388 2712.1038 -970.2836 0.511 -0.233 0.828 158 92 57
-1035.9976 2698.7500 -967.0773 0.681 -0.537 0.498 158 92 58
-1033.1671 2702.5176 -970.4954 0.894 -0.443 -0.070 161 92 59
-1031.7524 2709.7493 -975.2642 0.892 -0.452 -0.010 161 95 61
-1023.1170 2699.3362 -973.1580 0.720 0.125 0.682 161 95 60
-1021.2021 2705.3433 -977.4493 0.813 0.178 0.555 162 96 62
-1022.5326 2719.4043 -984.9012 0.800 0.210 0.562 166 96 66
-1021.7217 2728.2539 -990.3263 0.798 0.202 0.568 172 98 73
-1021.1432 2737.7407 -996.0125 0.802 0.191 0.565 172 97 71
-1020.5459 2747.2444 -1001.7167 0.817 0.193 0.544 172 99 74
-1028.1899 2777.5559 -1015.6504 0.964 0.090 0.249 170 97 73
-1029.8456 2792.9800 -1023.7372 0.988 -0.026 0.151 170 96 71
-1027.8733 2799.3074 -1028.2373 0.988 -0.028 0.154 171 96 69
-1026.9940 2808.4585 -1033.8656 0.978 0.074 0.194 168 97 72
-1026.9191 2819.7329 -1040.3499 0.964 0.124 0.236 159 96 75
-1027.6316 2833.1162 -1047.6897 0.944 0.180 0.278 148 92 75
-1030.9691 2853.3918 -1057.8020 0.862 0.289 0.417 135 86 72
-1032.0416 2867.9443 -1065.6501 0.862 0.289 0.417 123 79 68
-1034.0216 2884.9783 -1074.5134 0.907 0.251 0.337 98 59 53
-1035.7822 2901.5718 -1083.2224 0.916 0.249 0.316 77 42 41
-1038.8672 2921.7874 -1093.4132 0.925 0.280 0.257 56 26 29
-1042.0823 2942.5127 -1103.8375 0.961 0.242 0.133 35 13 15
-1048.0859 2970.8284 -1117.3611 0.971 0.222 0.085 19 7 6
-1050.9197 2990.9121 -1127.5884 0.991 0.121 -0.065 13 8 4
-1051.3484 3004.7004 -1135.2865 0.888 -0.149 -0.435 12 9 4
-1055.7759 3029.3860 -1147.4360 0.744 -0.218 -0.631 13 8 4
-1054.3855 3038.5046 -1153.2737 0.844 -0.165 -0.509 13 7 3
-1056.6287 3057.5842 -1163.1899 0.860 -0.175 -0.480 12 8 3
-1001.6920 3293.8452 -1322.8768 0.361 -0.759 0.541 97 57 61
-1002.9202 3313.1826 -1333.3933 0.501 -0.544 -0.673 102 58 63
-992.0046 3294.2676 -1327.4396 0.991 0.115 -0.066 110 59 66
-1036.0065 3567.9395 -1464.4001 0.806 -0.099 -0.584 180 68 80
-1060.2510 3665.8706 -1509.6194 0.874 -0.037 -0.484 191 63 80
-1072.1672 3723.6919 -1537.3878 0.880 -0.035 -0.474 199 60 81
-1086.5948 3790.5293 -1569.1949 0.878 -0.044 -0.476 206 56 77
-1023.3241 3613.8601 -1496.3317 0.187 -0.680 0.709 212 26 54
-948.1457 3532.2891 -1483.1924 0.027 -0.842 -0.539 243 21 62
-945.4532 3540.8203 -1489.2748 0.015 -0.842 -0.540 246 24 65
-2786.0186 1514.0917 484.8923 0.496 -0.745 0.446 47 38 29
-2784.3440 1517.4116 482.2415 0.602 -0.733 0.318 48 37 31
-2818.6465 1548.9258 479.3959 0.064 -0.849 -0.524 51 40 34
-2790.2434 1544.5635 469.2736 0.388 -0.899 0.205 51 40 34
-2783.7119 1545.7698 465.6772 0.018 -0.993 -0.114 50 40 31
-2743.3254 1531.7506 455.7723 0.782 -0.520 -0.343 46 37 28
-2745.5278 1536.8259 453.8372 0.942 -0.331 -0.051 46 37 28
-2748.5864 1554.6711 444.9502 0.988 0.153 -0.028 48 39 30
-2752.6992 1564.8607 440.9278 0.908 -0.417 0.036 50 41 32
-2751.4595 1568.4594 438.3103 0.913 -0.405 0.050 53 44 35
-2693.6411 1604.2572 392.0507 0.979 0.204 0.013 64 54 45
-2357.9519 1669.9803 205.0743 0.954 -0.256 -0.153 123 104 90
-2357.2998 1673.9430 202.5090 0.954 -0.256 -0.153 164 145 131
-2357.9727 1678.6952 200.0794 0.709 -0.346 -0.615 182 164 150
-2358.9045 1683.6154 197.6685 0.712 -0.350 -0.608 192 173 159
-2278.9268 1732.4276 134.0847 0.965 -0.231 0.121 197 177 153
-2296.3560 1752.5781 130.2627 0.860 -0.471 -0.195 198 178 154
-2296.9011 1757.5028 127.6772 0.982 -0.186 -0.027 199 178 154
-2298.3225 1763.0056 125.1494 0.960 0.119 -0.255 195 177 156
-2303.0916 1770.6825 122.8616 0.987 0.160 -0.022 175 159 146
-2303.9922 1775.8953 120.2688 0.987 0.160 -0.022 146 132 124
