ply
format ascii 1.0
element vertex 783
property float x
property float y
property float z
property float nx
property float ny
property float nz
property uchar diffuse_red
property uchar diffuse_green
property uchar diffuse_blue
end_header
-3261.0032 3327.0352 1423.9081 -0.234 -0.764 0.601 185 131 91
-3228.7310 3302.8840 1407.4875 -0.225 -0.787 0.575 184 140 110
-3233.7664 3319.2788 1406.7037 -0.181 -0.760 0.624 127 98 80
-3171.5056 3305.4839 1366.3334 0.364 -0.717 0.595 108 84 75
-3157.9321 3301.3508 1357.8307 0.360 -0.709 0.606 107 83 75
-3222.1096 3498.2312 1351.0387 0.706 -0.405 0.581 197 160 146
-3198.3689 3494.1545 1335.3315 -0.109 -0.594 0.797 197 159 143
-3193.9329 3559.8323 1314.7900 -0.210 -0.615 0.760 181 166 161
-2978.3650 3316.4663 1226.8494 0.640 -0.429 0.638 183 170 165
-3573.0803 4481.1870 1338.7346 -0.246 -0.422 -0.873 183 164 140
-3350.0293 4275.9844 1235.3893 0.769 -0.534 0.351 174 159 146
-3263.0759 4368.3369 1149.4293 0.326 -0.938 0.118 207 171 154
-3344.7422 5781.0400 832.8120 0.911 -0.120 0.394 186 153 148
-3367.1794 5866.6553 825.9898 0.824 -0.208 0.527 186 153 148
-3105.0815 5587.1470 714.7244 0.583 -0.315 0.749 147 118 111
-3028.0833 5464.8052 692.6978 0.731 -0.641 -0.233 123 105 98
-3030.9561 5491.9805 687.5278 -0.100 -0.994 -0.045 120 103 97
-3016.0725 5485.7358 678.6581 0.806 -0.568 -0.169 68 52 46
-3007.7036 5491.7715 671.1411 -0.160 -0.987 0.020 38 23 17
-3022.3665 5541.7134 668.2748 -0.317 -0.842 -0.436 33 17 12
-2626.2168 5488.9780 402.1240 0.905 -0.278 -0.323 151 109 96
-2664.8242 5719.0586 368.4529 0.491 0.009 -0.871 167 122 107
-2525.5842 5805.8032 247.0063 0.774 -0.468 -0.426 139 83 69
-2425.1997 5773.0239 184.7087 0.977 -0.120 0.174 122 78 68
-2427.9580 5999.1069 126.7473 0.508 -0.773 -0.380 26 16 5
-2405.3955 5969.2979 118.6922 0.343 -0.861 -0.376 22 12 3
-2391.1521 5988.9858 103.4032 0.480 -0.682 0.552 28 18 7
-2391.7986 6019.1768 95.8597 0.661 -0.743 -0.105 29 18 7
-2255.3616 5744.6914 72.1207 0.565 -0.715 -0.413 49 32 23
-2032.1708 5306.1436 30.5128 -0.588 -0.761 -0.275 183 165 161
-1994.2972 5333.0420 -3.3964 0.791 -0.612 -0.001 234 215 213
-1988.4897 5343.3882 -10.2448 0.790 -0.613 0.000 244 225 224
-1967.1932 5336.8433 -23.5696 0.030 -0.910 -0.413 225 210 211
-1896.2881 5322.0103 -69.7772 0.508 -0.778 -0.369 247 236 240
-1895.5605 5347.2803 -76.9883 0.408 -0.862 -0.299 230 222 227
-1885.9801 5346.5713 -83.5750 0.436 -0.835 -0.336 248 241 245
-1881.6016 5361.2686 -90.5659 0.431 -0.851 -0.301 252 246 250
-1869.6425 5381.3467 -104.3432 0.485 -0.821 -0.301 254 248 252
-1346.8315 4349.0029 -200.4632 -0.033 -0.906 0.422 253 250 253
-4345.6040 2833.4453 2309.7412 0.313 -0.241 -0.919 167 168 162
-4348.0557 2843.9524 2308.6658 0.336 -0.227 -0.914 170 171 165
-4339.5327 2855.6038 2299.5381 -0.027 -0.332 -0.943 186 187 181
-4447.7896 3167.5554 2292.6367 0.549 -0.688 -0.475 184 190 184
-4436.1201 3188.1565 2278.8984 0.510 -0.767 -0.388 194 196 191
-4470.4409 3409.2144 2244.0862 0.718 -0.673 -0.177 197 199 194
-4541.4131 3477.3870 2275.9731 0.615 -0.660 -0.432 189 191 186
-4658.3770 3605.6133 2324.2834 0.470 -0.516 -0.716 73 75 70
-4697.7412 4030.8730 2238.4963 0.072 -0.549 0.832 11 13 10
-3063.0447 2699.5144 1440.2581 -0.258 -0.728 0.635 18 16 6
-3087.4175 2731.4573 1448.9301 -0.356 -0.808 0.469 30 19 13
-2957.4160 2624.6021 1385.7101 0.857 -0.417 -0.304 40 18 14
-2955.3655 2631.1528 1382.5133 0.857 -0.417 -0.304 44 14 12
-2958.0635 2642.3000 1381.4406 0.758 -0.116 -0.642 80 32 25
-2959.4275 2652.2043 1379.7582 0.761 -0.118 -0.638 127 54 42
-2959.2336 2660.6375 1377.3693 0.760 -0.121 -0.639 154 57 48
-2879.0879 2608.2612 1334.7888 -0.659 -0.748 -0.074 203 54 68
-2823.4211 2612.8547 1294.2716 0.800 -0.310 0.514 159 121 119
-2846.9185 2653.6455 1299.9626 0.455 -0.386 0.802 203 176 177
-2830.3369 2645.6196 1290.4026 0.570 -0.367 0.735 207 182 184
-2830.4187 2663.0996 1285.7921 0.302 -0.465 0.832 215 198 190
-2928.4521 2930.9209 1283.4603 -0.692 -0.703 -0.165 195 143 100
-3207.8069 3294.9468 1383.4155 0.198 -0.734 0.650 41 31 24
-3152.2585 3288.1235 1346.0309 0.254 -0.564 0.786 59 49 44
-3129.1531 3273.3030 1333.6808 0.241 -0.574 0.783 49 39 30
-3106.0239 3379.8989 1288.8881 0.514 -0.516 0.685 209 155 137
-3035.3398 3399.4080 1233.7877 -0.121 -0.621 0.775 176 167 161
-2925.2646 3301.7932 1182.1643 -0.111 -0.634 0.765 186 165 159
-2916.0828 3404.5986 1148.2280 0.733 -0.367 0.573 188 162 145
-3625.5151 4524.1162 1349.9750 -0.080 -0.290 -0.954 182 169 144
-3372.5046 4237.1060 1248.0458 0.760 -0.588 0.276 180 170 142
-3357.3540 4231.6982 1238.7965 0.567 -0.636 0.524 181 168 142
-3355.0806 4243.3271 1234.0863 0.565 -0.632 0.530 181 167 146
-3361.5159 4296.2715 1224.4889 0.617 -0.392 -0.683 203 198 195
-3318.3125 4342.9126 1181.5391 -0.049 -0.409 -0.911 246 157 165
-3278.1531 5516.7417 839.7074 0.757 -0.285 0.589 186 153 148
-3292.1890 5605.5488 825.8970 0.724 -0.266 0.636 121 90 87
-3275.2886 5597.1963 816.1991 0.731 -0.263 0.630 174 143 140
-3272.6821 5614.2124 809.8151 0.728 -0.262 0.634 196 165 162
-3269.9690 5631.1226 803.3842 0.725 -0.268 0.634 194 163 160
-3321.1323 5744.8516 809.1232 0.601 -0.475 0.643 194 163 160
-3101.5566 5564.4629 702.3182 0.553 -0.358 0.752 168 136 131
-3065.2517 5518.5645 688.9514 -0.323 -0.916 -0.237 150 122 118
-3013.5034 5464.9297 666.7505 0.852 -0.502 -0.152 114 87 83
-3002.3860 5487.5269 652.8687 -0.126 -0.990 -0.057 56 30 26
-2774.3142 5393.5459 516.9908 -0.253 -0.769 -0.586 44 34 26
-2790.0591 5516.0166 495.3964 0.914 -0.235 -0.332 107 80 75
-2630.2415 5480.0117 392.2102 0.905 -0.283 -0.317 166 122 114
-2645.0581 5705.7065 342.3933 0.312 -0.935 -0.169 168 117 103
-2385.9800 5953.5254 93.3484 0.391 -0.829 0.400 36 23 8
-2210.6514 5714.2993 33.4872 0.909 -0.302 0.289 196 172 164
-2013.9156 5313.9199 1.5546 0.749 -0.644 0.155 184 159 158
-2010.3395 5330.3218 -5.3498 0.730 -0.497 0.469 223 198 197
-2003.6838 5338.2769 -12.1721 0.757 -0.513 0.404 235 210 208
-1884.7727 5376.3350 -106.2653 0.246 -0.148 -0.958 242 231 237
-1892.4686 5455.5981 -122.0017 0.247 -0.157 -0.956 251 241 246
-1864.2556 5398.9194 -126.7781 0.320 -0.597 -0.736 251 241 246
-1893.8030 5516.9590 -137.4471 -0.462 -0.885 0.058 244 233 239
-1561.9487 5001.2231 -233.9413 0.457 -0.878 0.139 255 246 251
-4358.1890 2855.1382 2300.8726 -0.149 -0.324 -0.934 184 185 179
-3475.3569 2270.5066 1836.2448 0.609 -0.709 -0.355 183 184 178
-4427.1182 3195.4995 2257.8347 0.432 -0.774 -0.463 183 185 180
-4521.6089 3433.8855 2260.2490 0.654 -0.724 0.221 196 198 193
-4470.3667 3403.1511 2232.4197 0.712 -0.667 -0.218 197 199 194
-4651.6982 3593.7888 2308.8650 0.247 -0.751 -0.612 74 76 71
-4654.1084 3629.3042 2301.0049 0.006 -0.536 -0.844 16 18 15
-4483.5020 3759.2483 2145.8394 0.899 -0.308 -0.312 24 26 23
-4483.7583 3771.2385 2142.7927 0.898 -0.303 -0.319 17 17 15
-3052.1235 2683.9214 1426.8110 -0.258 -0.728 0.635 18 16 7
-2964.7651 2618.0103 1383.0043 0.785 -0.256 -0.564 37 17 14
-2958.8118 2620.8047 1378.0580 0.852 -0.431 -0.298 37 12 8
-2956.6792 2627.2605 1374.8181 0.852 -0.431 -0.298 64 31 28
-2967.0735 2645.7876 1377.1550 0.918 -0.220 -0.331 122 58 53
-2968.3096 2655.5679 1375.3938 0.920 -0.212 -0.330 171 68 61
-2964.3608 2660.3682 1371.3199 0.760 -0.121 -0.639 193 63 58
-2885.8042 2618.1648 1327.3336 -0.669 -0.730 -0.141 221 46 58
-2794.0112 2561.4741 1277.9211 0.082 -0.996 -0.023 136 52 57
-2816.9500 2592.6782 1285.6840 0.590 -0.555 0.586 172 116 117
-2804.1001 2639.7078 1263.9744 0.522 -0.385 0.761 204 205 205
-2820.6633 2736.2612 1249.6586 0.537 -0.411 0.737 30 84 127
-3206.2061 3286.3586 1373.2338 0.198 -0.734 0.650 29 21 15
-3067.3821 3240.5193 1287.7670 0.478 -0.568 0.670 121 100 89
-3052.7991 3311.2412 1258.4600 0.460 -0.388 0.799 177 128 111
-3043.2065 3311.2300 1251.7050 0.464 -0.386 0.797 181 132 116
-3032.0781 3309.4104 1244.3545 0.464 -0.386 0.797 182 133 116
-3020.9861 3307.5969 1237.0281 0.464 -0.386 0.797 179 134 116
-3009.7217 3305.5459 1229.6442 0.460 -0.391 0.797 175 144 132
-3001.0288 3306.4709 1223.2709 0.461 -0.392 0.796 179 163 154
-2992.7400 3307.8528 1217.0594 0.472 -0.387 0.792 172 163 161
-2981.9756 3306.2981 1209.8940 0.472 -0.387 0.792 173 163 163
-2968.6948 3301.7312 1201.7667 0.467 -0.388 0.794 176 165 163
-2986.9082 3334.4988 1205.7797 -0.116 -0.602 0.790 175 167 161
-2972.7898 3328.9456 1197.3278 -0.121 -0.612 0.782 172 165 159
-2928.9685 3287.8445 1177.5164 -0.110 -0.617 0.779 168 157 156
-2875.8323 3268.3606 1145.3248 0.868 -0.208 0.451 186 152 147
-2834.4863 3229.2832 1126.7126 0.982 -0.164 -0.099 180 147 142
-2933.7393 3384.0850 1154.9767 0.157 -0.564 0.811 188 154 149
-2923.1594 3440.8105 1132.2568 0.927 -0.174 0.332 192 162 143
-3115.6057 3835.7959 1161.5376 0.495 -0.716 0.491 184 169 147
-3092.9121 3845.9241 1142.8239 0.891 -0.434 0.133 183 171 149
-3253.6128 5295.1177 866.0263 0.891 0.135 -0.434 196 165 160
-3254.3184 5544.5190 799.4034 0.729 -0.312 0.610 183 152 149
-3258.7263 5573.7764 794.6349 0.737 -0.256 0.626 195 164 161
-3256.6406 5591.6255 788.3618 0.736 -0.258 0.626 194 163 160
-3059.8140 5492.4922 676.3741 0.947 -0.237 -0.217 177 147 143
-2781.3997 5369.2349 513.3991 -0.497 -0.725 -0.477 54 40 33
-2751.2463 5352.5396 496.6488 -0.511 -0.739 -0.439 81 67 59
-2760.2319 5392.9668 492.0992 -0.057 -0.772 -0.634 108 92 85
-2757.7625 5410.2856 485.6987 -0.076 -0.797 -0.599 131 113 106
-2745.5283 5407.6812 477.7805 -0.027 -0.821 -0.571 146 116 112
-2694.5229 5822.6924 330.1568 0.319 -0.908 -0.271 169 117 103
-2436.2788 5706.9805 179.3613 0.521 -0.843 -0.136 137 92 73
-2025.7386 5299.7261 -0.2675 0.749 -0.644 0.155 189 163 162
-2018.6454 5306.3447 -7.0460 0.749 -0.644 0.155 162 136 135
-2000.8005 5309.5044 -20.4683 0.925 -0.365 0.103 240 214 213
-2003.7661 5344.1025 -27.6902 0.935 -0.274 0.225 234 210 208
-1986.0625 5347.7856 -41.1539 0.808 -0.589 0.008 200 180 183
-1967.1736 5347.9897 -54.5163 -0.487 -0.867 0.109 210 189 194
-1951.8682 5331.3228 -60.8136 -0.675 -0.730 -0.106 222 201 206
-1938.4446 5319.8335 -67.1786 -0.675 -0.730 -0.106 165 146 150
-1908.3347 5452.1519 -124.0016 0.246 -0.148 -0.958 246 235 241
-4338.5405 2943.8462 2251.0571 0.741 -0.613 0.274 186 189 182
-3891.1365 2735.7830 1992.8604 0.938 0.086 -0.335 184 191 184
-4527.0259 3432.2136 2251.1650 0.690 -0.693 0.207 196 198 193
-4463.1147 3391.3196 2217.3118 0.704 -0.691 -0.165 197 199 194
-4473.9932 3410.6367 2219.7231 0.656 -0.694 -0.298 189 191 186
-4524.3804 3462.0815 2241.2051 0.678 -0.424 -0.601 158 160 155
-4626.1133 3555.5654 2287.3936 0.266 -0.709 -0.654 114 116 111
-4654.2476 3589.5303 2297.9670 0.204 -0.762 -0.614 74 76 71
-4648.8110 3629.7336 2283.2417 0.605 -0.483 -0.632 13 15 12
-4651.7085 3643.3850 2281.5774 0.654 -0.589 -0.474 13 15 12
-3293.1204 2779.4302 1560.4919 0.115 -0.902 -0.417 12 14 11
-3028.9224 2665.3521 1405.6409 -0.232 -0.916 -0.327 31 19 15
-2932.1235 2581.8401 1360.2178 0.811 -0.032 -0.584 32 13 9
-2944.8818 2602.3899 1363.6168 0.716 -0.099 -0.691 32 8 5
-2945.5488 2611.4661 1361.6246 0.716 -0.099 -0.691 78 47 42
-2948.4075 2622.6816 1360.5934 0.719 -0.100 -0.688 149 72 70
-2955.8650 2638.3745 1361.5819 0.760 -0.091 -0.643 191 64 63
-2968.3984 2659.0459 1364.7898 0.739 -0.132 -0.660 210 54 53
-2912.8284 2622.3210 1335.6714 -0.136 -0.863 -0.487 230 41 52
-2870.8665 2589.9392 1314.9447 -0.350 -0.904 -0.246 235 41 54
-2836.6147 2573.2478 1295.3850 0.243 -0.845 0.476 219 47 57
-2822.0471 2575.6982 1284.4764 0.445 -0.765 0.466 134 52 53
-2809.8149 2572.0063 1276.8756 0.377 -0.793 0.479 104 50 50
-2795.9521 2566.6538 1268.5787 0.227 -0.949 0.217 143 108 106
-2790.8684 2569.9912 1264.0988 0.420 -0.778 -0.468 153 138 136
-2789.3074 2585.2903 1258.8522 0.508 -0.520 -0.687 171 168 180
-2785.6997 2590.1387 1255.0005 0.509 -0.513 -0.691 174 166 180
-2791.6125 2613.1384 1252.9213 0.969 -0.054 -0.241 165 182 191
-2789.0095 2619.0752 1249.4808 0.892 -0.333 -0.306 178 202 211
-3162.6633 3242.8096 1343.0924 0.157 -0.672 0.723 46 36 28
-3126.0510 3234.6902 1319.5480 -0.040 -0.739 0.672 63 53 44
-3050.7515 3225.6929 1269.0364 0.993 -0.114 -0.031 126 102 95
-3049.7537 3235.3052 1265.7280 0.993 -0.114 -0.031 124 98 91
-3064.2461 3284.3054 1262.6312 0.977 -0.173 0.121 154 121 107
-3055.3669 3285.1082 1256.1696 0.524 -0.429 0.735 149 116 99
-2949.6980 3272.1121 1185.3861 0.540 -0.359 0.761 102 92 90
-2921.6040 3260.8435 1168.6862 -0.019 -0.567 0.823 139 131 126
-2895.7097 3251.9634 1152.8850 -0.012 -0.740 0.672 164 147 144
-2863.7261 3224.6025 1137.8135 0.446 -0.593 0.670 165 142 139
-2841.7896 3209.1365 1126.5817 0.819 -0.380 0.429 168 141 136
-2830.4307 3217.2239 1116.4009 0.983 -0.164 -0.083 173 141 131
-2939.8591 3384.0574 1148.1097 0.311 -0.481 0.820 205 168 152
-2897.6702 3401.3013 1113.7657 0.956 -0.216 0.200 195 162 138
-3148.9832 3857.0181 1166.9094 0.878 -0.440 0.190 183 167 144
-3109.8904 3832.7837 1145.9908 0.500 -0.716 0.487 183 168 151
-3092.2419 3822.9814 1136.2384 0.893 -0.420 0.161 181 168 151
-3090.7061 3834.1838 1132.1204 0.890 -0.428 0.153 186 173 155
-3088.2637 3844.2412 1127.6754 0.994 -0.107 -0.008 194 181 163
-3359.2646 4229.2969 1213.8259 0.602 -0.639 0.479 218 203 189
-3366.4905 4282.9937 1204.3456 0.084 -0.268 -0.960 216 215 212
-2335.7034 3284.0640 750.3768 -0.242 -0.863 0.444 208 168 167
-3225.4475 5478.1680 781.0513 0.425 -0.315 0.849 196 165 162
-3211.6697 5474.8818 772.2539 0.413 -0.322 0.852 196 165 162
-3217.6201 5506.6289 767.8290 0.402 -0.330 0.854 194 163 160
-3223.3044 5538.0967 763.2927 0.786 -0.352 0.508 194 163 160
-2776.3262 5431.4497 477.8931 -0.395 -0.721 -0.569 157 134 129
-2743.7671 5409.7939 460.8699 -0.246 -0.697 -0.673 106 75 70
-2633.7729 5338.2026 402.9351 0.806 0.130 -0.578 167 123 117
-2665.3926 5839.3384 289.2708 -0.089 -0.790 -0.607 163 107 90
-2017.2239 5282.0190 -15.3934 0.919 -0.274 0.285 170 144 143
-1991.8925 5343.1060 -49.7726 0.920 -0.347 0.183 190 170 173
-1978.3795 5331.7920 -56.2069 0.288 -0.948 -0.132 206 185 190
-1976.0336 5351.8643 -63.2997 -0.487 -0.867 0.109 211 190 195
-1749.4907 5517.8013 -267.6068 0.210 -0.787 0.580 243 232 238
-3865.9075 2686.7825 1977.4653 0.900 0.016 -0.436 189 194 188
-3891.9956 2723.2175 1985.8214 0.914 0.014 -0.405 188 193 187
-3895.8647 2734.6338 1985.4177 0.914 0.011 -0.405 175 182 175
-4467.6074 3388.9797 2207.9380 0.704 -0.691 -0.165 197 199 194
-4478.6650 3408.4111 2210.3899 0.717 -0.634 -0.290 193 195 190
-4653.6714 3571.6877 2288.6155 0.430 -0.603 -0.672 129 131 126
-4673.0112 3598.4900 2294.8672 0.354 -0.725 -0.591 83 85 80
-4678.8394 3614.3845 2294.6147 0.420 -0.707 -0.569 58 60 57
-4680.0308 3637.7705 2289.0613 0.856 -0.452 -0.252 21 23 20
-4673.1470 3643.3604 2282.7019 0.842 -0.429 -0.328 12 14 11
-4675.0854 3656.2456 2280.5420 0.855 -0.448 -0.261 9 11 8
-3332.1262 2800.5730 1571.7057 0.598 -0.755 -0.268 12 14 11
-3301.3276 2781.6133 1555.2684 0.099 -0.905 -0.414 10 12 7
-3311.5510 2799.7817 1557.4800 0.713 -0.652 -0.257 23 24 20
-3326.2476 2822.1121 1561.6941 0.938 -0.304 -0.166 54 54 54
-3325.2637 2830.2251 1558.7866 0.936 -0.308 -0.169 48 48 46
-3344.0378 2865.5981 1562.2992 0.512 -0.852 0.113 20 20 18
-3335.6116 2866.9861 1556.0055 0.556 -0.819 0.139 14 14 12
-2953.0825 2596.7219 1361.3503 0.719 -0.097 -0.688 31 12 8
-2953.9519 2605.9575 1359.4373 0.724 -0.096 -0.683 26 2 0
-2967.2300 2661.3086 1353.6331 0.165 -0.885 -0.435 210 46 51
-2827.3557 2567.4304 1281.1049 0.346 -0.792 0.503 162 59 61
-2819.4565 2568.0264 1275.3975 0.400 -0.782 0.479 101 48 47
-2810.0830 2567.1497 1269.0576 0.377 -0.793 0.479 88 61 59
-2800.1172 2565.6609 1262.4694 0.258 -0.939 0.227 106 95 91
-2794.7625 2568.7266 1257.8732 0.270 -0.941 0.205 73 78 73
-2788.9526 2571.3372 1253.0818 0.514 -0.850 0.115 66 77 81
-2793.5784 2618.4202 1243.4637 0.903 -0.417 -0.104 113 165 185
-2796.6848 2630.1641 1242.4353 -0.055 -0.627 -0.777 96 150 176
-3159.9541 3233.1284 1332.6648 0.159 -0.675 0.720 55 46 39
-3129.4468 3221.0369 1314.5553 -0.189 -0.982 -0.027 35 26 19
-3059.2954 3260.8157 1254.4460 0.917 -0.071 -0.394 114 95 82
-3056.1243 3268.0718 1250.2375 0.917 -0.070 -0.392 68 47 36
-3049.1499 3271.0063 1244.5404 0.337 -0.444 0.831 60 40 28
-3034.8994 3265.5994 1236.0151 0.337 -0.444 0.830 53 31 20
-2868.7239 3212.6292 1133.8481 0.429 -0.574 0.697 55 43 39
-2851.9912 3203.4697 1124.6058 0.448 -0.563 0.694 75 58 53
-2820.1355 3197.6702 1103.8307 0.931 -0.307 0.200 127 96 79
-2818.6829 3206.7808 1100.3218 0.526 -0.442 0.727 130 94 73
-2798.8948 3204.4985 1087.0558 0.943 -0.216 0.253 148 105 76
-2911.8999 3470.2083 1093.7731 0.746 -0.246 0.619 193 164 141
-3075.7644 3792.7578 1120.6584 0.975 -0.157 0.158 192 179 170
-3102.3853 3867.2317 1118.9948 0.977 -0.147 0.154 219 205 196
-3333.1160 4185.0625 1194.1035 0.267 -0.953 -0.145 226 212 206
-3324.7542 4188.4434 1187.3105 0.267 -0.953 -0.145 229 220 220
-3383.5803 4295.8555 1199.2522 0.084 -0.268 -0.960 225 223 224
-2313.6946 3266.7183 729.4869 -0.390 -0.892 0.228 200 161 152
-2300.8264 3259.2981 722.4822 -0.390 -0.892 0.228 201 164 154
-3125.8247 5561.5796 672.4849 0.560 -0.331 0.759 197 165 160
-3098.7700 5533.2739 661.2290 0.694 -0.267 0.668 188 158 154
-2557.9170 5456.2515 302.6433 -0.326 -0.742 -0.586 173 121 107
-2448.4624 5696.5986 160.1435 0.658 -0.695 0.290 96 51 32
-2420.7542 5733.2446 130.6816 0.662 -0.747 0.065 133 88 69
-2393.8594 5719.3843 115.5911 0.250 -0.665 0.704 140 101 83
-2246.0701 5689.2891 20.0792 0.947 -0.110 0.302 186 162 152
-2031.6174 5300.9141 -24.3285 -0.253 -0.861 0.442 190 164 163
-2020.1426 5295.5322 -30.9123 -0.286 -0.867 0.407 139 113 112
-1984.9076 5355.7451 -72.0967 -0.487 -0.867 0.109 134 115 119
-1936.2015 5461.7305 -135.2435 0.249 -0.139 -0.959 219 208 214
-4400.2983 2978.6455 2260.5913 0.725 -0.634 -0.269 186 189 182
-3870.8025 2685.8259 1970.2301 0.756 0.019 -0.654 189 194 188
-3902.6077 2735.0061 1978.9742 0.912 0.010 -0.409 175 182 175
-3904.8337 2745.2139 1977.7236 0.910 0.009 -0.413 183 188 182
-4469.2002 3384.3162 2197.1865 0.702 -0.693 -0.162 197 199 194
-4665.3315 3574.8667 2282.1418 0.546 -0.666 -0.508 129 131 126
-4685.2007 3602.0730 2288.5725 0.611 -0.726 -0.315 86 88 83
-4691.0811 3618.0034 2288.3069 0.697 -0.645 -0.312 62 64 61
-3326.9265 2808.4377 1555.4288 0.946 -0.299 -0.128 22 22 19
-3329.5415 2819.7739 1554.1400 0.936 -0.308 -0.169 55 55 55
-3346.9353 2862.8206 1554.4761 0.512 -0.852 0.113 18 18 18
-3339.5686 2865.1804 1548.6652 0.532 -0.837 0.130 11 11 9
-2821.0225 2564.4690 1268.1481 0.530 -0.832 0.165 71 44 44
-2814.4705 2566.3726 1263.0337 0.528 -0.834 0.160 72 68 66
-2804.3179 2564.7058 1256.3793 0.142 -0.967 0.213 85 98 92
-2797.8347 2566.6501 1251.3019 0.171 -0.970 0.171 52 76 69
-2793.5417 2570.7661 1247.1610 0.507 -0.854 0.117 31 52 57
-2793.9512 2604.9927 1238.0255 0.966 -0.054 -0.251 48 115 146
-2798.3425 2723.0828 1208.5929 0.247 -0.516 0.821 3 97 154
-3086.2737 3064.7185 1316.2717 -0.431 -0.742 0.513 37 39 41
-3138.0139 3223.7141 1308.7513 -0.189 -0.981 -0.032 51 42 35
-3067.4382 3263.1226 1248.4561 0.912 -0.088 -0.399 21 13 4
-2846.2083 3189.5354 1113.7173 0.436 -0.611 0.661 20 11 6
-2834.4451 3186.2346 1106.3846 0.594 -0.444 0.671 70 57 46
-2843.3394 3470.0469 1034.4845 0.620 -0.308 0.722 199 185 180
-2845.8533 3485.3206 1032.0410 0.542 -0.342 0.768 209 198 194
-3098.9758 3840.5930 1111.5782 0.994 -0.098 -0.052 230 215 211
-3096.0200 3863.2908 1103.2589 0.994 -0.099 -0.050 229 215 213
-2343.7405 3139.8547 775.3581 -0.308 -0.942 -0.131 200 171 163
-2329.9270 3142.6738 764.9039 -0.217 -0.918 -0.331 208 179 171
-2327.4153 3150.4165 761.0128 0.198 -0.610 -0.768 213 184 176
-2251.6582 3236.0129 684.3721 -0.262 -0.963 -0.067 206 176 168
-3222.8704 5320.2134 791.0519 0.423 -0.482 0.768 201 168 163
-2876.3862 5465.1162 508.4095 -0.414 -0.291 -0.862 188 156 154
-2529.7749 5422.8916 277.1926 -0.327 -0.688 -0.647 182 130 115
-2453.1685 5688.1152 150.5070 0.658 -0.695 0.290 117 72 53
-2035.8680 5292.1626 -32.8566 -0.260 -0.861 0.438 190 164 163
-2025.8093 5290.6377 -39.4841 -0.292 -0.867 0.403 211 185 184
-1988.8236 5319.2188 -73.2650 0.986 -0.150 0.070 210 194 197
-1956.6603 5499.4541 -145.4165 0.262 -0.144 -0.954 251 240 246
-1697.6884 5358.7329 -288.1165 -0.062 -0.911 0.408 228 217 223
-3486.2322 2269.9346 1805.7192 0.515 -0.776 0.365 176 177 171
-3483.1252 2274.8589 1802.1807 0.972 -0.140 -0.188 183 184 178
-4410.3037 2980.8770 2254.7634 0.728 -0.637 -0.253 186 189 182
-3906.2700 2733.0579 1971.0148 0.911 0.007 -0.412 175 182 175
-3907.2024 2742.2744 1969.1106 0.911 0.007 -0.412 183 188 182
-4532.0996 3418.2825 2218.6257 0.251 -0.737 -0.628 196 198 193
-4476.2197 3384.0203 2189.0500 0.647 -0.626 -0.436 198 200 195
-4514.5732 3435.9507 2201.4690 0.834 -0.551 -0.029 169 171 166
-4692.2036 3601.4331 2279.7935 0.602 -0.740 -0.300 90 92 87
-4688.6558 3643.2373 2265.7185 0.955 -0.295 0.041 15 17 14
-4657.3311 3639.9248 2244.7312 0.846 -0.506 0.169 9 11 8
-3302.1326 2771.8657 1537.7677 0.722 -0.674 -0.158 11 13 10
-3309.8279 2805.4744 1533.8280 0.750 -0.648 0.133 45 47 46
-3334.1633 2836.6499 1542.1998 0.963 -0.264 -0.049 22 24 23
-3342.2786 2862.2341 1540.7794 0.532 -0.837 0.130 11 11 9
-2821.5925 2568.2888 1258.1783 -0.125 -0.441 -0.889 63 79 77
-2808.6165 2563.8501 1250.3348 -0.457 -0.889 -0.036 70 102 96
-2798.4026 2562.1006 1243.6774 -0.218 -0.964 0.153 38 78 73
-2791.8901 2563.9973 1238.5970 0.488 -0.847 0.212 23 61 65
-2809.9795 2667.7129 1222.4823 -0.598 -0.609 -0.522 14 126 184
-3133.9126 3119.0867 1323.8289 -0.300 -0.753 -0.585 28 29 26
-2943.4792 2974.9529 1230.6300 -0.182 -0.439 -0.880 54 44 36
-2881.6240 3439.9204 1058.4177 0.588 -0.356 0.726 200 158 138
-2875.3054 3443.6997 1052.9509 0.361 -0.547 0.756 199 157 135
-2870.9189 3449.9426 1048.1519 0.582 -0.332 0.742 205 163 144
-2824.6138 3449.7842 1015.8140 0.643 -0.299 0.705 216 202 205
-2789.0413 3451.1211 990.5666 0.438 -0.482 0.759 228 215 218
-2388.3831 3184.4285 784.3447 -0.499 -0.731 0.465 203 176 169
-2346.3359 3135.8489 768.4137 -0.300 -0.953 0.047 203 174 166
-2342.1013 3141.0859 764.0000 0.091 -0.988 0.127 207 178 170
-2320.7595 3144.3674 748.1650 0.010 -0.998 0.063 228 199 191
-2337.6475 3191.8147 746.8160 -0.099 -0.393 -0.914 202 173 165
-2317.1394 3196.5459 731.1621 -0.368 -0.544 -0.754 155 119 98
-2285.8030 3267.8577 689.4702 0.671 -0.201 -0.713 203 173 165
-3022.7876 5533.7012 576.4388 -0.265 -0.391 -0.882 201 166 165
-2913.4736 5455.2935 521.7397 -0.211 -0.709 -0.672 189 153 153
-2796.0645 5355.4512 467.3240 -0.394 -0.246 -0.885 193 155 156
-2961.6531 5755.7808 472.0941 -0.031 0.019 -0.999 187 149 149
-2960.8477 6073.1587 383.5081 -0.654 -0.754 0.057 190 145 139
-2465.3665 5239.1021 268.3297 -0.267 -0.782 -0.564 184 132 118
-2521.7107 5410.5737 260.1756 -0.357 -0.932 -0.066 174 118 102
-2347.8672 5721.9751 52.2386 0.405 -0.718 0.566 137 98 87
-2272.3718 5688.8662 8.6258 0.347 -0.935 -0.070 144 120 110
-2264.2524 5694.6729 1.3374 0.360 -0.931 -0.064 184 160 148
-2259.2378 5708.6421 -6.0437 0.815 -0.578 -0.040 183 159 147
-1995.5869 5343.6704 -89.1967 0.162 -0.957 0.240 151 132 136
-1951.6836 5353.1597 -122.5311 0.294 -0.862 -0.413 236 222 227
-1967.5477 5481.0210 -146.8985 0.278 -0.139 -0.951 244 233 239
-3489.9336 2268.7117 1799.0892 0.523 -0.781 0.342 177 178 172
-3482.1023 2270.2710 1793.1870 0.913 -0.323 -0.251 183 184 178
-4441.1626 3016.6687 2254.0955 0.276 -0.759 -0.590 181 183 178
-5209.0503 3673.4092 2606.6104 0.828 -0.461 -0.320 189 194 188
-3910.6731 2731.6711 1963.4276 0.102 -0.533 -0.840 176 183 176
-3910.9258 2740.3640 1961.1753 0.101 -0.540 -0.836 184 189 183
-4505.3564 3390.9585 2194.3306 0.185 -0.444 -0.877 196 198 193
-4447.0786 3365.1401 2160.8647 0.678 -0.734 0.050 194 196 191
-4515.5103 3430.6838 2190.3191 0.839 -0.476 -0.264 169 171 166
-4699.4409 3600.9839 2271.1265 0.265 -0.778 -0.569 94 96 91
-4718.7246 3627.7700 2277.1033 0.427 -0.726 -0.539 74 76 73
-4690.4038 3615.8813 2260.6560 0.556 -0.684 -0.473 55 57 54
-4681.5068 3630.9548 2250.2344 0.954 -0.298 0.026 17 19 16
-4655.4580 3620.7532 2234.9021 0.803 -0.193 -0.563 9 11 8
-3343.8611 2804.2466 1547.5029 -0.135 -0.974 0.180 10 12 11
-3308.1736 2798.6743 1524.1492 0.411 -0.848 0.334 45 47 44
-3142.8584 2734.5134 1426.6815 -0.663 -0.678 -0.317 30 30 18
-2987.6987 2656.8167 1340.0844 -0.271 -0.608 -0.746 27 7 9
-2830.3733 2571.8267 1254.0131 -0.257 -0.645 -0.719 65 83 83
-2819.6838 2569.6675 1247.1548 -0.457 -0.889 -0.036 67 102 100
-2803.4304 2561.9756 1237.9587 -0.217 -0.964 0.153 23 66 67
-2792.9480 2559.9390 1231.2107 0.491 -0.846 0.209 3 48 54
-3157.9194 3138.1680 1324.4165 0.614 -0.743 -0.268 37 42 43
-3149.7891 3139.7920 1318.2875 0.620 -0.736 -0.272 36 35 34
-3084.4136 3100.5903 1283.6064 -0.380 -0.728 -0.571 28 37 43
-3079.2224 3177.5020 1258.4946 -0.387 -0.283 -0.878 71 53 48
-3052.9221 3243.7002 1221.6410 0.858 0.009 -0.514 13 15 8
-2830.9932 3168.1631 1087.8341 0.782 -0.622 0.040 20 20 8
-2844.3416 3194.8647 1089.6913 0.535 -0.649 0.541 28 16 1
-2830.9854 3200.4343 1078.8123 0.523 -0.655 0.545 146 101 63
-2860.9465 3441.2134 1032.4540 0.478 -0.332 0.813 220 174 157
-2846.1030 3434.0364 1024.0981 0.524 -0.353 0.775 224 193 191
-2372.5664 3165.5273 768.5781 -0.644 -0.739 0.200 209 180 172
-2335.9766 3147.1956 748.1592 0.086 -0.987 0.134 226 197 189
-2324.2961 3141.7000 741.5416 -0.048 -0.997 0.058 217 188 180
-2311.6648 3134.7654 734.6620 -0.202 -0.977 -0.066 199 170 162
-2309.9275 3143.5972 730.9818 0.887 -0.447 -0.114 174 145 137
-2302.6775 3155.8455 722.4991 0.962 -0.247 -0.120 142 106 86
-2313.6741 3195.0571 719.2195 0.707 -0.597 0.379 138 102 78
-2304.0398 3227.5664 703.4117 0.056 -0.966 -0.251 140 102 79
-2299.1702 3232.0842 698.7504 0.185 -0.961 -0.208 144 108 87
-2295.6377 3238.6204 694.4584 0.286 -0.905 -0.315 135 102 90
-2290.0522 3242.0784 689.5934 0.286 -0.905 -0.315 163 133 123
-2285.9817 3247.8311 685.1449 0.260 -0.869 -0.420 194 164 156
-2294.3186 3272.4602 684.0832 0.680 -0.197 -0.706 206 175 170
-2913.5835 5352.8433 535.1013 -0.371 -0.265 -0.890 192 153 154
-3127.8420 6072.7017 483.5360 -0.033 0.017 -0.999 193 152 153
-2481.9541 5281.3994 253.7750 -0.199 -0.802 -0.562 184 132 117
-2536.7979 5426.4360 251.5353 -0.350 -0.918 -0.186 180 124 108
-2458.1431 5584.9893 152.3337 0.952 -0.137 -0.272 161 106 86
-2441.0923 5594.6328 137.7378 0.829 -0.554 -0.081 157 108 90
-2355.4705 5667.7905 57.5320 0.599 -0.801 -0.019 137 93 80
-2332.8298 5689.8071 35.5770 0.899 -0.381 -0.214 138 98 86
-2319.3137 5681.9761 28.3304 0.020 -0.948 -0.317 136 98 86
-2298.1274 5680.9844 13.8189 -0.221 -0.913 0.342 130 103 92
-2272.6680 5668.6968 -0.5192 -0.149 -0.909 0.389 146 119 108
-2259.1838 5660.4297 -7.6217 -0.146 -0.915 0.376 185 159 147
-1990.2617 5334.3687 -104.2366 -0.026 -0.978 0.207 194 174 176
-3493.5176 2267.4087 1792.4073 0.570 -0.743 0.351 170 171 165
-3487.8281 2270.4888 1787.5764 0.851 -0.483 -0.206 177 178 172
-4460.5200 3025.6357 2252.7527 0.337 -0.763 -0.552 183 185 180
-5063.3335 3494.2681 2540.8599 0.375 -0.575 -0.727 180 182 177
-4559.5474 3428.2524 2208.4360 0.021 -0.889 -0.457 198 200 195
-4457.5615 3367.6599 2154.4326 0.753 -0.658 -0.005 195 197 192
-4523.4268 3431.0471 2182.4832 0.847 -0.471 -0.248 178 180 175
-4943.8472 3804.0713 2370.4197 0.374 -0.221 -0.901 86 88 85
-4785.0356 3686.5408 2292.8484 0.721 -0.420 -0.551 54 56 53
-4654.1523 3624.4592 2219.1304 0.770 -0.209 -0.603 8 13 7
-4647.4863 3630.1528 2212.8833 0.798 -0.276 -0.535 5 7 2
-3384.5972 2808.7810 1564.1564 0.256 -0.879 0.403 35 35 32
-3386.1365 2919.2703 1534.1329 -0.582 -0.813 0.012 20 23 15
-3320.2488 2876.6841 1500.2124 -0.600 -0.798 -0.051 24 25 17
-3031.4077 2667.6077 1357.8103 -0.118 -0.647 -0.753 36 23 21
-3021.0447 2666.3416 1350.9464 -0.101 -0.652 -0.751 20 17 14
-3016.5479 2670.6472 1346.6017 -0.101 -0.652 -0.751 11 13 12
-3001.1467 2664.5176 1337.5963 -0.313 -0.841 -0.442 14 10 15
-2851.1494 2570.3813 1259.5823 -0.032 -0.428 -0.903 21 19 22
-2849.2595 2576.8850 1256.4351 -0.065 -0.442 -0.894 47 41 45
-2844.5308 2580.6240 1252.0881 -0.130 -0.646 -0.752 65 71 76
-2831.5591 2576.2571 1244.2794 -0.466 -0.883 -0.066 58 78 85
-2805.2639 2558.6980 1230.9006 -0.384 -0.923 -0.009 28 60 70
-2795.2576 2557.1333 1224.3693 -0.120 -0.980 0.161 20 59 73
-2784.9414 2555.2317 1217.7168 0.478 -0.864 -0.161 4 52 67
-2787.4922 2599.8079 1206.9486 0.612 -0.173 -0.772 24 129 178
-3127.3342 3309.9092 1243.8772 0.892 -0.024 -0.452 10 15 4
-2742.4099 2925.0254 1084.0099 0.514 -0.352 -0.782 24 31 22
-2861.9175 3082.2000 1123.0396 0.327 -0.802 0.500 25 30 25
-2906.5461 3144.0364 1136.7303 0.202 -0.486 -0.850 24 26 23
-2898.0378 3144.7090 1130.6132 0.240 -0.483 -0.842 21 17 14
-2850.0496 3130.8416 1101.0812 0.605 -0.773 -0.189 10 4 2
-2851.6230 3143.2249 1098.6923 0.644 -0.762 0.075 10 5 3
-2843.3972 3144.0996 1092.7150 0.647 -0.761 0.054 8 9 4
-2833.6938 3164.4548 1080.2255 0.725 -0.639 0.259 18 18 9
-2844.1514 3187.6433 1080.9855 0.530 -0.654 0.541 34 23 7
-2822.4863 3204.7876 1061.0658 0.687 -0.706 0.174 177 110 58
-2901.7251 3357.0684 1073.4163 0.987 -0.154 0.045 171 100 55
-2756.9263 3404.9768 959.0472 0.801 -0.560 0.211 232 212 211
-2751.9407 3410.2388 954.0927 0.801 -0.560 0.211 233 213 215
-3350.8340 4271.6084 1128.9373 0.617 -0.303 -0.726 231 174 176
-3331.4717 4260.3818 1118.6066 0.175 -0.564 0.807 240 172 176
-2340.8069 3123.8447 748.2459 -0.560 -0.763 0.321 195 168 159
-2330.0271 3142.2043 735.5682 -0.075 -0.996 0.040 197 170 161
-2318.0039 3136.1755 728.8879 -0.216 -0.972 -0.099 176 149 140
-2320.4814 3151.1133 726.4100 0.788 -0.605 -0.118 148 121 112
-2307.9033 3144.2195 719.5867 0.784 -0.429 -0.449 126 98 88
-2316.5212 3168.2063 718.8402 0.944 -0.284 -0.168 126 89 72
-2327.1252 3195.2434 718.6190 0.890 -0.422 0.172 127 89 70
-2307.7969 3178.4343 709.8832 0.554 -0.463 -0.691 131 91 71
-2297.4187 3174.6897 703.7063 0.594 -0.786 -0.168 131 91 71
-2306.4946 3223.0930 696.4072 -0.108 -0.858 -0.503 140 101 80
-3174.0593 5253.3062 729.4860 0.499 -0.251 0.829 200 169 164
-2446.4131 5588.0415 128.3062 0.829 -0.554 -0.081 157 107 87
-2369.6638 5656.8662 55.4627 0.514 -0.858 -0.018 104 60 44
-2336.3911 5704.7803 18.7959 0.943 -0.268 -0.200 136 99 83
-2010.0902 5264.2900 -84.5771 0.791 -0.608 -0.063 220 193 195
-1992.7234 5320.4258 -112.4757 0.147 -0.978 0.151 206 181 185
-1983.4229 5320.8037 -119.0620 0.147 -0.978 0.151 211 186 190
-1921.1547 5582.5435 -236.1097 0.949 -0.165 -0.268 225 214 220
-3498.5393 2267.1250 1786.4441 0.512 -0.756 0.408 170 171 165
-3492.8721 2270.2212 1781.6252 0.850 -0.485 -0.205 176 177 171
-4461.5322 3012.0266 2244.9802 0.272 -0.753 -0.599 188 190 185
-4458.7114 3019.2612 2240.9678 0.710 -0.636 -0.303 183 185 180
-3451.2092 2312.0537 1740.7925 0.153 -0.973 0.174 179 181 176
-5229.0400 3675.9358 2590.5286 0.921 -0.165 0.354 187 192 186
-5233.2988 3690.3242 2589.4114 0.764 -0.477 0.434 190 195 189
-4587.2339 3444.3254 2209.8496 0.006 -0.875 -0.484 198 200 195
-4968.4165 3817.3320 2369.1980 0.359 -0.226 -0.906 87 89 84
-4779.3960 3686.8247 2274.7422 0.682 -0.526 -0.508 43 45 40
-4680.6865 3628.6824 2222.5784 0.791 -0.206 -0.576 17 19 14
-4681.4336 3640.4929 2219.7495 0.800 -0.204 -0.564 11 13 8
-3524.2605 2828.0344 1645.3242 -0.269 -0.818 0.508 25 25 19
-3401.2043 2730.6372 1587.3566 0.730 -0.308 -0.610 25 23 18
-3436.5933 2769.9358 1600.8270 0.864 -0.175 -0.472 34 28 22
-3496.7502 2830.9695 1625.3605 0.939 -0.342 0.031 34 26 19
-3503.0166 2881.4949 1615.3955 0.927 -0.281 -0.250 38 30 23
-3516.5376 2902.5642 1618.8257 0.964 -0.016 -0.264 40 33 26
-3476.3774 2876.1104 1598.3959 0.869 -0.220 -0.444 38 34 28
-3381.0000 2800.3442 1553.5452 0.111 -0.799 0.591 36 33 30
-3039.4529 2678.6631 1350.5146 -0.521 -0.837 -0.167 20 18 14
-3020.0186 2668.7715 1339.8033 -0.317 -0.842 -0.436 11 13 12
-2903.5261 2591.0281 1280.8289 0.340 -0.779 -0.527 10 10 12
-2904.3811 2600.2444 1278.8108 0.164 -0.793 -0.587 10 10 12
-2853.4375 2567.5481 1252.6515 -0.186 -0.708 -0.681 22 18 22
-2848.5642 2571.1265 1248.2480 -0.134 -0.726 -0.674 47 39 47
-2855.4180 2586.1868 1248.7451 -0.081 -0.678 -0.731 64 60 71
-2847.4375 2586.7522 1243.0348 -0.354 -0.935 -0.020 57 66 77
-2801.3987 2566.4551 1216.7714 0.369 -0.926 -0.075 4 51 65
-2796.3977 2603.5569 1202.7759 0.656 -0.128 -0.744 36 137 185
-2855.2952 2733.2048 1206.9827 0.947 -0.313 0.068 32 113 158
-3066.5535 3129.7646 1241.4824 0.778 -0.235 0.582 20 11 4
-2800.0891 2984.5933 1097.3264 0.303 -0.541 -0.785 27 28 23
-2911.7908 3143.3450 1130.0049 0.214 -0.489 -0.846 27 28 23
-2909.1245 3150.7737 1126.0448 0.247 -0.487 -0.838 25 24 22
-2892.1526 3152.1655 1113.8473 0.155 -0.988 -0.011 10 12 9
-2848.6799 3122.4680 1092.0333 0.234 -0.963 -0.135 11 14 11
-2854.6790 3140.0037 1091.2343 0.647 -0.743 0.171 5 8 5
-2846.5010 3140.9309 1085.2841 0.647 -0.761 0.054 27 32 28
-2839.4893 3196.6038 1064.6259 0.722 -0.690 -0.050 145 94 67
-2893.0129 3373.1067 1051.8130 0.986 -0.159 0.043 189 108 53
-2759.3735 3400.3247 951.1592 0.806 -0.557 0.200 240 208 196
-2753.7034 3404.6697 945.9841 0.801 -0.560 0.211 240 208 207
-2753.3406 3416.0137 942.5161 0.707 -0.677 0.202 243 213 217
-3336.3337 4242.3745 1113.6937 0.414 -0.578 0.703 230 192 195
-3327.9919 4245.8540 1106.9062 0.411 -0.584 0.700 218 180 180
-3260.3960 4198.6372 1073.2825 0.163 -0.558 0.814 203 171 164
-3287.5261 4250.0522 1077.5746 0.816 -0.528 0.235 197 166 158
-2335.5273 3142.3735 729.5248 -0.075 -0.996 0.040 161 137 127
-2324.7795 3138.2075 723.2313 -0.057 -0.997 0.045 151 126 116
-2315.6621 3147.6921 714.2020 0.795 -0.398 -0.458 123 96 88
-2331.7742 3182.5610 715.5222 0.916 -0.393 0.075 128 87 79
-2314.3623 3180.1387 704.1001 0.560 -0.466 -0.685 130 86 79
-2302.8887 3174.8057 697.6327 0.418 -0.902 -0.112 132 85 79
-2308.5632 3194.7378 695.9286 0.444 -0.754 0.484 126 77 71
-3299.9404 6303.4053 504.1207 -0.084 0.006 -0.996 156 122 120
-2777.2693 6078.8750 204.2856 -0.442 -0.861 -0.250 169 116 102
-2437.9521 5624.0703 97.2401 0.863 -0.380 -0.333 163 110 85
-2415.6477 5646.6401 75.3306 0.441 -0.871 0.215 158 107 84
-2407.0959 5651.4761 68.0125 0.425 -0.875 0.232 155 109 84
-2396.0718 5650.2451 60.6949 0.333 -0.898 0.287 145 106 82
-2386.1191 5651.5952 53.3906 0.333 -0.898 0.287 130 93 70
-2376.2485 5653.1138 46.0958 0.514 -0.858 -0.018 113 76 55
-2365.0693 5651.3467 38.8222 0.539 -0.836 0.102 98 61 39
-2355.9287 5654.6055 31.5417 0.003 -0.860 0.511 81 44 21
-2353.5449 5674.7876 24.1627 0.883 -0.468 0.023 94 58 35
-2307.7271 5690.8066 -12.2419 -0.553 -0.612 -0.565 151 122 107
-2265.3569 5661.5117 -33.4031 -0.182 -0.388 -0.903 184 155 138
-2138.3247 5433.7417 -57.1778 -0.014 -0.946 0.325 193 162 160
-2097.3782 5350.9199 -62.1749 -0.337 -0.874 -0.349 199 168 166
-2003.7993 5330.4854 -121.4604 0.181 -0.982 0.051 205 174 179
-1992.5972 5325.6279 -127.8740 0.200 -0.925 0.323 205 172 177
-1923.5032 5537.7119 -236.0463 -0.300 -0.285 -0.911 235 224 228
-1794.6688 5578.5176 -337.2103 -0.337 -0.925 -0.174 223 207 217
-3513.9548 2267.0698 1787.6306 0.870 -0.448 -0.206 165 166 160
-4470.8296 3013.6917 2238.6665 0.272 -0.753 -0.599 188 190 185
-4437.6670 2999.0120 2219.8379 0.647 -0.661 -0.380 183 185 180
-3454.2747 2310.3320 1733.8516 0.153 -0.973 0.174 179 181 176
-5225.9272 3656.3250 2579.3301 0.920 -0.165 0.356 182 187 181
-5243.3208 3702.8467 2578.1206 0.921 -0.150 0.359 184 189 183
-4672.2324 3560.1912 2222.4324 -0.129 -0.706 -0.697 116 118 113
-4981.9448 3821.6187 2362.7749 0.359 -0.226 -0.906 86 88 83
-4831.7007 3711.4976 2289.9255 0.761 -0.417 -0.496 54 56 51
-4812.8223 3707.5583 2277.9458 0.763 -0.393 -0.513 42 44 39
-4687.8306 3628.1492 2213.8560 0.879 -0.216 -0.424 17 19 14
-3481.1089 2776.9983 1619.2349 0.087 -0.763 0.641 24 25 19
-3436.3044 2747.2244 1596.6351 0.864 -0.253 -0.436 22 25 18
-3450.0876 2776.5193 1597.8384 0.896 -0.131 -0.425 31 27 19
-3457.5068 2791.7214 1598.6478 0.822 -0.304 -0.481 34 27 19
-3482.6094 2822.3782 1607.3196 0.865 -0.233 -0.444 34 27 19
-3479.5203 2846.4851 1598.2921 0.911 -0.234 -0.340 42 33 26
-3483.0386 2858.5757 1597.2822 0.912 -0.244 -0.331 52 43 38
-3480.7861 2865.6199 1593.7074 0.919 -0.094 -0.383 57 49 41
-3475.7791 2870.2437 1588.9116 0.932 -0.157 -0.327 41 33 26
-3116.7869 2729.2678 1379.9696 -0.464 -0.863 0.197 39 32 24
-3051.5920 2684.9941 1347.3560 -0.473 -0.858 0.201 21 18 14
-3020.7896 2664.3337 1331.8733 -0.470 -0.861 0.196 11 12 12
-2914.3516 2604.7817 1274.9930 0.104 -0.834 -0.541 10 10 12
-2834.3572 2577.1716 1227.3484 -0.303 -0.949 0.086 28 52 63
-2802.6880 2604.6653 1197.5151 0.617 -0.331 -0.714 54 138 183
-3192.0444 3165.3071 1307.7106 0.238 -0.700 -0.673 37 28 20
-2930.5532 3158.1963 1128.2273 0.241 -0.505 -0.829 26 28 23
-2918.0459 3164.8567 1117.6437 0.327 -0.943 -0.059 15 17 14
-2897.3547 3151.4272 1107.1154 0.155 -0.988 -0.011 7 9 6
-2862.3877 3121.2698 1091.4537 0.211 -0.977 -0.030 9 11 9
-2858.6016 3127.3142 1087.0996 0.224 -0.970 -0.094 16 18 15
-2856.5762 3135.4368 1083.3746 0.667 -0.745 -0.021 3 5 2
-2848.9963 3137.0591 1077.6498 0.672 -0.714 -0.195 34 35 33
-2761.1641 3394.8330 943.0812 0.806 -0.557 0.200 191 151 126
-2755.4607 3399.1167 937.8990 0.801 -0.560 0.211 206 167 155
-2750.3997 3427.9363 926.1573 0.514 -0.847 0.137 233 197 184
-3346.5063 4246.1445 1106.3271 0.411 -0.590 0.695 218 180 172
-2986.5310 3886.2217 959.2167 0.424 -0.748 0.511 204 174 161
-2862.9265 3755.8530 910.6401 0.839 -0.375 0.394 206 173 157
-2341.0293 3142.5427 723.4798 -0.075 -0.996 0.040 78 58 47
-2331.9180 3140.7505 717.6669 -0.046 -0.997 0.062 85 63 52
-2327.1042 3156.4819 709.8337 0.704 -0.171 -0.690 90 67 57
-2336.8804 3182.1001 709.3054 0.892 -0.182 -0.414 97 61 53
-2333.1355 3188.1501 704.9784 0.916 -0.393 0.076 97 58 51
-2323.9646 3186.2776 699.1471 0.468 -0.884 -0.003 98 57 50
-2297.1399 3181.4565 681.9033 0.481 -0.750 0.455 85 42 36
-2238.3982 3356.1887 591.2379 -0.254 -0.917 0.309 196 166 164
-2215.3330 3459.9272 545.6077 0.998 0.046 -0.031 206 176 174
-3017.7021 5149.8877 620.0496 0.509 -0.392 0.766 204 179 174
-2097.5383 4601.6753 137.8464 0.037 -0.814 0.579 171 114 94
-2410.3479 5639.6318 58.6230 0.569 -0.822 -0.030 154 108 84
-2399.5898 5639.0229 51.3292 0.514 -0.858 -0.018 144 106 81
-2391.2075 5644.1938 44.0342 0.514 -0.858 -0.018 145 109 85
-2382.8257 5649.3647 36.7395 0.514 -0.858 -0.018 148 112 90
-2371.1187 5646.3003 29.4881 0.539 -0.836 0.102 146 110 86
-2360.8447 5646.7266 22.2348 0.241 -0.744 0.623 126 90 66
-2358.0669 5665.8398 14.8495 0.915 -0.401 0.038 112 76 52
-2328.0344 5695.4116 -14.4410 -0.519 -0.654 -0.550 93 64 46
-2302.1672 5709.1733 -36.3260 -0.543 -0.621 -0.564 179 150 132
-2261.9382 5631.8794 -42.1818 -0.340 -0.713 -0.613 184 155 137
-2108.5925 5360.6079 -71.1723 0.072 -0.944 0.322 199 168 166
-2098.1208 5489.5210 -115.2488 -0.411 -0.479 -0.776 210 178 183
-1992.6727 5331.3955 -143.2970 0.181 -0.982 0.051 216 184 189
-1976.5623 5365.7808 -164.2979 0.495 -0.867 0.060 239 222 225
-1967.2065 5366.0327 -170.8641 0.108 -0.986 -0.129 243 228 231
-1963.1613 5519.1484 -217.3900 -0.355 -0.276 -0.893 244 230 235
-1162.5131 3718.6365 -259.0725 0.344 -0.350 0.871 221 190 205
-5200.7319 3598.6208 2563.8916 0.994 -0.083 0.071 191 193 188
-4650.7251 3547.5576 2197.4978 -0.083 -0.663 -0.744 87 89 84
-4833.4326 3706.4219 2278.4055 0.523 -0.242 -0.817 55 57 52
-4823.0347 3709.3701 2270.3533 0.469 -0.255 -0.845 42 44 39
-3447.3240 2777.7754 1585.0684 0.833 -0.186 -0.521 35 26 19
-3466.1028 2802.8528 1590.8683 0.819 -0.133 -0.558 35 26 17
-3202.0256 2768.6467 1417.7361 0.801 -0.179 0.572 53 46 38
-3191.9314 2768.0808 1410.9050 0.811 -0.171 0.560 54 47 37
-3101.5781 2718.4033 1362.5883 -0.404 -0.864 0.300 31 25 19
-2924.6733 2609.6399 1271.2939 0.128 -0.888 -0.442 9 10 12
-2920.7461 2614.2776 1267.2394 -0.343 -0.857 0.384 9 10 12
-3091.4724 3102.9790 1244.9976 -0.236 -0.770 -0.593 32 22 16
-2839.4624 3182.6023 1047.4935 0.959 -0.281 0.033 146 92 65
-2867.6792 3395.4490 1005.8376 0.508 -0.373 0.776 195 113 57
-2747.0784 3415.6084 916.4811 0.510 -0.849 0.139 192 145 119
-3004.9067 3875.1370 962.9778 0.242 -0.754 0.611 211 171 148
-2994.8450 3874.9197 956.0688 0.634 -0.629 0.450 211 172 149
-2957.8240 3837.7478 941.1077 0.418 -0.907 -0.042 211 172 151
-2380.0295 3156.5657 736.6582 -0.686 -0.687 0.242 159 137 123
-2331.0164 3154.3484 703.3365 0.668 -0.246 -0.703 40 18 6
-2336.6243 3173.8643 701.6100 0.886 -0.178 -0.428 49 18 8
-2334.8567 3182.7583 697.8277 0.916 -0.393 0.076 53 18 9
-2327.5969 3183.6709 692.5353 0.473 -0.881 0.005 53 18 9
-2304.3899 3161.2046 682.9164 0.624 -0.680 0.385 54 16 9
-2294.9229 3170.2344 673.7606 0.391 -0.899 0.195 63 25 18
-2950.7463 5114.7046 569.0018 0.207 -0.590 0.781 197 172 167
-2919.1438 5097.0752 552.1752 -0.072 -0.653 0.754 200 172 169
-2894.8611 5072.6006 542.3885 -0.107 -0.663 0.741 200 172 169
-2813.9282 5022.2461 500.7933 0.717 -0.437 0.544 194 166 163
-2809.6226 5034.0430 494.4178 0.723 -0.434 0.538 194 166 163
-2805.4250 5046.0947 488.0441 0.724 -0.433 0.537 196 167 163
-2800.8926 5057.5684 481.6042 0.707 -0.431 0.561 192 163 159
-2101.2319 4554.3477 141.5439 0.062 -0.998 -0.024 177 121 101
-2348.0449 5699.1030 -16.6356 0.638 -0.554 -0.534 104 74 54
-2344.7976 5717.3701 -24.1383 0.357 -0.801 -0.481 101 72 54
-2343.8262 5741.5483 -31.7642 -0.552 -0.616 -0.562 140 111 93
-2321.4126 5737.8213 -46.2220 -0.540 -0.623 -0.566 178 150 129
-2007.6388 5352.2827 -152.7576 0.216 -0.556 -0.802 217 185 190
-2014.6477 5398.3384 -161.1451 -0.149 -0.903 -0.404 216 186 190
-2007.2771 5404.4277 -168.0031 -0.155 -0.900 -0.407 225 200 204
-1995.7072 5398.6860 -174.3682 -0.000 -0.624 -0.781 239 222 226
-1925.7915 5387.8545 -219.6953 0.273 -0.881 -0.386 239 226 230
-1935.9727 5445.1865 -229.1276 0.081 -0.591 -0.803 241 229 233
-1829.2137 5640.8267 -359.3548 -0.414 -0.890 -0.190 224 207 217
-5208.3193 3598.1809 2554.8591 0.994 -0.084 0.075 187 189 184
-5212.6973 3612.3462 2553.7847 0.995 -0.072 0.067 189 194 188
-5211.7051 3622.6184 2550.1238 0.995 -0.072 0.067 182 187 181
-5224.1245 3653.8965 2549.6548 0.923 -0.166 0.346 177 182 176
-4677.2866 3476.3655 2222.8887 0.015 -0.988 -0.151 205 207 202
-4646.7881 3462.9575 2205.6794 -0.059 -0.865 -0.498 199 201 196
-4642.8740 3470.5017 2200.7881 -0.066 -0.874 -0.481 192 194 189
-4637.4409 3476.8552 2195.1907 0.019 -0.838 -0.545 186 188 183
-4669.3833 3556.4080 2194.2432 -0.077 -0.671 -0.738 100 102 97
-4796.2910 3669.9375 2249.1313 0.196 -0.238 -0.951 75 77 72
-3439.7954 2810.0879 1560.0247 0.215 -0.423 0.881 149 140 134
-3414.9197 2797.0710 1546.5908 0.438 -0.406 0.802 152 141 132
-3357.3125 2772.5371 1513.8562 0.801 -0.513 -0.309 127 110 92
-3318.6169 2773.0781 1486.9387 -0.201 -0.786 0.585 91 73 58
-3276.1562 2743.6199 1466.1051 -0.096 -0.750 0.654 72 54 45
-3181.5916 2718.2920 1408.0415 0.592 -0.368 0.717 52 35 32
-3165.7439 2712.3447 1398.8040 0.647 -0.354 0.675 57 43 40
-2929.6257 2609.3145 1265.3483 0.133 -0.883 -0.451 11 12 14
-3239.3540 3181.5923 1313.8186 -0.119 -0.993 0.008 61 74 80
-3228.3149 3180.3386 1306.5472 0.279 -0.662 -0.695 56 47 38
-3141.0007 3118.9482 1263.9415 -0.204 -0.638 -0.743 43 21 7
-3158.1255 3147.3325 1267.5647 -0.378 -0.802 -0.463 32 18 8
-3078.8630 3113.5337 1222.5369 -0.183 -0.719 0.670 33 26 18
-3007.4575 3066.4841 1186.7800 -0.043 -0.682 0.730 39 35 29
-3019.0161 3099.3765 1185.2483 0.615 -0.420 0.667 14 15 10
-2835.7102 3036.1450 1076.7904 0.762 -0.620 -0.184 25 27 22
-2848.2446 3122.6377 1060.4110 0.852 -0.497 0.166 52 53 50
-2841.9343 3125.7026 1055.1593 0.847 -0.498 0.184 52 58 54
-3165.9897 4000.9121 1025.8101 0.123 -0.767 0.630 181 125 90
-3035.3713 3893.8777 966.4747 0.256 -0.762 0.595 207 155 123
-3015.0139 3879.7856 956.4771 0.249 -0.742 0.623 212 161 128
-2978.1240 3856.4622 937.7194 0.448 -0.888 -0.102 210 160 131
-2395.8105 3171.1946 733.4578 -0.686 -0.687 0.242 159 133 121
-2347.3853 3147.5024 706.8293 0.667 -0.681 -0.302 48 22 15
-2330.7991 3134.9829 698.9844 0.603 -0.662 -0.446 41 17 8
-2338.5413 3168.8091 694.5428 0.371 -0.294 -0.881 44 15 7
-2335.3879 3175.6626 690.3773 0.293 -0.536 -0.791 51 19 12
-2303.6326 3175.1418 668.5669 0.358 -0.927 0.114 59 25 19
-2372.5542 3448.1665 637.1645 0.625 -0.762 0.170 201 176 171
-2366.7129 3451.8276 632.0645 0.625 -0.762 0.170 203 178 173
-2354.1167 3444.9854 625.3349 0.674 -0.731 0.104 197 172 167
-2320.0930 3429.9302 606.1650 0.978 -0.207 0.007 187 166 161
-2247.0120 3352.3005 578.1053 -0.294 -0.906 0.304 164 147 140
-2230.6111 3338.6912 570.7041 0.636 -0.615 0.466 79 62 56
-2218.1973 3369.0012 553.3413 0.884 -0.227 0.410 98 78 75
-2210.7043 3369.5310 548.0061 0.851 -0.278 0.446 117 100 95
-2213.2756 3412.0574 537.4688 0.974 0.107 -0.202 188 171 167
-2236.6582 3503.0173 527.2979 0.949 0.138 -0.285 207 181 177
-2244.8818 3530.0713 525.1504 0.978 0.067 -0.199 204 176 172
-2951.0112 5100.8398 558.6021 0.207 -0.590 0.781 179 154 149
-2918.8994 5082.2603 541.7750 -0.055 -0.653 0.756 195 167 164
-2810.0664 5040.2378 478.6786 0.725 -0.424 0.543 187 158 154
-2839.7253 5952.1128 235.1145 0.045 -0.851 0.524 195 149 136
-2871.3979 6124.4731 207.1035 0.420 -0.032 -0.907 189 137 123
-2370.6094 5630.9541 3.6928 0.256 -0.759 0.599 154 118 92
-2348.1572 5705.3140 -33.3688 0.990 -0.116 -0.085 150 121 103
-2362.6504 5768.6152 -41.6775 -0.538 -0.641 -0.547 164 135 117
-2057.5354 5261.3711 -105.7909 0.017 -0.869 0.495 220 189 186
-1997.2972 5382.0176 -182.3887 -0.010 -0.341 -0.940 239 222 225
-1954.8885 5368.9487 -207.9327 0.557 -0.637 -0.533 234 219 222
-1956.7743 5540.0933 -256.1914 0.543 -0.328 -0.773 250 240 244
-1928.5262 5570.1675 -284.4362 -0.053 -0.770 0.636 245 234 240
-5208.5718 3592.3918 2542.3240 0.843 -0.358 0.401 187 189 184
-5207.0312 3613.1621 2535.2034 0.994 -0.071 0.079 182 187 181
-5216.5229 3631.1421 2536.5117 0.926 -0.165 0.339 170 175 169
-4745.5591 3513.2739 2245.7849 -0.001 -0.757 -0.653 199 201 196
-4691.3452 3481.4255 2217.6499 0.026 -0.823 -0.567 200 202 197
-4659.2129 3466.7749 2199.7417 -0.058 -0.864 -0.499 193 195 190
-4655.6973 3474.6414 2195.0208 -0.066 -0.874 -0.481 187 189 184
-4793.0845 3660.9587 2235.5220 0.431 -0.280 -0.858 75 77 72
-4809.9863 3685.8801 2239.9214 0.495 -0.270 -0.826 52 54 49
-3435.3342 2731.3601 1569.3817 0.543 -0.598 0.590 92 94 89
-3330.2554 2778.3330 1483.1484 -0.213 -0.783 0.584 76 51 32
-3281.8318 2743.5857 1459.8555 -0.067 -0.745 0.664 55 32 18
-3267.2327 2747.8245 1448.5417 0.690 -0.651 0.316 52 29 27
-3252.8914 2743.5408 1439.8915 0.668 -0.545 0.506 51 29 29
-3170.6274 2703.0728 1394.9073 0.672 -0.365 0.644 58 36 35
-2960.5911 2633.9678 1270.0747 -0.393 -0.903 0.171 9 13 14
-2814.7334 2601.1450 1178.9631 0.626 -0.743 -0.237 111 120 153
-2810.8391 2605.7075 1174.9445 0.626 -0.743 -0.237 132 141 173
-3253.5452 3200.3613 1307.1206 -0.120 -0.425 -0.897 69 54 41
-3102.6650 3062.0713 1243.2993 0.849 -0.110 0.517 64 38 14
-3050.6792 3086.8555 1200.1862 -0.219 -0.700 0.680 38 31 23
-3002.7939 3055.0728 1176.4005 -0.043 -0.682 0.730 28 24 17
-2828.8103 3177.3616 1020.6386 0.848 -0.471 -0.244 172 92 54
-2766.7866 3367.2104 922.4590 0.904 -0.291 -0.314 196 106 51
-2747.1255 3399.9075 899.3518 0.865 -0.490 0.112 186 118 64
-2421.5918 3188.4922 736.2947 -0.611 -0.729 0.308 205 173 160
-2408.2712 3181.0752 729.2626 -0.580 -0.765 0.282 172 145 134
-2360.3572 3147.0574 706.1088 -0.554 -0.806 -0.208 57 33 28
-2343.2136 3133.8433 698.1285 0.280 -0.947 -0.157 55 30 24
-2327.1714 3122.0950 690.4808 0.575 -0.794 -0.198 48 25 17
-2324.1685 3129.0010 686.3940 0.590 -0.794 -0.146 42 20 9
-2304.0176 3144.9937 667.8200 0.610 -0.678 0.409 60 34 23
-2312.5957 3180.3975 663.4167 0.346 -0.929 0.135 56 30 18
-2365.7859 3416.3557 631.3209 0.342 -0.824 0.452 203 176 169
-2324.6240 3415.4978 603.1575 0.981 -0.194 -0.021 206 184 178
-2252.2712 3351.8767 571.7670 -0.294 -0.906 0.304 41 32 23
-2222.6274 3354.6506 550.4954 0.882 -0.373 -0.289 20 9 0
-2217.2910 3358.6379 545.6489 0.884 -0.227 0.410 19 8 4
-2209.9878 3359.4460 540.3719 0.851 -0.278 0.446 25 14 10
-2209.2837 3383.6580 532.8250 0.993 -0.025 0.112 50 39 32
-2230.0168 3509.1116 510.5509 0.755 -0.580 0.307 197 169 165
-2227.8721 3518.8848 506.2202 0.757 -0.583 0.297 210 182 178
-2514.4880 4675.1318 366.8723 -0.769 -0.600 0.218 199 165 163
-2903.1846 6019.6294 243.0901 -0.140 -0.702 -0.698 202 155 145
-2825.4368 6107.3433 163.8418 -0.257 -0.909 -0.328 184 131 115
