ply
format ascii 1.0
element vertex 796
property float x
property float y
property float z
property float nx
property float ny
property float nz
property uchar diffuse_red
property uchar diffuse_green
property uchar diffuse_blue
end_header
-1787.0042 5794.3169 328.4059 0.131 -0.293 0.947 52 53 55
-1487.1124 5505.0000 132.5981 0.958 -0.264 -0.116 44 43 48
-1453.2395 5648.6221 69.5108 0.967 -0.151 -0.205 83 71 77
-1146.5859 4663.0474 29.5757 0.864 -0.496 0.091 83 68 75
-1491.4828 5973.3599 27.5891 0.776 -0.613 0.148 83 68 75
-1324.6312 5452.4038 2.3047 0.313 -0.588 -0.746 83 64 68
-1466.8771 6221.8286 -51.7350 -0.543 -0.837 -0.062 64 42 43
-1418.5096 6438.8804 -144.6000 0.088 -0.785 0.614 178 140 132
-1391.6829 6405.3213 -160.3316 -0.009 -0.918 0.397 216 167 163
-1373.6471 6408.1333 -176.8047 -0.176 -0.921 0.349 217 155 153
-1363.7345 6405.6660 -184.9260 -0.072 -0.481 0.874 203 133 127
-1349.3666 6383.9053 -192.4714 0.263 -0.388 0.883 212 138 133
-1339.9692 6383.3931 -200.5950 -0.123 -0.553 0.824 206 127 122
-1365.7272 6578.2461 -223.2841 -0.275 -0.939 0.206 186 93 93
-1354.5056 6570.8159 -231.4000 0.173 -0.960 0.219 191 92 93
-1278.6957 6615.6680 -308.3179 0.359 -0.223 0.906 210 98 102
-1277.5872 6841.7720 -361.8346 0.684 0.050 0.728 208 120 119
-157.1488 3846.8403 -648.6049 0.387 -0.809 -0.442 253 170 167
-125.8875 4410.1792 -806.9396 0.810 0.008 0.587 254 179 174
-108.1304 4375.6182 -814.4831 -0.103 -0.433 0.895 241 123 156
-4380.8647 4993.3389 2773.7283 0.901 -0.392 0.185 131 138 138
-4003.5740 5976.2402 2212.3174 -0.502 -0.685 0.527 95 75 59
-2706.4619 5147.2085 1270.5701 -0.069 -0.950 -0.303 37 30 21
-3050.2732 5918.4951 1390.6503 -0.176 -0.496 -0.850 31 26 21
-3115.5215 6177.0073 1387.1014 0.522 -0.499 -0.692 40 29 18
-3018.7781 6245.2583 1286.3104 0.782 -0.553 -0.288 45 41 38
-1845.4122 5861.8662 348.3175 0.176 -0.253 0.951 37 37 39
-1796.3027 5771.2822 326.5656 0.168 -0.281 0.945 48 49 51
-1492.4557 5498.0840 124.5162 0.952 -0.280 -0.120 45 43 48
-1487.6959 5566.6523 104.2418 -0.177 -0.981 -0.073 53 47 52
-1511.3243 6254.3071 -36.5626 0.149 -0.902 -0.406 90 67 71
-1426.2897 6397.8428 -144.7769 0.960 -0.245 0.138 216 181 173
-1394.6312 6383.0562 -169.0415 0.013 -0.887 0.461 204 155 151
-1386.7727 6389.2437 -177.3798 0.006 -0.878 0.479 230 174 172
-1375.6198 6381.5225 -185.3381 -0.095 -0.892 0.441 230 168 166
-1364.5248 6373.9038 -193.2695 -0.004 -0.452 0.892 197 127 122
167.5316 3296.6755 -812.8384 0.747 -0.204 -0.633 190 16 32
-3988.2742 5939.5312 2189.6162 -0.455 -0.683 0.571 85 70 56
-3992.8577 6029.8779 2172.1848 -0.129 -0.846 0.518 115 98 82
-3786.0356 6075.7881 1980.2848 -0.510 -0.727 0.461 141 111 87
-3754.0842 6045.4629 1959.5194 -0.506 -0.723 0.471 138 108 84
-3564.8572 6188.5742 1759.9482 0.558 -0.361 0.747 107 86 65
-3551.7681 6186.2456 1749.0459 0.558 -0.361 0.747 104 83 62
-2716.5959 5150.0181 1264.0717 -0.069 -0.950 -0.303 49 41 29
-3064.5913 5946.0518 1379.6936 -0.105 -0.455 -0.884 38 34 31
-3132.0811 6168.4478 1385.9745 0.532 -0.499 -0.685 44 38 33
-2916.2793 5987.9946 1239.9413 -0.062 -0.614 0.787 41 39 35
-2988.5339 6188.8257 1255.5106 0.595 -0.168 0.786 38 38 36
-2654.6423 6052.8140 995.5814 -0.350 -0.864 0.362 19 17 18
-2645.9976 6056.4863 987.1443 -0.346 -0.865 0.363 19 17 18
-2630.5981 6045.7466 976.2161 -0.346 -0.865 0.363 34 32 33
-2574.1233 6035.0312 929.3345 -0.081 -0.638 0.766 67 56 59
-2609.4807 6157.4907 931.2135 -0.022 -0.628 0.778 77 65 68
-2392.1787 5831.9346 818.3062 -0.121 -0.886 -0.447 73 56 67
-2397.0549 5865.1133 814.6990 -0.089 -0.839 -0.536 74 56 67
-1514.9058 5576.3027 111.2194 -0.125 -0.988 -0.094 67 56 60
-1478.2500 5743.7495 39.3975 0.769 -0.606 -0.204 115 71 77
-1494.2427 5831.2451 32.6273 0.557 -0.808 0.194 123 66 76
-1538.1584 6219.5166 -21.0919 0.890 0.016 -0.457 97 60 66
-1521.9811 6298.6875 -54.0402 0.821 -0.422 0.383 90 54 59
-1488.4620 6241.9512 -69.9091 -0.392 -0.860 -0.326 190 166 160
-1458.9736 6271.3179 -102.6862 0.601 -0.799 -0.014 207 166 165
-1422.8586 6349.9819 -152.9630 0.937 -0.279 0.211 234 184 179
-1400.5145 6373.1929 -178.0267 0.807 -0.585 0.085 177 122 119
-1392.5536 6378.8975 -186.3478 0.254 -0.393 0.884 209 150 146
-1382.0919 6374.1074 -194.3667 0.247 -0.399 0.883 243 178 176
-1367.6725 6352.4473 -201.8451 -0.016 -0.466 0.885 216 145 141
-1348.1334 6348.0503 -217.9014 0.301 -0.331 0.894 197 118 118
-1360.9325 6443.2363 -229.2917 0.921 -0.246 -0.301 170 91 93
-1333.1714 6570.5342 -283.8003 0.999 -0.008 0.036 220 88 90
-1275.4486 6566.4482 -333.3474 0.228 -0.863 0.451 213 79 83
-1230.3691 6668.6890 -397.0654 0.707 0.053 0.706 227 121 126
-4426.9502 5007.2979 2778.7429 -0.256 -0.967 0.001 201 211 212
-3998.7278 6022.4937 2160.9355 -0.131 -0.840 0.526 106 90 75
-3993.5398 6032.1445 2154.0857 0.086 -0.674 0.734 110 91 74
-3978.4109 6027.7417 2141.9160 0.060 -0.606 0.793 120 99 80
-3976.6938 6042.3555 2136.9104 0.081 -0.531 0.844 125 104 85
-3954.4841 6027.8174 2120.9814 0.108 -0.500 0.859 123 104 87
-3559.4941 6162.5747 1743.3700 0.558 -0.361 0.747 104 83 62
-3546.4590 6160.2822 1732.5248 0.558 -0.361 0.747 105 84 63
-3381.4731 6251.8950 1566.3262 -0.528 -0.757 0.386 80 72 59
-3096.4497 6005.3047 1376.2994 0.063 -0.418 -0.906 38 34 32
-3108.1243 6146.5552 1352.6309 0.128 -0.601 0.789 26 21 17
-2994.5146 6056.9736 1274.7982 0.047 -0.630 0.775 26 25 23
-2988.7322 6066.4409 1267.4729 0.083 -0.661 0.746 31 30 28
-2689.7109 6084.9165 1001.6422 0.514 -0.408 0.754 19 17 18
-2681.5181 6089.6919 993.3349 0.505 -0.406 0.762 19 17 18
-2668.4272 6106.2778 977.9133 -0.568 -0.620 0.541 25 23 24
-2607.5974 6042.8247 939.9540 -0.341 -0.715 0.610 41 38 39
-2491.1550 5944.3027 861.7891 0.503 -0.724 -0.472 72 60 62
-2441.1228 5877.5518 834.0598 -0.472 -0.872 -0.132 67 55 59
-2439.6714 5941.1772 817.5324 -0.242 -0.919 -0.312 66 54 61
-2387.2515 5867.3574 789.4109 0.137 -0.809 -0.572 54 42 49
-2325.4514 5999.4297 703.7131 0.438 -0.637 0.634 43 10 9
-2313.3787 5994.2573 694.3998 0.727 -0.279 0.628 46 10 9
-2352.1763 6160.4175 688.4678 0.317 -0.507 0.802 49 16 11
-2226.0837 5997.5840 617.2900 -0.274 -0.956 0.103 53 11 7
-1548.7654 5635.5303 112.0151 -0.184 -0.982 0.043 57 51 58
-1490.8656 5583.7788 73.8109 -0.271 -0.962 -0.039 72 57 60
-1477.2214 5565.9253 66.1649 -0.204 -0.976 -0.077 76 61 64
-1464.7123 5551.7485 58.6294 -0.227 -0.971 -0.079 83 68 71
-1496.4711 5720.3770 45.9524 -0.299 -0.832 -0.467 112 86 84
-1528.4515 5924.7739 24.8913 0.800 -0.385 -0.460 144 71 83
-1528.5085 5956.6475 17.2973 0.818 -0.367 -0.443 162 82 97
-1532.3549 6002.4043 9.6865 0.905 -0.425 -0.015 151 76 89
-1526.0314 6282.6250 -63.0434 0.821 -0.422 0.383 96 62 65
-1498.8192 6250.1328 -79.0396 -0.392 -0.860 -0.326 210 188 178
-1454.0996 6256.3315 -119.6193 0.638 -0.737 0.225 241 194 192
-1411.5493 6346.2373 -178.3773 0.961 -0.248 0.123 184 123 120
-1403.6716 6352.1328 -186.6777 0.269 -0.384 0.883 169 107 105
-1397.6277 6365.6851 -195.2113 0.287 -0.366 0.885 190 123 122
-1387.4021 6361.8701 -203.2354 0.251 -0.396 0.883 225 153 154
-1359.4806 6401.4141 -237.1273 0.921 -0.243 -0.304 184 94 101
-1336.9651 6507.8296 -282.3304 0.975 0.011 0.223 211 80 82
-1311.3820 6562.8779 -317.8963 0.169 -0.325 0.930 218 80 80
-1293.9572 6526.3213 -324.3619 0.197 -0.312 0.929 218 80 81
-1287.8837 6585.6050 -343.8885 0.436 -0.380 -0.816 223 82 88
-1276.3594 6665.8584 -373.2091 0.429 -0.426 -0.797 231 90 107
-1227.6844 6523.1055 -381.5252 0.686 0.038 0.727 230 100 113
-1223.5964 6548.5854 -391.2095 0.693 0.041 0.720 231 108 119
-1215.0864 6552.7227 -399.6410 0.693 0.041 0.720 233 117 126
-1019.3124 6491.4268 -556.0839 0.925 -0.062 0.375 207 124 120
-4434.9722 5004.4355 2770.3918 -0.198 -0.980 0.034 203 213 214
-4011.1882 6024.3857 2153.2129 -0.134 -0.836 0.532 102 88 72
-4001.3389 6027.4697 2143.8652 0.048 -0.659 0.750 110 92 75
-3984.0479 6020.0327 2130.5686 0.064 -0.609 0.791 119 98 79
-3984.7759 6038.0723 2126.8335 0.120 -0.520 0.846 122 103 86
-3845.1641 5940.3311 2028.6058 0.758 -0.581 -0.295 127 100 79
-3838.5977 5947.7964 2021.0632 0.777 -0.580 -0.244 135 107 86
-3543.8301 6157.5864 1712.8397 -0.253 -0.760 0.598 99 81 61
-3388.6943 6226.4048 1560.7002 0.764 -0.377 0.523 85 76 60
-3329.4253 6144.0820 1528.8926 -0.519 -0.766 0.379 80 72 58
-2996.4199 6062.3960 1257.9026 0.057 -0.669 0.741 27 26 24
-2633.9666 5905.6958 979.3741 0.309 -0.785 -0.537 15 15 13
-2682.3472 6027.8906 992.0132 0.778 -0.482 -0.404 19 17 18
-2683.8169 6096.6367 976.6396 -0.138 -0.900 0.413 19 17 18
-2609.4651 6026.8228 928.6309 -0.347 -0.717 0.605 38 35 36
-2552.1609 5969.4087 892.5036 0.212 -0.377 0.902 74 62 62
-2535.6230 5955.5000 881.4327 0.211 -0.380 0.901 78 66 66
-2491.1558 5924.2915 850.1653 0.499 -0.641 -0.583 64 52 52
-2424.5503 5909.2593 795.6473 0.092 -0.623 0.777 47 37 41
-2409.1753 5896.9092 785.2142 0.087 -0.619 0.780 45 36 39
-2301.1919 5761.3457 723.7689 -0.011 -0.731 -0.682 31 15 27
-2413.4592 6139.0200 730.2928 0.828 -0.427 0.363 35 12 23
-2384.0955 6117.6460 709.8310 0.199 -0.401 0.894 56 14 15
-2285.3091 5929.3032 669.2047 0.131 -0.260 0.957 60 13 13
-2344.8860 6096.3423 680.7548 0.829 -0.240 0.505 58 12 12
-2347.1455 6126.1372 675.5086 0.343 -0.515 0.785 57 12 11
-2263.7410 6069.1260 616.4929 -0.671 -0.734 0.107 57 9 7
-1598.6483 5689.0674 127.8169 -0.355 -0.899 -0.256 54 51 58
-1554.7855 6053.7656 1.1512 0.207 -0.550 -0.809 180 88 106
-1534.2258 6247.2935 -63.6922 0.413 -0.906 -0.094 144 116 117
-1528.3040 6260.0249 -71.9480 0.753 -0.316 0.577 113 85 87
-1520.1555 6264.4697 -80.1403 0.753 -0.316 0.577 120 92 93
-1515.1208 6280.7412 -88.4790 0.722 -0.515 0.462 211 189 179
-1491.8958 6263.2383 -104.5185 0.419 -0.867 0.269 219 191 183
-1439.8545 6277.3550 -153.3816 0.946 -0.294 0.135 201 129 131
-1419.0299 6305.3271 -178.3433 0.960 -0.245 0.136 235 163 164
-1415.2395 6327.6670 -187.0659 0.961 -0.248 0.123 211 141 141
-1406.6049 6330.3452 -195.2547 0.269 -0.384 0.883 180 109 109
-1390.5579 6340.7617 -211.7909 0.251 -0.396 0.883 205 126 129
-1372.2135 6460.8164 -256.8978 0.881 -0.328 0.341 199 93 105
-1349.0990 6442.0488 -272.5342 0.997 -0.051 -0.049 202 92 103
-1343.8809 6460.2021 -281.4891 0.992 0.046 0.115 206 90 100
-1295.4709 6495.3198 -332.2698 -0.003 -0.480 0.877 233 91 98
-1291.3309 6562.8555 -352.2484 0.438 -0.385 -0.813 236 91 100
-1285.6840 6625.0342 -372.2448 0.446 -0.375 -0.813 244 94 114
-1281.6704 6651.0850 -382.0616 0.446 -0.375 -0.813 242 96 115
-1207.1545 6385.1362 -382.6911 0.658 -0.001 0.753 233 99 113
-1214.9540 6466.9551 -395.7050 0.628 -0.024 0.777 233 107 119
-337.4767 4504.5781 -686.4487 0.205 -0.406 0.891 240 80 108
-335.2038 4542.3091 -697.5755 1.000 -0.004 -0.002 252 67 104
-4324.2188 5081.9302 2638.7664 -0.535 -0.752 0.385 168 167 163
-3887.8528 5819.6641 2077.5801 -0.347 -0.844 0.409 88 77 64
-3828.8577 5867.8584 2014.3264 0.096 -0.593 0.799 124 104 87
-3853.7957 5937.1714 2019.1123 0.799 -0.560 -0.220 128 101 80
-3878.1196 6006.3433 2023.3967 0.717 -0.563 0.411 139 112 91
-3801.2178 5962.9521 1966.9419 -0.319 -0.696 0.643 139 111 89
-2667.7312 5956.5483 979.8549 0.254 -0.803 -0.539 15 15 13
-2674.7139 5992.4399 977.1600 0.778 -0.458 -0.430 19 17 18
-2673.1296 6032.3765 966.0027 0.781 -0.472 -0.409 19 17 18
-2696.7700 6103.9326 969.1074 -0.077 -0.898 0.433 19 17 18
-2664.9539 6080.9395 946.9848 -0.036 -0.996 0.081 39 37 38
-2582.2615 5970.5938 901.8681 0.178 -0.359 0.916 61 51 51
-2532.4294 5928.7144 868.6544 0.466 -0.370 0.804 78 66 66
-2518.2551 5919.7896 858.4757 0.612 -0.582 -0.535 64 52 52
-2514.5774 5933.7192 851.8583 0.601 -0.596 -0.533 60 48 48
-2510.0288 5945.8198 844.9290 0.587 -0.601 -0.543 60 48 48
-2508.9375 5987.9399 833.6672 -0.302 -0.908 0.291 54 45 46
-2457.0388 5917.3252 805.6845 0.171 -0.650 0.741 53 44 47
-2449.0674 5921.8042 797.6351 0.159 -0.798 0.581 53 44 47
-2417.6755 5873.6509 782.0413 0.475 -0.528 -0.704 42 33 36
-2407.5061 5872.9771 773.3360 0.480 -0.528 -0.701 41 32 35
-2409.2764 5921.8296 762.9224 0.134 -0.837 -0.530 42 31 35
-2423.0588 6116.0454 727.4051 0.853 -0.418 0.314 35 13 20
-2409.9475 6109.1538 717.6559 0.858 -0.418 0.297 39 11 19
-2405.7671 6123.2520 710.5587 0.254 -0.371 0.893 65 15 20
-2300.5525 5921.2598 668.2302 0.192 -0.313 0.930 73 14 18
-2261.2974 5850.8613 651.2225 0.128 -0.263 0.956 74 14 18
-2104.9031 6395.1621 381.5817 -0.189 -0.630 -0.753 29 25 26
-1739.7870 5539.2788 272.6153 -0.440 -0.713 0.546 41 38 39
-1492.8931 5655.2471 28.8826 -0.138 -0.919 -0.370 150 101 105
-1616.9347 6212.0972 0.7730 -0.588 -0.769 0.252 188 78 99
-1547.6740 6231.9438 -64.4959 0.870 -0.371 -0.325 197 174 174
-1539.9615 6237.8853 -72.6771 0.588 -0.808 -0.045 194 171 170
-1530.7141 6238.1309 -80.8031 0.753 -0.316 0.577 131 107 107
-1522.5907 6242.5581 -88.9722 0.753 -0.316 0.577 107 81 79
-1515.0204 6249.0859 -97.1729 0.752 -0.312 0.581 201 172 165
-1509.6068 6263.8394 -105.5060 0.729 -0.515 0.451 224 193 186
-1498.7045 6257.7661 -113.5289 0.626 -0.738 0.253 219 184 178
-1443.1320 6257.8696 -162.0259 0.820 -0.558 0.129 201 120 125
-1437.5149 6272.2686 -170.4497 0.942 -0.296 0.156 213 129 134
-1409.5208 6308.6865 -203.7810 0.269 -0.384 0.883 208 126 130
-1400.3146 6308.8975 -211.8625 0.268 -0.379 0.886 189 105 110
-1376.8373 6288.1079 -227.2512 -0.036 -0.488 0.872 241 131 147
-1356.6217 6358.6328 -262.1462 -0.133 -0.760 0.636 225 104 121
-1288.6995 6427.0376 -338.1334 0.189 -0.409 0.893 245 100 113
-1288.2655 6597.8691 -380.3268 0.505 -0.195 -0.841 249 99 119
-1205.6517 6339.5791 -389.1621 0.528 -0.047 0.848 232 99 114
-326.0789 4333.1255 -665.2219 0.981 -0.030 -0.189 243 79 108
-4528.6572 5266.7832 2755.0334 0.556 -0.831 -0.011 217 216 212
-4393.0713 5145.1689 2666.9746 -0.531 -0.750 0.395 190 189 185
-4003.8667 4745.0757 2426.8062 -0.537 -0.751 0.383 109 109 107
-4194.6406 4977.8125 2535.4722 -0.573 -0.777 0.260 111 108 101
-4026.5105 5931.3677 2153.2219 -0.636 -0.687 0.352 55 45 33
-3945.2805 5951.0366 2077.5876 0.482 -0.607 0.632 113 94 77
-3852.8000 5870.0742 2017.0327 0.079 -0.595 0.800 127 108 91
-3825.1289 5847.2227 1998.5745 0.096 -0.593 0.799 122 103 86
-3866.0830 6007.4092 1994.6490 0.061 -0.669 0.741 138 113 91
-3826.5515 5967.0537 1970.1855 -0.335 -0.689 0.643 143 116 95
-3825.2668 5999.5513 1961.0311 0.827 -0.518 -0.218 144 116 94
-3239.2729 5935.4658 1466.3330 -0.622 -0.703 0.344 81 72 55
-3255.0173 6000.1270 1464.0627 -0.599 -0.755 0.268 80 74 58
-3183.5156 5914.6528 1422.9009 -0.321 -0.858 -0.400 57 50 32
-3142.9531 5881.8071 1395.6823 -0.544 -0.829 -0.130 35 29 14
-2660.1516 5879.6685 975.5732 0.563 -0.553 -0.614 17 17 15
-2679.8499 6005.1514 961.7094 0.781 -0.439 -0.443 42 40 41
-2717.1592 6126.7407 964.1519 0.594 -0.278 0.755 57 55 56
-2701.5674 6116.1201 953.1934 0.572 -0.278 0.771 62 60 61
-2673.7957 6079.6616 938.0119 -0.038 -0.993 0.111 63 61 62
-2635.1594 6019.8574 919.1369 0.170 -0.360 0.917 64 62 63
-2543.5579 5911.2812 866.1754 0.212 -0.377 0.902 83 71 71
-2516.0593 5939.0781 835.3446 0.616 -0.634 -0.468 64 52 52
-2509.1179 5945.9512 827.5976 0.296 -0.844 0.448 64 52 52
-2460.3445 5904.6338 795.3198 0.171 -0.650 0.741 55 44 48
-2445.0408 5914.9551 779.4346 0.398 -0.917 -0.009 41 30 34
-2431.6545 5952.2363 758.5542 0.147 -0.844 -0.516 27 14 18
-2404.7654 5913.7705 744.6378 0.179 -0.833 -0.524 31 10 11
-2412.6272 6046.7920 718.5977 0.745 -0.110 0.658 42 17 19
-2412.5618 6070.1484 712.7657 0.754 -0.105 0.648 49 21 24
-2343.0938 5931.1689 686.6050 0.874 -0.440 0.207 58 24 27
-2299.3269 5897.4233 656.8172 0.163 -0.322 0.932 93 19 28
-2236.3010 5770.6338 633.2552 0.134 -0.509 0.850 93 19 28
-2179.9702 5726.3818 595.1187 0.110 -0.475 0.873 92 21 29
-2255.4277 6053.4619 579.9895 -0.663 -0.736 0.134 76 14 17
-2104.9819 6369.8892 370.6774 -0.153 -0.608 -0.779 23 19 20
-1729.1306 5745.5625 197.5851 0.084 -0.953 0.291 39 37 42
-1557.9388 5428.1982 126.9041 0.733 -0.665 0.145 46 43 50
-1598.9196 5612.4702 117.0467 0.804 -0.578 -0.138 58 55 62
-1588.9080 5720.3384 81.6537 0.655 -0.551 0.517 78 67 70
-1554.0302 6224.9141 -73.4905 0.870 -0.371 -0.325 223 196 197
-1545.5883 6228.1323 -81.6411 0.687 -0.536 0.491 226 199 200
-1533.6216 6218.2695 -89.6284 0.752 -0.312 0.581 189 161 163
-1522.9250 6212.9932 -97.6431 0.767 -0.315 0.559 150 118 118
-1517.4011 6227.0356 -105.9277 0.752 -0.312 0.581 209 162 161
-1509.3245 6231.5640 -114.0842 0.757 -0.310 0.576 226 175 175
-1488.6193 6223.2681 -130.0723 0.592 -0.789 -0.164 212 151 153
-1485.7972 6247.9385 -138.6307 -0.055 -0.851 0.523 153 84 90
-1445.6000 6235.3652 -170.5437 -0.073 -0.990 -0.121 212 118 127
-1426.3176 6305.9424 -204.7935 -0.011 -0.944 -0.330 235 139 148
-1410.8074 6280.6055 -212.0422 -0.028 -0.484 0.874 230 132 142
-1356.0729 6282.5464 -260.2092 0.183 -0.408 0.895 255 126 149
-1350.8158 6299.1558 -268.8961 0.094 -0.447 0.890 249 117 138
-1348.7115 6369.1030 -288.0239 -0.139 -0.773 0.619 250 116 137
-1339.2817 6368.4028 -296.0664 0.987 -0.113 -0.113 251 116 135
-1288.1154 6387.4482 -345.3538 -0.166 -0.820 0.547 251 107 128
-1309.4147 6526.1152 -361.0826 0.640 -0.289 -0.712 253 107 128
-1288.6841 6474.3960 -366.3563 0.527 -0.184 -0.830 253 106 126
-1289.4867 6521.0962 -377.2037 0.527 -0.184 -0.830 254 102 123
-340.3559 4551.2109 -717.0708 0.976 -0.045 -0.212 255 53 98
-4513.4502 5225.6226 2735.2712 0.588 -0.803 -0.101 221 222 217
-4535.6133 5262.2642 2745.4087 0.556 -0.831 -0.011 221 220 216
-4456.7578 5202.4800 2691.7136 -0.521 -0.750 0.409 212 211 207
-4271.8926 5038.7314 2571.7253 -0.480 -0.777 0.408 114 113 108
-4228.3037 5003.3042 2542.6389 -0.571 -0.780 0.256 112 109 101
-3966.7288 5949.0337 2078.8220 0.654 -0.256 0.712 98 79 62
-3939.1448 5926.9785 2060.3247 0.510 -0.590 0.626 98 79 62
-3913.2595 5907.1655 2042.7456 0.078 -0.681 0.728 113 94 79
-3889.0374 5889.5654 2026.0612 -0.010 -0.655 0.755 120 101 84
-3855.3547 5858.4189 2004.5269 -0.018 -0.641 0.767 119 100 83
-3808.5371 5824.8237 1972.1730 -0.026 -0.807 0.590 120 97 78
-3817.7942 6007.2354 1934.6752 0.749 -0.623 -0.226 141 111 87
-3776.5776 6050.9653 1887.8851 0.954 -0.236 -0.187 127 99 77
-3271.5852 6011.1846 1458.3438 -0.510 -0.848 0.146 80 74 58
-3226.2471 5952.3164 1433.5889 0.120 -0.900 -0.420 78 71 55
-2669.3833 5879.6694 967.1133 0.563 -0.553 -0.614 17 17 15
-2661.8059 6034.5103 921.8506 0.657 -0.318 0.683 90 88 89
-2544.0198 5892.7031 854.7595 0.515 -0.403 0.757 92 80 80
-2529.1655 5882.3506 844.4176 0.612 -0.425 0.667 88 76 76
-2544.1724 5936.4717 843.9619 0.828 -0.488 -0.277 78 66 66
-2548.4702 5967.7383 839.8940 0.733 -0.607 -0.305 77 65 65
-2543.0229 5977.9819 832.5952 0.733 -0.607 -0.305 77 65 65
-2535.8850 5984.5801 824.7355 0.728 -0.622 -0.288 77 65 66
-2510.4778 5973.3032 805.4407 0.090 -0.878 0.471 70 59 65
-2482.0950 5932.8438 790.8444 0.141 -0.840 0.524 64 51 58
-2479.9824 5950.4297 784.6138 0.493 -0.821 -0.287 59 46 53
-2461.0981 5953.0991 767.5131 0.496 -0.595 -0.632 44 32 36
-2467.7397 6013.3521 758.2459 0.233 -0.805 0.545 34 20 23
-2364.4644 5960.2754 681.6243 0.861 -0.467 0.200 65 24 23
-2353.3684 5980.8062 666.8405 0.100 -0.289 0.952 103 21 33
-2303.2681 5885.9375 646.9319 0.104 -0.337 0.936 105 20 33
-2235.5288 5748.4233 622.3224 0.124 -0.514 0.849 107 19 33
-2188.9419 5682.4365 598.2584 0.208 -0.181 0.961 107 22 35
-2023.5410 5414.1973 521.3040 0.194 -0.198 0.961 91 23 28
-2260.1650 6043.1245 570.1664 -0.668 -0.732 0.136 81 13 18
-2023.9253 6064.6284 359.2056 -0.018 -0.712 -0.702 25 19 19
-2111.2393 6419.0200 346.6893 -0.598 -0.798 0.075 38 34 35
-1737.8760 5775.0874 182.5751 0.080 -0.935 0.346 38 36 41
-1661.7108 5816.4858 105.9528 -0.185 -0.964 0.190 55 52 59
-1654.4614 5821.8647 98.3007 -0.240 -0.892 0.383 62 59 66
-1601.7369 5708.3896 80.7548 0.081 -0.954 0.287 80 74 81
-1561.2463 5632.5811 64.4492 -0.336 -0.908 -0.251 101 85 88
-1555.9535 5671.9253 50.0174 -0.109 -0.733 0.671 119 101 105
-1534.8680 5687.9219 27.6729 0.104 -0.700 0.706 144 125 129
-1576.2725 5857.6670 21.3150 -0.001 -0.686 -0.728 150 127 130
-1636.6165 6222.5918 -17.3030 -0.538 -0.784 0.309 205 104 125
-1594.5494 6173.3540 -41.6161 -0.511 -0.781 0.359 239 164 177
-1550.0709 6214.2407 -90.5348 0.687 -0.536 0.491 247 202 209
-1535.9374 6196.3882 -98.3764 0.752 -0.312 0.581 225 179 185
-1529.9319 6208.4692 -106.6198 0.777 -0.285 0.561 189 140 145
-1522.0913 6213.7998 -114.7743 0.777 -0.285 0.561 221 150 157
-1490.2230 6233.4263 -147.4094 -0.027 -0.829 0.558 204 106 121
-1473.6807 6241.0005 -163.6971 -0.262 -0.938 0.227 237 128 147
-1462.4722 6233.3584 -171.5429 -0.264 -0.942 0.207 238 127 145
-1452.6974 6231.1992 -179.5104 0.715 -0.625 -0.312 227 115 130
-1450.7334 6296.4233 -197.5080 -0.003 -0.951 -0.309 241 127 142
-1446.6498 6317.2017 -206.2509 0.068 -0.949 -0.307 244 131 145
-1371.7740 6237.8223 -251.5889 0.034 -0.457 0.889 254 134 153
-1348.9722 6218.7017 -266.6576 0.051 -0.433 0.900 255 131 152
-1325.0482 6232.7485 -290.9855 0.959 -0.197 0.205 255 123 144
-1330.4714 6295.1865 -301.8586 0.990 -0.076 -0.118 255 122 144
-1328.5266 6326.4561 -311.3601 0.991 -0.073 -0.114 255 119 144
-344.3954 4540.1523 -721.7173 0.972 -0.040 -0.232 254 54 99
-4547.5762 5263.1357 2738.7800 0.491 -0.854 -0.175 221 220 216
-3970.6318 4698.7554 2379.5962 -0.514 -0.751 0.414 115 114 109
-4266.7505 5033.8823 2552.4836 -0.564 -0.784 0.258 110 106 98
-4021.5796 5910.6309 2118.2356 -0.637 -0.690 0.345 51 41 29
-3944.0732 5918.5415 2048.8657 0.516 -0.591 0.619 85 66 49
-3919.1487 5900.1313 2031.8425 0.094 -0.673 0.734 94 75 58
-3895.8796 5883.9253 2015.7025 -0.043 -0.648 0.761 103 84 67
-3867.0732 5859.7676 1996.7544 -0.043 -0.648 0.761 109 90 73
-3844.6206 5844.4600 1981.0977 -0.066 -0.792 0.606 117 96 79
-3823.9492 5831.5737 1966.3784 -0.046 -0.824 0.564 114 92 72
-3825.1582 6002.1055 1924.4192 0.749 -0.623 -0.226 135 105 81
-3739.7493 6014.7207 1846.9933 -0.195 -0.633 0.749 124 97 76
-2701.8284 5990.3345 950.8988 0.427 -0.457 0.780 49 47 48
-2689.5337 5986.3398 941.2189 0.509 -0.406 0.759 92 90 91
-2683.7915 5995.8804 933.8211 0.196 -0.386 0.902 101 99 100
-2664.1472 5976.5210 921.6274 0.106 -0.433 0.895 110 108 109
-2555.4009 5919.1963 841.5542 0.835 -0.477 -0.273 100 88 88
-2556.4348 5943.1841 836.4029 0.842 -0.471 -0.263 97 85 85
-2556.3640 5964.9424 830.8536 0.723 -0.619 -0.308 97 85 85
-2544.6462 5961.5474 821.5238 0.742 -0.617 -0.263 97 85 85
-2552.6052 6001.0024 818.4914 0.379 -0.830 0.409 97 86 86
-2541.0012 5997.9180 809.1821 0.001 -0.894 0.448 88 77 81
-2526.6536 5988.7534 799.0214 0.020 -0.891 0.454 83 72 76
-2488.6821 5927.3716 781.4948 0.244 -0.766 0.595 77 66 70
-2480.3770 5931.1855 773.3134 0.508 -0.594 -0.624 72 61 65
-2465.6135 5942.9473 757.5134 0.501 -0.597 -0.626 57 45 49
-2468.4058 5971.6616 752.6985 0.663 -0.738 -0.127 51 39 43
-2467.6045 5992.4922 746.7483 0.112 -0.829 0.548 48 33 36
-2408.1599 5880.9663 723.2023 -0.021 -0.804 0.594 49 18 15
-2456.1350 6081.6338 714.2957 0.179 -0.825 -0.537 46 11 3
-2413.3899 6006.5596 696.0727 0.581 -0.197 0.790 51 14 8
-2374.2800 5962.2827 673.2422 0.100 -0.308 0.946 69 22 20
-2237.5857 5733.0347 612.2354 0.123 -0.539 0.833 121 23 40
-2213.9104 5699.3721 600.1450 0.223 -0.585 0.780 121 25 42
-2272.7249 6076.6714 556.1122 -0.665 -0.734 0.139 84 11 20
-2123.5903 6428.0361 337.8543 -0.153 -0.598 -0.787 45 41 42
-1624.6892 5433.4424 155.0167 -0.170 -0.656 0.736 38 36 41
-1597.2402 5452.3271 126.3928 0.075 -0.925 -0.373 62 60 65
-1658.7261 5781.6157 96.7910 -0.248 -0.946 0.208 53 50 57
-1656.9897 5804.4810 89.5148 -0.233 -0.893 0.385 66 63 70
-1649.8307 5810.0923 81.8764 -0.224 -0.896 0.384 84 79 86
-1604.1100 5719.2178 65.0518 0.410 -0.658 0.632 110 97 100
-1576.5165 5685.8892 49.4712 0.352 -0.704 0.617 140 124 127
-1571.5765 5698.1870 42.0753 0.056 -0.702 0.710 151 135 138
-1583.9452 6172.3999 -66.7746 -0.180 -0.854 0.489 229 163 175
-1569.0504 6185.6230 -83.0574 0.866 -0.403 -0.296 203 140 153
-1566.8076 6211.1875 -91.4547 0.883 -0.377 -0.280 235 172 185
-1495.5310 6222.3823 -156.2375 -0.111 -0.851 0.513 246 120 145
-1485.7039 6220.1670 -164.2213 -0.124 -0.857 0.500 229 98 124
-1474.8699 6214.0083 -172.0858 -0.124 -0.857 0.500 240 106 133
-1449.5083 6222.8320 -196.3576 0.733 -0.554 -0.395 247 123 143
-1424.8301 6234.3438 -220.7133 0.088 -0.385 0.919 254 136 155
-1333.2415 6195.0400 -290.4168 0.216 -0.678 0.702 255 133 153
-345.3959 4497.8823 -721.0901 0.973 -0.038 -0.228 253 53 98
-4445.6001 5116.7881 2670.6809 0.799 -0.535 -0.274 218 221 218
-4390.0459 5119.2007 2621.8289 -0.529 -0.751 0.395 177 177 173
-4304.8247 5063.8872 2561.9189 -0.554 -0.790 0.262 109 105 97
-3983.4890 5859.5332 2080.2588 -0.544 -0.684 0.486 50 40 28
-3923.9194 5891.5439 2020.3818 0.127 -0.671 0.730 76 57 40
-3882.2659 5865.9878 1990.7230 0.041 -0.670 0.741 98 80 61
-3876.2256 5873.9854 1983.4414 0.518 -0.686 0.511 111 90 73
-3842.6335 5842.9082 1962.1885 0.887 -0.463 0.003 109 86 68
-3850.0774 5988.1758 1931.6534 0.825 -0.512 -0.239 140 113 91
-3861.4097 6039.2275 1928.4908 0.791 -0.586 -0.177 128 99 76
-3824.5388 6072.3857 1888.0308 -0.304 -0.696 0.651 125 98 75
-3829.1345 6096.8994 1885.7778 -0.247 -0.808 0.536 123 95 74
-3700.2720 5956.7808 1809.5736 0.855 -0.158 0.494 139 112 91
-3699.9346 5973.7104 1804.9688 0.908 -0.191 0.372 122 95 74
-3553.7300 6125.1367 1639.4524 0.427 -0.581 0.694 90 73 54
-3281.7717 5975.1265 1441.5176 0.520 -0.532 0.668 81 74 58
-3205.2769 5957.2002 1379.6630 0.677 -0.435 0.593 35 30 23
-3186.7214 5943.9727 1366.9202 0.714 -0.462 0.526 31 26 22
-2715.6951 5978.2300 949.2034 0.133 -0.552 0.823 18 17 15
-2701.3987 5970.1631 938.8443 0.427 -0.457 0.780 52 50 51
-2694.5500 5977.3481 931.0676 0.131 -0.411 0.902 95 93 94
-2677.6777 5963.8403 919.8577 0.165 -0.391 0.906 105 103 104
-2670.5281 5970.3799 911.9842 0.107 -0.435 0.894 114 112 113
-2652.3110 5953.8906 900.3660 0.369 -0.482 0.795 117 115 116
-2634.5964 5938.3008 888.9551 0.526 -0.454 0.719 115 113 114
-2620.2083 5929.5474 878.6912 0.530 -0.455 0.716 116 114 115
-2555.4348 5899.7046 830.0491 0.839 -0.518 -0.168 110 99 99
-2554.3362 5918.9810 824.1858 0.842 -0.513 -0.168 111 100 99
-2549.2175 5929.7134 817.0078 0.842 -0.513 -0.168 111 100 100
-2536.7190 5924.5308 807.4752 0.858 -0.389 -0.335 111 100 100
-2545.3435 5965.1763 804.6119 0.077 -0.812 0.579 111 101 100
-2537.9270 5971.1240 796.6572 0.135 -0.878 0.460 98 89 91
-2523.6003 5961.9604 786.5514 0.119 -0.884 0.451 92 82 84
-2492.4678 5915.7529 771.2877 0.166 -0.849 0.502 87 77 77
-2484.4480 5920.1646 763.2006 0.491 -0.602 -0.630 81 71 72
-2479.9280 5932.3389 756.1751 0.501 -0.597 -0.626 72 62 62
-2475.0923 5943.8809 749.0366 0.501 -0.597 -0.626 66 56 56
-2461.0503 6071.8457 704.2523 0.146 -0.847 -0.512 51 10 0
-2404.1729 5987.5762 676.3283 0.639 -0.185 0.746 63 18 11
-2398.4004 5997.3726 668.8212 0.623 -0.187 0.759 74 21 17
-2370.0891 5954.8145 655.0776 0.096 -0.296 0.950 117 31 41
-2319.4924 5882.6919 629.5137 0.099 -0.295 0.950 126 27 45
-2167.2744 5547.3838 582.7432 0.692 -0.679 0.245 127 27 45
-2160.0691 5552.0352 575.3021 0.692 -0.679 0.245 129 29 47
-2154.3076 6430.9404 346.4492 -0.062 -0.589 -0.805 39 34 34
-2152.6790 6454.9429 338.9219 -0.100 -0.581 -0.808 43 39 39
-2140.5859 6449.9136 329.7024 -0.106 -0.590 -0.801 50 45 46
-1975.5253 6124.4863 269.2641 -0.640 -0.752 -0.161 39 35 36
-1866.0775 5918.0649 226.8046 0.268 -0.704 -0.658 42 42 44
-1731.9767 5762.9883 149.8617 -0.164 -0.712 0.683 39 37 42
-1600.3311 5387.3467 131.2268 0.602 -0.377 0.704 42 40 45
-1592.6144 5389.1782 124.0600 0.835 -0.330 0.440 46 44 49
-1567.3744 5658.9409 33.4377 -0.176 -0.753 0.634 176 161 164
-1557.7104 5655.4785 25.9284 0.025 -0.723 0.690 160 145 148
-1554.1044 5672.0908 18.5662 0.466 -0.684 0.561 153 138 141
-1632.4067 6215.2168 -51.7738 -0.534 -0.770 0.349 162 99 105
-1625.1438 6222.7021 -59.9866 -0.045 -0.771 0.635 214 152 159
-1612.2854 6210.4731 -68.0370 0.356 -0.743 0.566 215 134 149
-1596.8197 6222.0991 -84.4269 -0.169 -0.688 0.706 172 87 106
-1540.7693 6153.9106 -115.7283 -0.006 -0.507 0.862 253 167 186
-1445.2568 6357.6606 -250.5553 0.603 -0.589 0.538 255 138 159
-1434.9863 6353.9976 -258.5401 0.562 -0.622 0.545 255 139 158
-1420.7917 6334.2671 -265.8401 0.570 -0.659 0.491 255 138 155
-1368.6428 6158.7280 -266.4125 -0.001 -0.649 -0.760 254 139 155
-1329.9036 6301.9648 -336.5311 1.000 -0.007 0.013 255 116 148
-315.7155 4037.5681 -640.4259 0.824 -0.004 0.567 232 71 100
-34.6852 3288.4675 -693.6543 0.597 -0.015 0.802 254 66 112
-26.3396 3271.2515 -696.5160 0.621 -0.000 0.784 254 79 125
-4363.9917 4899.2378 2639.4802 0.190 -0.976 -0.106 206 218 216
-4472.5605 5196.5903 2657.1726 -0.535 -0.751 0.387 193 193 191
-4325.2544 5074.5347 2560.8008 -0.542 -0.788 0.291 110 106 101
-3849.9995 5805.3799 1960.6498 -0.028 -0.643 0.765 87 65 52
-3828.6919 5791.6548 1945.6992 0.172 -0.594 0.786 93 70 56
-3836.5769 5819.1426 1945.4690 0.886 -0.463 0.016 101 78 61
-3872.9387 6040.0640 1920.1908 0.775 -0.611 -0.161 121 97 74
-3861.0718 6075.0210 1900.9084 -0.363 -0.702 0.613 124 101 78
-3764.2849 6001.6953 1835.8210 -0.219 -0.707 0.672 136 109 90
-3708.5510 6005.6763 1786.4584 0.863 -0.255 0.437 126 98 80
-3554.1885 6108.7959 1626.0573 0.427 -0.581 0.694 90 72 50
-3178.5168 5801.4683 1379.2675 0.164 -0.675 0.720 75 66 51
-3183.4355 5921.0161 1352.7889 0.700 -0.555 0.449 32 27 21
-3165.4036 6042.9922 1305.7805 0.160 -0.640 -0.752 43 35 32
-3186.6802 6100.6089 1309.4165 0.260 -0.593 -0.762 43 35 30
-3230.2834 6239.2129 1311.5891 -0.264 -0.768 -0.583 37 29 24
-3203.2056 6231.1157 1290.1865 -0.251 -0.814 -0.523 36 29 25
-3189.8159 6227.2583 1279.5653 -0.252 -0.814 -0.523 36 32 27
-2740.5354 5988.4629 951.3084 0.129 -0.435 0.891 22 19 18
-2720.6724 5969.2041 939.0339 0.129 -0.435 0.891 23 19 18
-2701.2346 5950.6440 926.9482 0.121 -0.430 0.894 46 42 41
-2684.0669 5936.5786 915.6756 0.133 -0.405 0.905 79 75 74
-2671.0530 5930.9399 905.8387 0.129 -0.403 0.906 100 96 95
-2651.9658 5933.8628 888.5323 0.370 -0.481 0.795 109 105 104
-2603.9299 5897.3955 856.2484 0.493 -0.458 0.740 109 105 104
-2590.4036 5890.2407 846.3568 0.491 -0.461 0.739 113 108 105
-2562.9885 5874.9189 826.5196 0.462 -0.507 0.728 113 107 104
-2562.1167 5894.4946 820.7291 0.849 -0.504 -0.157 114 106 104
-2562.8950 5917.7271 815.4294 0.845 -0.507 -0.173 108 100 98
-2561.0706 5935.5210 809.2708 0.671 -0.732 0.115 107 99 97
-2548.3047 5929.8296 799.6624 0.720 -0.690 0.080 108 99 97
-2512.5493 5917.8770 771.7251 0.102 -0.946 0.308 103 92 91
-2501.7063 5916.1328 762.7692 0.102 -0.946 0.308 103 92 90
-2488.1191 5908.3145 752.9958 0.843 -0.495 -0.212 102 91 89
-2483.2524 5919.6602 745.8568 0.843 -0.495 -0.212 79 69 66
-2476.7429 5927.4282 738.2132 0.846 -0.489 -0.211 87 76 73
-2504.8682 6057.8369 729.0691 0.672 0.003 0.740 86 36 27
-2500.0571 6069.9990 721.7686 0.639 0.001 0.769 84 29 18
-2489.1409 6068.4268 712.7051 0.639 0.001 0.769 81 22 12
-2455.8447 6016.0073 697.3077 0.331 -0.811 0.482 78 17 7
-2449.3569 6024.2427 689.5627 0.378 -0.794 0.477 88 28 17
-2430.5754 6004.3828 678.3807 0.165 -0.874 0.456 85 25 14
-2417.4775 5997.3940 668.8180 0.172 -0.301 0.938 80 19 9
-2395.2773 6039.1011 638.8373 0.277 -0.904 0.326 115 27 41
-2304.0198 6109.4585 541.5941 0.280 -0.178 0.943 74 9 18
-2291.4268 6103.1572 532.2925 0.637 -0.621 0.456 70 10 18
-2256.3206 6065.6304 511.4952 0.633 -0.555 0.540 45 19 20
-2246.5188 6065.9424 502.9137 0.625 -0.557 0.547 37 13 14
-2071.8921 6124.6211 336.3663 0.056 -0.632 -0.773 32 23 22
-2188.9951 6529.9287 333.6974 -0.025 -0.683 -0.730 44 36 35
-1987.7749 6134.7021 260.8175 -0.658 -0.731 -0.181 23 16 15
-1817.4932 5752.9629 211.3026 -0.048 -0.702 -0.711 41 39 40
-1822.0070 5792.4360 205.0659 0.007 -0.701 -0.713 39 37 38
-1630.7316 5483.2036 118.6959 0.101 -0.974 -0.202 41 36 42
-1628.5175 5502.4580 111.8240 0.113 -0.969 -0.218 46 41 47
-1688.4332 5741.5430 102.3036 0.833 -0.543 -0.105 56 50 57
-1695.9154 5820.6851 88.4397 -0.436 -0.896 -0.088 90 83 91
-1595.1090 5667.9189 40.2961 -0.368 -0.690 0.623 167 152 157
-1575.0094 5630.6592 32.4455 0.158 -0.834 0.529 176 161 166
-1573.3523 5653.3667 25.1686 -0.176 -0.753 0.634 182 167 172
-1670.9290 6189.5049 -28.0823 0.859 0.009 0.513 199 159 153
-1650.7809 6217.2935 -52.7035 -0.083 -0.552 0.829 184 129 129
-1638.2888 6206.6147 -60.7918 -0.102 -0.557 0.824 152 93 93
-1617.9019 6200.9419 -77.0148 0.356 -0.743 0.566 220 112 129
-1608.9591 6202.4209 -85.1515 0.350 -0.731 0.586 228 111 131
-1594.6349 6184.7559 -93.0321 0.236 -0.351 0.906 225 103 125
-1322.1270 6008.3359 -284.0124 0.908 -0.350 0.231 255 138 161
-1337.0275 6144.0161 -305.9823 0.891 -0.390 0.234 255 131 156
-1317.4719 6137.1729 -321.1832 1.000 -0.005 0.020 255 127 153
-1317.0996 6173.7036 -330.9009 1.000 -0.005 0.020 252 110 140
-1316.7228 6210.6528 -340.7300 1.000 -0.005 0.020 255 109 140
-1304.2877 6195.9790 -347.7414 1.000 -0.004 -0.016 255 108 140
-319.7730 3982.9917 -632.5057 0.834 -0.005 0.552 241 83 116
-4351.4292 4875.2559 2619.0706 0.101 -0.984 -0.145 207 219 217
-4331.1626 5069.3535 2551.1143 -0.540 -0.782 0.312 113 110 105
-3914.5051 5831.6855 1992.2051 0.757 -0.593 0.274 86 64 50
-3911.3491 5843.5991 1986.3774 -0.069 -0.700 0.711 84 62 49
-3885.1235 5823.2891 1968.9309 -0.069 -0.700 0.711 82 60 47
-3877.4783 5828.9072 1960.8488 0.079 -0.686 0.723 82 60 47
-3877.3831 5845.1621 1956.5457 0.454 -0.796 0.401 83 60 46
-3911.8589 5926.9717 1965.1710 0.841 -0.537 -0.071 92 70 50
-3906.5542 5936.2031 1958.1783 0.841 -0.537 -0.071 93 71 50
-3884.9167 6058.8950 1907.5753 0.770 -0.631 0.089 112 90 67
-3752.9309 5968.7993 1816.6255 -0.326 -0.884 0.334 138 111 92
-3702.5320 5962.9565 1774.4800 0.908 -0.221 0.355 127 100 81
-3700.2144 5976.9287 1768.8444 0.909 -0.213 0.359 128 99 81
-3669.1765 5947.5044 1749.5953 0.929 -0.222 0.295 126 100 81
-3666.0291 6103.1123 1706.4639 0.024 -0.425 0.905 109 87 64
-3586.3618 6124.6953 1631.8413 0.802 -0.508 -0.315 95 74 53
-3555.2224 6093.4478 1612.9778 0.432 -0.592 0.681 95 74 53
-3598.8679 6182.1123 1627.7671 -0.081 -0.684 0.725 93 75 53
-3584.0859 6177.1621 1616.2463 0.013 -0.648 0.762 92 74 52
-3495.4495 6108.6265 1557.2532 0.322 -0.683 0.656 95 75 51
-3208.6899 5947.4463 1350.6748 0.525 -0.846 -0.096 32 27 21
-3172.5715 6018.4160 1300.9565 -0.168 -0.889 -0.426 43 36 33
-3165.5188 6025.3770 1293.0389 0.475 -0.613 0.631 46 38 35
-3166.2893 6046.2847 1288.2777 0.469 -0.559 0.683 46 39 33
-3121.6743 6084.8066 1239.6237 -0.202 -0.644 -0.738 45 37 34
-3222.5161 6309.4927 1268.6453 -0.215 -0.581 -0.785 47 39 36
-3206.4099 6300.8438 1256.9377 -0.218 -0.580 -0.785 47 39 36
-3199.5972 6309.2285 1248.8585 -0.218 -0.580 -0.785 43 35 32
-3134.1929 6230.0410 1212.7579 -0.668 -0.688 -0.283 37 29 26
-2714.2822 5937.1328 925.0302 0.046 -0.450 0.892 23 19 18
-2693.6807 5916.1709 912.6252 0.062 -0.444 0.894 40 36 35
-2673.7432 5896.3848 900.4902 0.046 -0.449 0.892 65 61 60
-2658.4863 5886.0356 889.9601 0.041 -0.449 0.892 86 82 81
-2643.0754 5875.2646 879.4056 0.090 -0.427 0.900 87 83 82
-2610.5247 5828.9312 863.2367 0.471 -0.520 0.712 91 87 86
-2592.7620 5812.9287 852.0034 0.671 -0.411 0.617 93 89 88
-2589.7480 5827.5210 845.6032 0.471 -0.523 0.710 92 88 87
-2561.6113 5874.0244 809.1525 0.854 -0.498 -0.150 96 91 88
-2509.9685 5914.3521 753.9412 0.273 -0.960 0.059 92 81 79
-2493.1060 5899.4038 743.2142 0.840 -0.506 -0.198 92 81 77
-2488.1326 5910.4673 736.0328 0.840 -0.506 -0.198 85 76 71
-2479.9409 5914.4829 727.8933 0.072 -0.921 0.383 100 89 85
-2478.3835 5933.2153 721.6801 0.533 -0.119 0.838 106 92 89
-2468.9534 5934.5435 713.1657 0.520 -0.119 0.846 100 79 75
-2471.5400 5962.7129 708.0920 0.570 -0.022 0.822 112 62 54
-2465.2605 5971.1855 700.4521 0.614 0.009 0.790 114 55 46
-2453.6719 5967.7368 691.3078 0.623 0.005 0.782 108 48 39
-2422.7009 5920.3916 676.7703 0.745 0.021 0.667 105 43 34
-2419.9641 5936.7593 670.1490 0.786 0.039 0.617 105 44 33
-2414.7458 5947.5747 662.8201 0.786 0.039 0.617 100 40 30
-2386.2158 5905.0786 649.1379 0.659 -0.163 0.735 94 32 23
-2372.1040 5895.3540 639.4373 0.432 -0.235 0.870 90 27 20
-2365.4319 5902.6953 631.7509 0.486 -0.221 0.846 107 31 37
-2395.9431 5996.2427 633.8937 0.642 -0.059 0.764 110 30 41
-2407.5393 6046.5122 630.8870 0.680 0.007 0.733 109 30 41
-2395.9182 6042.9189 621.7523 0.682 0.007 0.731 109 30 41
-2395.2231 6064.9019 615.4422 0.612 -0.051 0.789 107 27 38
-2292.5273 6034.9351 534.2543 0.306 -0.136 0.942 75 14 21
-2281.5413 6081.2568 512.7089 0.444 -0.448 0.776 49 23 24
-2225.7109 5991.9609 487.5273 0.619 -0.529 0.580 33 14 14
-2194.3203 6405.6582 352.9134 0.520 -0.605 -0.603 26 16 15
-2214.3860 6545.2529 334.0504 -0.070 -0.528 -0.846 44 36 34
-2193.4844 6516.5264 323.4018 -0.109 -0.540 -0.835 44 36 34
-2152.5457 6460.5713 302.4641 -0.534 -0.840 0.093 44 36 34
-1849.2783 5821.4688 205.6801 0.004 -0.678 -0.735 37 35 36
-1846.0510 5838.6577 198.4209 0.003 -0.694 -0.720 38 36 37
-1785.1754 5793.5806 157.3868 0.310 -0.800 0.513 39 34 40
-1571.7537 5280.2959 105.7697 0.656 -0.442 0.611 45 40 46
-1698.7299 5776.5625 86.9149 0.851 -0.257 0.458 86 79 87
-1681.2909 5777.7788 71.4911 -0.363 -0.642 0.675 107 100 108
-1579.5836 5648.6372 16.9109 -0.162 -0.754 0.637 182 167 172
-1665.0957 6141.4316 -36.9641 0.854 0.003 0.520 184 143 137
-1674.2068 6204.2012 -45.3694 0.851 -0.333 0.405 214 166 162
-1664.9447 6204.7778 -53.5432 0.288 -0.560 0.776 218 166 163
-1654.5627 6201.4722 -61.6791 -0.090 -0.558 0.825 183 124 124
-1620.3279 6180.3101 -85.8431 0.295 -0.719 0.630 232 107 127
-1577.6133 6160.9272 -117.8154 0.014 -0.398 0.917 246 107 132
-1553.9099 6109.0073 -124.8692 0.033 -0.390 0.920 249 112 137
-1501.1816 6016.6743 -146.5746 0.074 -0.442 0.894 254 119 149
-1456.4430 6190.4985 -230.4678 0.465 -0.459 0.757 253 116 144
-1347.5826 6154.8730 -315.5269 0.875 -0.213 -0.435 254 122 151
-325.2916 3944.6887 -627.2851 0.840 -0.007 0.542 229 92 118
-345.2816 4345.7314 -714.1003 0.091 -0.964 0.249 254 52 98
-150.9279 3943.3923 -778.0059 0.905 0.021 0.425 252 130 164
-31.0908 3208.5947 -691.0302 0.621 0.015 0.784 255 84 132
-4335.8457 5062.8530 2540.7227 -0.520 -0.771 0.368 117 115 110
-3936.2329 5830.5430 1993.6749 0.830 -0.495 0.258 86 64 51
-3909.7397 5826.2920 1971.8634 -0.062 -0.699 0.712 90 68 55
-3885.0713 5808.1812 1955.2640 -0.070 -0.705 0.706 87 65 52
-3917.5195 5919.5532 1954.1482 0.841 -0.537 -0.071 89 68 49
-3702.7659 5947.3057 1761.0356 0.911 -0.216 0.352 127 100 81
-3697.7527 5957.1582 1754.1147 0.911 -0.216 0.352 128 99 81
-3559.8960 6196.3623 1572.1154 0.115 -0.846 0.520 95 75 51
-3382.9507 6037.3535 1460.6777 0.909 -0.406 0.099 104 85 61
-3187.7092 6008.0542 1299.4056 -0.104 -0.896 -0.431 34 30 27
-3180.9370 6015.4790 1291.5991 -0.131 -0.880 -0.456 43 35 32
-3160.2893 6017.8042 1273.1218 0.482 -0.620 0.619 47 38 33
-3118.5486 5963.0132 1251.3644 0.603 -0.615 0.508 47 38 33
-3213.5166 6274.1226 1251.9912 -0.328 -0.675 -0.661 53 45 42
-3204.5508 6278.4712 1243.0927 -0.328 -0.675 -0.661 53 45 42
-3174.0464 6264.0137 1220.4856 -0.395 -0.677 -0.621 45 37 34
-3132.6536 6229.0435 1193.8331 -0.689 -0.678 -0.258 30 22 19
-2732.0559 5933.2358 924.7181 0.019 -0.454 0.891 23 19 18
-2588.0100 5763.7056 844.5079 0.142 -0.612 0.778 64 60 59
-2582.4729 5772.8379 837.3226 0.491 -0.537 0.686 67 63 62
-2585.5200 5820.6782 827.4185 0.542 -0.747 0.384 66 62 61
-2576.5613 5822.8945 819.0852 0.542 -0.747 0.384 69 64 61
-2563.5527 5837.6528 803.9594 0.416 -0.527 0.741 70 65 62
-2544.8494 5819.2520 792.5980 0.305 -0.519 0.798 69 64 61
-2486.9517 5780.3301 752.6990 0.300 -0.472 0.829 74 66 64
-2478.7041 5783.7856 744.6561 0.431 -0.431 0.793 72 62 59
-2508.6838 5913.6553 736.5551 0.273 -0.960 0.059 72 61 57
-2506.2144 5930.2524 730.0676 0.226 -0.908 0.352 78 67 63
-2489.9844 5916.6675 719.5839 0.062 -0.920 0.387 98 87 83
-2467.2410 5888.5581 707.2715 0.526 -0.121 0.842 111 97 94
-2458.0088 5890.1709 698.8596 0.394 -0.097 0.914 109 90 86
-2439.7915 5871.7598 687.9216 0.395 -0.096 0.914 129 85 77
-2395.5044 5838.8408 658.2271 0.764 0.026 0.645 122 65 57
-2390.8496 5850.5103 651.1400 0.777 0.030 0.629 120 64 56
-2391.1235 5873.4448 645.3649 0.781 0.030 0.623 115 60 52
-2376.2327 5861.9453 635.4936 0.672 -0.155 0.725 109 52 45
-2366.9385 5863.1436 627.1367 0.672 -0.155 0.725 106 48 43
-2377.0317 5931.7163 617.8953 0.627 -0.065 0.776 102 34 39
-2378.9731 5959.1826 612.3754 0.626 -0.066 0.777 102 34 41
-2370.5786 5962.7842 604.1669 0.606 -0.111 0.787 102 34 41
-2380.5422 6009.3008 600.5952 0.609 -0.053 0.792 106 37 45
-2333.4080 5992.2363 564.2807 0.612 -0.046 0.789 86 27 33
-2322.1621 5989.0938 555.3728 0.612 -0.046 0.789 84 27 33
-2256.5320 5925.8730 515.1523 0.403 -0.169 0.899 79 22 28
-2231.0403 5911.2075 496.9373 0.519 -0.117 0.847 74 24 28
-2215.0151 6521.2876 323.1440 -0.109 -0.540 -0.835 44 36 34
-2194.6208 6522.6626 305.1353 -0.057 -0.511 -0.858 44 36 34
-2085.2625 6304.2344 267.7605 -0.528 -0.647 0.550 21 13 11
-1921.1396 5977.5361 211.3769 -0.681 -0.688 -0.250 26 24 25
-1840.1885 5797.9937 188.3908 -0.122 -0.759 -0.639 38 36 37
-1854.5751 5920.2500 168.7921 0.094 -0.789 -0.607 38 36 37
-1809.4166 5814.5015 157.4348 0.362 -0.783 0.506 46 41 47
-1790.6614 5785.8887 148.7057 0.310 -0.800 0.513 46 41 47
-1734.1641 5697.4644 122.9951 -0.254 -0.828 0.500 40 35 41
-1737.7858 5872.8638 80.1499 0.313 -0.634 -0.707 99 92 100
-1726.0358 5864.5698 72.1562 -0.478 -0.846 0.237 114 107 115
-1691.1504 5811.8237 55.7949 -0.474 -0.856 0.207 113 106 114
-1662.3190 6167.2944 -62.3373 0.856 -0.350 0.380 209 145 146
-1611.6089 6153.4497 -102.5902 0.195 -0.470 0.861 244 100 125
-1618.0020 6208.6538 -111.5290 0.143 -0.787 0.600 247 99 125
-1408.5446 6078.3574 -258.6277 0.210 -0.803 0.558 252 115 145
-1397.9746 6072.0430 -266.1191 0.051 -0.895 -0.443 252 114 147
-1370.4288 6178.9229 -317.9734 -0.162 -0.858 -0.487 255 110 143
-1249.2177 6081.3472 -397.2853 -0.124 -0.885 0.449 255 103 133
-1217.6554 6018.8647 -408.2186 0.127 -0.668 0.733 248 96 124
-357.8496 4311.7148 -704.7422 0.289 -0.757 0.585 250 56 101
-197.6712 4298.1235 -839.7901 -0.012 -0.954 -0.300 255 174 173
-4393.3594 5113.4165 2560.9138 -0.498 -0.773 0.393 121 120 116
-3953.1130 5855.1177 1984.1071 0.629 -0.385 0.676 99 77 63
-3898.9309 5927.9575 1917.9983 0.669 -0.724 -0.168 111 90 73
-3892.5269 5935.6377 1910.4307 0.669 -0.724 -0.168 109 88 69
-3885.1748 5992.9360 1888.9133 0.749 -0.504 -0.431 102 81 60
-3892.6436 6020.8809 1887.9741 0.659 -0.717 -0.228 109 88 67
-3891.2166 6036.0684 1882.7217 0.675 -0.691 -0.258 113 92 71
-3885.1028 6061.8945 1870.6030 -0.309 -0.783 0.540 125 104 83
-3782.4319 6068.1909 1780.1912 0.936 -0.254 0.242 128 99 81
-3766.8455 6098.1694 1758.7859 0.059 -0.765 0.642 128 103 83
-3757.9919 6120.6929 1745.1730 0.205 -0.745 0.635 127 102 82
-3593.5732 6139.2842 1598.1346 -0.105 -0.652 0.751 107 87 63
-3591.4993 6154.6357 1592.2798 0.229 -0.573 0.787 102 82 58
-3556.4148 6173.3188 1557.0098 0.108 -0.854 0.509 95 75 51
-3375.3940 6007.6670 1444.3765 0.887 -0.461 0.034 104 85 61
-3009.6685 5571.5879 1243.6510 0.730 -0.609 0.312 32 27 21
-3256.3174 6150.0400 1303.7748 0.127 -0.889 0.439 48 38 36
-3244.7585 6149.4858 1293.9303 0.122 -0.889 0.441 47 38 33
-3219.1313 6123.9355 1278.5402 -0.049 -0.908 -0.416 48 39 34
-3226.0713 6176.2207 1270.7029 0.392 -0.752 -0.530 55 46 41
-3201.9836 6173.3027 1250.6545 0.522 -0.575 -0.630 55 46 41
-3209.6433 6248.2671 1237.4381 -0.373 -0.677 -0.635 58 51 45
-3208.2905 6266.4263 1231.4635 -0.373 -0.677 -0.635 58 50 47
-3198.7588 6269.7144 1222.3544 -0.373 -0.677 -0.635 56 48 45
-3186.9817 6268.8750 1212.3967 -0.392 -0.676 -0.624 49 41 38
-3143.4861 6209.5361 1190.5029 -0.681 -0.666 -0.303 35 27 24
-2582.8730 5734.6025 831.6047 -0.063 -0.667 0.743 44 40 39
-2574.4048 5737.5742 823.4986 0.481 -0.505 0.717 47 43 42
-2573.1157 5755.4058 817.6658 0.470 -0.543 0.696 46 42 41
-2578.7747 5829.5093 802.9476 0.532 -0.737 0.417 49 44 41
-2559.5066 5810.0757 791.4355 0.361 -0.543 0.758 49 44 41
-2530.3047 5769.5098 776.9291 0.128 -0.538 0.833 49 44 41
-2513.6013 5755.0771 766.3102 0.128 -0.538 0.833 57 52 49
-2498.0364 5742.9292 756.0711 0.128 -0.538 0.833 60 52 50
-2489.3594 5745.3623 747.9271 0.128 -0.545 0.828 59 51 49
-2465.9536 5716.2334 735.4040 0.280 -0.449 0.848 59 51 49
-2470.7183 5747.4409 731.2642 0.380 -0.522 0.764 57 48 44
-2503.6812 5839.7485 735.3297 0.295 -0.955 -0.027 57 46 42
-2476.8806 5868.0464 704.6757 0.454 -0.075 0.888 82 71 67
-2454.6758 5841.0581 692.6243 0.460 -0.070 0.885 99 85 82
-2438.5505 5827.2686 682.3351 0.398 -0.094 0.912 101 83 79
-2421.4714 5811.2271 671.8174 0.612 0.033 0.790 125 88 82
-2397.5610 5801.6040 653.6966 0.588 0.004 0.809 120 76 69
-2387.3660 5800.6479 645.1372 0.750 0.011 0.662 115 71 64
-2414.9883 5884.9258 646.7113 0.603 0.030 0.797 126 81 75
-2402.4570 5878.9551 637.4595 0.603 0.030 0.797 122 79 72
-2372.4663 5833.2266 623.6374 0.669 -0.161 0.726 116 72 65
-2368.6052 5891.7544 604.8121 0.621 -0.071 0.781 93 38 41
-2366.6616 5910.0112 598.3010 0.626 -0.066 0.777 93 38 41
-2368.0435 5936.1025 592.5910 0.610 -0.114 0.784 94 38 41
-2317.4229 5956.5786 543.4175 0.517 0.023 0.856 97 46 50
-2260.8662 5891.6050 511.7254 0.510 0.018 0.860 81 30 34
-2207.9729 6591.6123 280.7678 -0.167 -0.613 -0.772 39 31 29
-2064.5366 6249.1875 247.3994 -0.681 -0.719 -0.138 14 6 4
-1911.7574 5980.5386 186.4325 -0.127 -0.797 -0.590 38 36 37
-1870.0004 5887.0146 175.0876 0.013 -0.707 -0.707 38 36 37
-1905.8776 6018.1899 171.3867 -0.571 -0.821 0.026 38 36 37
-1841.6283 5885.1553 151.0557 0.089 -0.782 -0.617 50 45 51
-1753.2872 5677.9961 129.5155 -0.117 -0.837 0.534 50 45 51
-1750.5687 5696.2817 122.3269 -0.133 -0.835 0.535 50 45 51
-1736.5060 5680.7690 114.2765 -0.132 -0.841 0.525 45 40 46
-1731.1740 5855.4189 63.4514 -0.041 -0.963 0.265 123 116 124
-1691.5469 5788.0410 47.0287 -0.470 -0.869 0.158 109 102 110
-1679.0890 5776.9307 39.2005 -0.454 -0.877 0.159 137 130 138
-1637.8518 5787.1191 0.8602 -0.153 -0.663 -0.733 182 167 172
-1597.7261 5714.0049 -14.4754 -0.064 -0.890 -0.452 173 158 163
-1518.3790 6021.0220 -164.3045 0.021 -0.561 0.828 255 118 150
-1369.8922 6143.9761 -325.1885 -0.412 -0.859 0.305 255 101 140
-1363.7637 6155.8389 -333.6250 -0.201 -0.971 0.133 255 101 139
-3960.0769 5865.9844 1969.4783 0.620 -0.188 0.762 94 72 59
-3901.8481 5933.3931 1901.1989 0.683 -0.712 -0.166 115 94 75
-3893.7253 5972.4600 1883.7505 0.745 -0.507 -0.433 85 64 45
-3903.7349 6055.5811 1870.1904 0.436 -0.460 0.774 110 89 68
-3881.6592 6040.8506 1855.0653 0.431 -0.457 0.778 112 91 70
-3735.2876 6016.4312 1735.2128 0.935 -0.202 0.293 130 103 84
-3675.6650 6032.2178 1679.5187 0.679 -0.136 0.721 126 101 81
-3595.5103 6106.8159 1590.3883 -0.058 -0.525 0.849 111 91 67
-3587.8931 6113.1914 1582.1090 -0.079 -0.538 0.839 111 91 67
-3564.6597 6094.6372 1567.0055 -0.046 -0.526 0.849 108 88 64
-3569.0146 6157.5581 1553.9589 0.523 -0.663 0.535 99 79 55
-3360.1196 5965.3574 1424.9401 0.853 -0.507 -0.123 107 88 64
-3454.8152 6218.2764 1439.1422 0.600 -0.787 0.142 82 69 53
-3397.7529 6141.4937 1410.3848 0.507 -0.686 -0.523 71 58 41
-2882.1531 5304.0884 1188.9009 -0.605 -0.712 -0.356 38 28 12
-3250.8831 6122.4292 1288.6715 0.050 -0.920 0.389 55 45 43
-3237.5742 6118.7231 1278.1709 0.050 -0.920 0.389 55 46 41
-3224.2986 6115.0254 1267.6967 0.050 -0.920 0.389 55 46 41
-3209.9717 6109.4116 1256.8264 -0.467 -0.792 0.393 56 45 41
-3207.8938 6125.5537 1250.7207 0.504 -0.586 -0.634 56 47 42
-3203.1013 6136.9302 1243.5443 0.503 -0.583 -0.638 56 47 42
-3198.4958 6148.6948 1236.4255 0.503 -0.583 -0.638 55 46 41
-3196.5422 6165.2881 1230.3065 0.515 -0.580 -0.631 49 42 36
-2601.3840 5754.0933 826.2886 0.062 -0.664 0.745 36 32 31
-2516.0793 5599.2280 794.0035 0.528 -0.811 0.253 37 33 32
-2506.7844 5599.9868 785.7758 0.487 -0.826 0.283 37 33 32
-2557.1785 5744.8452 790.5923 0.522 -0.447 0.726 35 30 27
-2559.9927 5771.3589 785.9402 0.311 -0.620 0.720 34 29 26
-2540.2119 5750.7227 774.3738 0.273 -0.533 0.801 34 29 26
-2484.1851 5674.1509 746.4540 0.236 -0.417 0.878 35 30 27
-2473.4143 5671.9180 737.7512 0.283 -0.419 0.863 35 30 27
-2494.1135 5842.6294 710.0241 0.622 -0.078 0.779 41 30 26
-2482.3081 5838.5630 700.9175 0.609 -0.081 0.789 39 28 24
-2431.9111 5771.4912 675.3211 0.460 -0.070 0.885 66 55 51
-2415.6191 5757.1362 665.0891 0.398 -0.094 0.912 79 63 60
-2412.9460 5816.2075 647.0028 0.603 0.031 0.797 103 72 67
-2400.0977 5809.4028 637.7272 0.606 0.032 0.795 103 71 66
