ply
format ascii 1.0
element vertex 811
property float x
property float y
property float z
property float nx
property float ny
property float nz
property uchar diffuse_red
property uchar diffuse_green
property uchar diffuse_blue
end_header
-1701.5270 2407.4143 -558.1349 -0.617 -0.738 0.273 87 40 10
-1689.8533 2396.8718 -560.2352 -0.617 -0.738 0.273 85 39 8
-1676.5491 2383.7981 -561.8414 -0.607 -0.751 0.259 87 42 11
-1665.6713 2374.3311 -564.0637 -0.610 -0.745 0.272 99 54 24
-1633.4731 2353.2532 -575.8076 0.562 -0.621 0.547 100 51 19
-1629.8384 2354.6951 -579.9758 0.578 -0.612 0.539 85 34 3
-1613.3240 2336.2583 -580.3267 0.496 -0.760 0.421 93 42 11
-1627.2200 2379.0620 -600.3311 0.170 -0.741 0.649 87 36 5
-1469.1865 2453.7295 -790.4667 0.777 -0.488 0.398 21 12 7
-1465.0137 2454.5264 -794.6135 0.805 -0.464 0.370 24 15 10
-699.2811 1420.9135 -677.9249 0.499 -0.484 0.718 30 7 7
-696.7334 1421.2031 -680.3101 0.460 -0.473 0.752 25 2 0
-693.4708 1419.8644 -682.0930 0.230 -0.591 0.773 29 3 0
-679.5994 1418.6255 -692.9854 0.052 -0.896 -0.441 53 8 9
-677.5869 1420.1361 -695.8231 0.052 -0.896 -0.441 60 9 10
-675.5066 1421.4967 -698.6070 0.077 -0.928 -0.366 81 11 16
-673.3218 1422.6193 -701.3027 0.134 -0.967 -0.217 84 10 17
-671.0420 1423.5229 -703.9166 0.134 -0.967 -0.217 85 9 16
-644.8503 1444.1917 -741.5980 -0.083 -0.902 -0.424 110 15 26
-638.0187 1447.2104 -749.6619 -0.032 -0.881 -0.472 119 14 19
-634.2535 1451.2517 -755.8747 -0.034 -0.851 -0.524 121 16 21
-631.4850 1451.0323 -758.0694 0.084 -0.916 -0.393 120 15 20
-629.3615 1452.4596 -760.9397 0.084 -0.916 -0.393 121 16 21
-627.0453 1453.3998 -763.6116 0.184 -0.936 -0.301 121 16 21
-624.8814 1454.7377 -766.4498 0.184 -0.936 -0.301 118 16 22
-622.1355 1454.5725 -768.6655 0.115 -0.985 -0.125 118 16 23
-619.6881 1455.1802 -771.2020 0.115 -0.985 -0.125 118 17 21
-617.2402 1455.7878 -773.7388 0.115 -0.985 -0.125 117 16 20
-614.7546 1456.2976 -776.2350 0.121 -0.986 -0.119 113 12 16
-612.3055 1456.9044 -778.7722 0.121 -0.986 -0.119 114 12 16
-588.3391 1464.4995 -804.8335 0.173 -0.724 0.667 114 9 13
-585.0980 1462.9302 -806.4266 0.072 -0.703 0.707 112 10 13
-579.6343 1462.5891 -810.8262 0.187 -0.957 0.220 113 8 13
-574.4672 1463.0631 -815.5795 0.258 -0.945 0.198 111 10 13
-554.8723 1475.8888 -841.8086 0.038 -0.980 -0.194 104 12 8
-552.7573 1477.5460 -844.8425 0.025 -0.994 -0.109 103 12 8
-543.8769 1491.1655 -862.5367 0.698 -0.616 0.365 108 11 9
-543.0959 1496.9991 -867.5412 0.556 -0.695 0.456 109 12 10
-544.6877 1510.1753 -875.9866 0.394 -0.545 0.740 109 11 11
-542.9294 1513.1379 -879.6878 0.407 -0.541 0.736 109 11 13
-540.7994 1514.9725 -882.8665 0.400 -0.447 0.800 108 10 13
-534.6889 1512.8824 -886.5160 0.368 -0.751 0.548 107 9 19
-530.5018 1516.8220 -893.0126 0.394 -0.736 0.550 107 9 19
-528.4369 1518.9065 -896.3218 0.400 -0.741 0.540 108 10 19
-526.4730 1521.3313 -899.7981 0.405 -0.732 0.547 107 9 19
-1160.6860 3650.3403 -1943.3071 0.636 -0.589 0.499 106 9 18
-512.2043 1537.1671 -923.7298 0.733 -0.375 0.567 111 13 22
-507.6180 1540.1570 -929.8599 0.700 -0.403 0.590 108 14 22
-504.4409 1538.6838 -931.4700 0.732 -0.401 0.551 108 14 22
-499.4435 1540.3053 -936.9324 0.732 -0.401 0.551 106 14 22
-485.7804 1540.3203 -948.5801 0.712 -0.406 0.573 110 15 23
-483.1688 1540.7347 -951.1126 0.750 -0.381 0.541 110 15 23
-415.3455 1486.7504 -968.7205 0.384 -0.677 0.628 127 43 39
-390.7434 1481.8895 -986.0580 0.050 -0.994 0.098 145 62 52
-388.0772 1481.5691 -988.0904 0.059 -0.990 0.131 143 62 52
-385.7418 1482.6549 -990.8871 0.072 -0.985 0.157 142 66 54
-383.1187 1482.5085 -993.0123 0.072 -0.985 0.157 152 81 65
-374.7626 1479.8763 -998.1710 0.039 -0.974 0.222 144 85 65
-372.4021 1480.8455 -1000.9023 0.301 -0.945 0.130 143 85 65
-369.3464 1478.7173 -1001.9218 0.336 -0.921 0.195 147 89 69
-3098.9573 2820.8928 313.7934 0.934 -0.249 -0.254 45 24 10
-2798.4590 2854.6780 32.7954 0.525 -0.478 0.704 77 34 12
-2613.6909 2923.1011 -175.5705 0.251 -0.696 0.673 130 78 63
-2629.6013 2963.2004 -191.9778 0.872 -0.271 0.408 167 107 88
-2620.4268 2959.4893 -197.0147 0.871 -0.270 0.411 173 115 95
-2428.3560 3084.3650 -453.7596 0.571 -0.696 0.434 200 135 108
-2209.9927 2997.4976 -574.7369 -0.488 -0.802 0.344 50 22 11
-1870.6586 2563.8582 -539.6820 0.948 -0.318 0.032 74 31 9
-1822.8582 2515.8833 -544.5355 -0.605 -0.719 0.342 115 69 40
-1806.7439 2499.4438 -545.9727 -0.534 -0.780 0.327 104 58 28
-1794.1006 2488.0215 -548.2029 -0.542 -0.777 0.320 93 47 17
-1781.9738 2477.2954 -550.5134 -0.547 -0.777 0.312 87 40 11
-1770.3337 2467.2273 -552.9010 -0.498 -0.802 0.329 87 39 11
-1760.5695 2459.8845 -555.7275 -0.503 -0.804 0.316 87 38 10
-1738.3795 2433.9988 -555.2808 -0.507 -0.799 0.324 88 39 11
-1721.9489 2423.6245 -561.5172 -0.501 -0.791 0.352 84 38 5
-1711.0750 2414.3970 -563.8807 -0.622 -0.736 0.266 86 37 5
-1697.8694 2401.6050 -565.5663 -0.617 -0.738 0.273 85 37 5
-1684.3749 2388.3013 -567.1159 -0.607 -0.751 0.259 82 34 3
-1673.4148 2378.7559 -569.3151 -0.610 -0.745 0.272 85 37 5
-1643.0759 2353.6521 -576.3881 0.186 -0.825 0.534 99 49 16
-1631.5410 2349.9995 -583.4780 0.578 -0.612 0.539 88 38 5
-1616.4603 2333.8167 -584.2271 0.497 -0.761 0.417 88 38 5
-1621.8427 2349.1240 -591.0786 0.262 -0.756 0.600 86 36 3
-1469.1517 2437.1216 -786.7624 0.854 -0.259 0.452 16 9 3
-703.5882 1418.5167 -677.5905 0.496 -0.478 0.725 43 2 6
-700.4327 1417.4362 -679.4692 0.499 -0.484 0.718 50 4 9
-697.8688 1417.6797 -681.8334 0.460 -0.473 0.752 59 9 5
-694.8999 1417.0037 -683.8554 0.230 -0.591 0.773 67 13 7
-686.7038 1416.5524 -690.4944 0.071 -0.901 -0.428 98 22 19
-678.5555 1422.3616 -701.7684 0.073 -0.929 -0.362 113 15 17
-656.6464 1433.7322 -728.9084 0.236 -0.920 -0.312 120 17 25
-654.6082 1435.2722 -731.7935 0.467 -0.773 -0.430 118 16 24
-651.7930 1434.9210 -733.9272 0.131 -0.947 -0.294 116 15 23
-644.1573 1442.4646 -746.0604 0.179 -0.921 -0.347 114 14 19
-641.9207 1443.5623 -748.7839 0.178 -0.916 -0.360 114 14 19
-639.9990 1445.4553 -751.8333 0.165 -0.907 -0.387 115 13 19
-637.9672 1447.0833 -754.7785 0.165 -0.907 -0.387 115 13 19
-635.9325 1448.7137 -757.7281 0.165 -0.907 -0.387 115 13 19
-629.3749 1452.5045 -766.1407 0.176 -0.928 -0.327 111 13 18
-626.9803 1453.2450 -768.7318 0.181 -0.949 -0.259 104 13 18
-624.5349 1453.8563 -771.2699 0.080 -0.984 -0.160 104 13 18
-619.5890 1454.9402 -776.2890 0.081 -0.988 -0.132 103 12 17
-617.2104 1455.7303 -778.9036 0.059 -0.993 -0.102 101 10 15
-608.3245 1460.5957 -790.1005 0.303 -0.911 -0.280 102 10 14
-541.6558 1476.3962 -858.6457 -0.071 -0.993 -0.090 96 9 12
-514.5377 1526.9634 -919.4941 0.301 -0.940 0.160 96 9 14
-512.7659 1530.1171 -923.3576 0.288 -0.952 0.106 96 9 15
-510.1844 1530.6101 -925.9230 0.288 -0.952 0.106 96 9 15
-508.0418 1532.5695 -929.2100 0.332 -0.936 0.116 97 9 15
-496.1464 1529.2185 -936.8320 0.015 -0.989 -0.148 99 11 17
-487.0376 1525.9008 -942.1068 0.025 -1.000 0.010 99 10 17
-484.3794 1526.0793 -944.5026 0.096 -0.995 -0.020 99 10 16
-481.7578 1526.3834 -946.9610 0.096 -0.995 -0.020 101 11 18
-471.6443 1528.9198 -957.4634 0.377 -0.918 0.122 104 13 18
-469.1272 1529.5996 -960.1135 0.377 -0.918 0.122 104 13 18
-466.8384 1531.1119 -963.1911 0.394 -0.910 0.130 104 13 18
-393.2707 1481.9220 -989.0685 0.060 -0.991 0.123 135 44 42
-385.3461 1481.2802 -995.3340 0.069 -0.986 0.149 140 62 55
-382.6158 1480.6653 -997.1985 0.045 -0.992 0.121 136 64 52
-379.9983 1480.5253 -999.3218 0.045 -0.992 0.121 137 63 52
-377.2925 1479.9911 -1001.2258 0.032 -0.993 0.115 137 63 52
-374.6656 1479.7902 -1003.3117 0.301 -0.945 0.130 138 65 53
-346.5947 1468.7178 -1018.9341 0.219 -0.714 0.665 155 94 70
-2776.1770 2830.2124 21.5716 0.544 -0.447 0.710 79 31 11
-2722.9868 2792.0005 4.9837 0.856 -0.516 -0.001 96 40 23
-2636.4189 2949.3386 -186.6381 0.872 -0.271 0.408 138 82 64
-2408.1711 3040.9355 -449.4715 0.053 -0.974 0.218 203 138 110
-2389.9993 3040.8040 -464.8296 0.278 -0.939 -0.200 188 123 95
-2407.1226 3071.8062 -473.5132 0.035 -0.609 0.793 188 121 92
-2393.0068 3061.0020 -477.4179 -0.011 -0.593 0.805 199 130 99
-1873.1154 2559.8018 -543.7791 0.954 -0.300 0.004 76 31 7
-1834.8126 2525.8203 -550.8762 -0.599 -0.719 0.352 102 55 25
-1829.2125 2524.8577 -554.9177 -0.600 -0.718 0.354 98 51 21
-1790.8646 2475.7996 -550.7471 -0.024 -0.984 -0.177 93 46 16
-1806.3787 2505.7749 -560.0295 -0.412 -0.877 -0.246 89 42 12
-1722.9474 2424.8103 -570.2794 -0.610 -0.732 0.303 86 37 5
-1708.9641 2410.9229 -571.7592 -0.614 -0.733 0.295 86 37 5
-1696.6268 2399.4316 -573.6358 -0.622 -0.739 0.256 81 32 2
-1674.0327 2372.3923 -572.5773 -0.105 -0.733 0.672 77 28 0
-1636.0686 2349.6462 -587.8116 0.546 -0.661 0.515 88 39 7
-713.8642 1417.4918 -673.2012 0.595 -0.486 0.640 39 8 9
-710.9774 1417.0343 -675.3136 0.577 -0.485 0.657 37 1 4
-707.7247 1415.7563 -677.1219 0.492 -0.477 0.728 46 4 8
-704.7184 1415.0154 -679.1233 0.496 -0.478 0.725 57 6 11
-701.8983 1414.6820 -681.2722 0.496 -0.478 0.725 71 12 17
-699.3659 1414.9904 -683.6573 0.326 -0.502 0.801 100 32 30
-696.3255 1414.1501 -685.6135 0.230 -0.591 0.773 105 31 28
-693.5927 1413.9973 -687.8233 0.422 -0.485 0.766 109 29 26
-691.2684 1414.7695 -690.3795 0.220 -0.944 -0.247 115 27 26
-689.2357 1416.2107 -693.1891 0.218 -0.941 -0.260 122 27 27
-687.1153 1417.4583 -695.9283 0.218 -0.941 -0.260 126 24 28
-684.8010 1418.2656 -698.5023 0.232 -0.934 -0.272 130 24 29
-678.1337 1421.3475 -706.4844 0.183 -0.950 -0.252 116 15 17
-675.9538 1422.4833 -709.1903 0.183 -0.950 -0.252 117 15 18
-673.7718 1423.6198 -711.8986 0.183 -0.950 -0.252 116 15 17
-671.7871 1425.2271 -714.7921 0.188 -0.947 -0.259 115 14 16
-669.7873 1426.8080 -717.6786 0.060 -0.944 -0.325 116 14 17
-667.4002 1427.4773 -720.2109 0.056 -0.934 -0.352 115 14 16
-665.2163 1428.6334 -722.9355 0.056 -0.934 -0.352 115 13 16
-663.3023 1430.4420 -725.9198 0.321 -0.899 -0.297 111 12 17
-661.5451 1432.6389 -729.0620 0.345 -0.894 -0.287 111 12 17
-659.5782 1434.3438 -732.0134 0.345 -0.894 -0.287 111 13 18
-656.1854 1439.1018 -738.4674 0.453 -0.770 -0.450 108 11 15
-647.8276 1444.9180 -749.9380 0.291 -0.915 -0.278 104 9 13
-646.1403 1447.3933 -753.2294 0.378 -0.846 -0.376 104 10 13
-638.2391 1454.5529 -765.3190 0.353 -0.915 -0.196 103 10 13
-635.2670 1453.8390 -767.3118 0.350 -0.934 -0.067 103 10 13
-632.9902 1454.8889 -770.0358 0.350 -0.934 -0.067 101 9 12
-629.8034 1453.6125 -771.7892 0.347 -0.929 -0.131 95 8 12
-605.5378 1439.0764 -781.5285 0.315 -0.940 -0.132 92 6 9
-595.1146 1446.6716 -796.0900 -0.073 -0.860 -0.504 89 6 8
-582.4545 1470.5989 -824.8017 0.604 -0.742 0.291 86 4 6
-549.5211 1468.1129 -850.9501 0.497 -0.867 -0.036 85 6 7
-540.8177 1473.9552 -862.7343 0.367 -0.912 0.185 86 6 7
-503.4599 1473.3300 -894.0414 0.109 -0.961 -0.252 85 4 8
-509.1237 1527.2394 -929.6508 0.278 -0.939 0.200 87 4 8
-506.4773 1527.4998 -932.0971 0.278 -0.939 0.200 89 6 10
-504.3567 1529.5243 -935.4190 0.258 -0.943 0.210 89 7 11
-501.3367 1528.5284 -937.2409 0.236 -0.968 0.092 89 7 11
-498.1585 1526.9790 -938.7823 0.049 -0.978 -0.201 89 7 11
-495.4043 1526.8550 -941.0320 -0.021 -0.995 -0.097 89 7 11
-492.4844 1526.1553 -942.9910 -0.018 -0.997 -0.081 89 7 11
-481.1553 1524.4552 -951.3525 0.391 -0.914 0.106 92 6 9
-478.6639 1525.2087 -954.0367 0.391 -0.914 0.106 91 7 10
-476.1717 1525.9626 -956.7219 0.391 -0.914 0.106 91 7 10
-473.5974 1526.4266 -959.2595 0.383 -0.918 0.105 92 8 10
-470.6392 1525.5109 -961.0890 0.280 -0.905 0.321 92 8 11
-467.9430 1525.5262 -963.3939 0.280 -0.905 0.321 93 8 11
-465.2483 1525.5417 -965.6975 0.280 -0.905 0.321 94 7 10
-455.2345 1528.3976 -976.3568 0.636 -0.389 0.667 94 6 10
-451.4735 1524.4083 -976.5643 0.653 -0.431 0.623 96 8 12
-411.1897 1440.3346 -947.7820 0.387 -0.890 0.243 101 13 13
-382.4043 1480.0781 -1002.0703 0.045 -0.992 0.121 119 31 25
-379.7074 1479.5924 -1004.0000 0.032 -0.993 0.115 120 33 26
-376.9286 1478.7351 -1005.7207 0.301 -0.945 0.130 125 42 34
-1916.9114 1965.6757 -68.4363 0.377 -0.590 -0.715 140 85 78
-2617.8933 2934.1101 -201.7416 0.864 -0.269 0.425 173 115 93
-2317.7693 2905.2715 -435.1451 -0.242 -0.965 0.103 203 138 110
-2336.7402 3025.1084 -509.2483 0.541 -0.421 0.729 198 124 96
-2121.8896 2887.1797 -588.0281 0.628 -0.573 0.526 50 23 14
-1874.4376 2554.1199 -547.6002 0.952 -0.306 0.003 75 30 8
-1872.5167 2558.5925 -552.6006 0.952 -0.306 0.011 90 44 19
-1864.2894 2553.9255 -556.0801 0.948 -0.316 0.042 93 46 17
-1831.6694 2513.7053 -553.5252 0.869 -0.452 0.201 91 44 14
-1686.3962 2376.7488 -573.8939 0.256 -0.714 0.652 87 38 6
-1681.4465 2376.2839 -577.7512 0.251 -0.719 0.648 88 39 7
-1675.8965 2374.9062 -581.4316 0.251 -0.719 0.648 88 39 7
-1651.8770 2359.4878 -590.2401 0.385 -0.765 0.516 87 38 6
-1642.0155 2351.4519 -592.5722 0.106 -0.648 0.754 88 39 7
-1477.3265 2426.8157 -789.3082 0.840 -0.351 0.414 13 6 1
-706.0809 1412.0504 -680.8455 0.466 -0.491 0.736 93 30 35
-693.9984 1414.8743 -693.2423 0.227 -0.916 -0.330 120 17 20
-691.9995 1416.3922 -696.0844 0.227 -0.916 -0.330 119 13 17
-689.9979 1417.9125 -698.9304 0.227 -0.916 -0.330 122 11 17
-687.9937 1419.4348 -701.7803 0.227 -0.916 -0.330 124 11 17
-685.9865 1420.9591 -704.6342 0.227 -0.916 -0.330 122 11 18
-683.1535 1420.5828 -706.7589 0.242 -0.916 -0.321 114 16 17
-608.7422 1440.5529 -785.0475 0.253 -0.966 0.050 81 3 3
-584.2593 1460.7498 -821.0659 0.096 -0.981 -0.167 76 3 2
-581.9877 1461.8618 -823.8341 0.111 -0.979 -0.168 75 1 1
-574.8928 1472.0317 -837.5223 0.364 -0.905 -0.221 77 4 3
-549.3102 1467.5709 -855.9099 0.174 -0.940 -0.293 76 2 1
-528.8240 1461.7538 -868.9440 0.051 -0.915 -0.399 75 3 3
-526.6344 1463.1464 -871.8538 0.051 -0.915 -0.399 75 3 3
-522.5842 1466.9869 -878.1882 0.070 -0.955 -0.289 75 3 3
-518.5618 1470.9757 -884.6107 0.029 -0.965 -0.261 75 3 3
-516.3281 1472.2892 -887.4984 -0.066 -0.981 -0.183 74 2 3
-513.9211 1473.0597 -890.1246 -0.090 -0.978 -0.187 74 2 2
-493.9053 1485.6536 -916.6212 0.134 -0.971 -0.199 80 3 5
-491.6755 1487.0851 -919.5944 0.171 -0.983 -0.064 80 3 5
-387.8015 1481.3427 -1003.5676 0.043 -0.991 0.126 109 8 6
-385.1747 1481.1875 -1005.6837 0.043 -0.991 0.126 107 7 5
-382.4156 1480.4529 -1007.4760 0.015 -0.996 0.084 109 12 9
-3316.0222 2847.1965 446.2432 0.608 -0.685 0.402 48 25 12
-3306.4211 2844.2227 440.3352 0.574 -0.679 0.457 47 25 11
-3290.7488 2835.7241 433.4463 0.581 -0.613 0.536 47 25 11
-3277.2852 2834.9077 422.6263 0.671 -0.665 0.328 45 26 11
-3275.2664 2838.7937 417.9738 0.674 -0.661 0.330 44 25 10
-3253.0083 2835.6455 401.4458 0.632 -0.772 0.070 44 25 11
-3243.8699 2832.9993 395.6831 0.412 -0.672 0.615 44 25 11
-3172.1060 2789.6370 367.5010 0.690 -0.655 0.310 46 24 11
-3163.8662 2787.6919 361.9719 0.669 -0.679 0.303 46 24 11
-3154.0957 2784.3110 356.2277 0.673 -0.669 0.315 46 24 11
-3086.5068 2807.2209 281.4925 -0.247 -0.884 0.398 44 22 8
-2730.1335 2773.4409 4.2936 0.399 -0.589 -0.703 86 33 15
-2313.7104 2907.1121 -450.5042 -0.139 -0.987 0.082 183 118 90
-2303.0095 2900.5898 -454.6641 -0.266 -0.960 0.091 185 120 92
-2296.0647 2899.0237 -459.3794 -0.257 -0.926 0.276 190 125 97
-2326.3384 3010.5244 -517.9533 0.371 -0.520 0.770 195 122 96
-2066.1318 2799.0459 -579.1251 0.806 -0.577 0.133 51 24 16
-1885.3865 2555.1001 -548.2519 0.921 -0.383 0.073 66 26 8
-1880.5931 2562.6685 -558.0452 0.894 -0.439 0.083 87 41 16
-1533.9379 2345.5364 -688.3807 -0.810 -0.586 -0.004 78 31 5
-697.0047 1415.5953 -696.3429 0.221 -0.953 -0.205 114 8 12
-695.4233 1418.0618 -699.5508 0.242 -0.934 -0.262 107 2 6
-693.3322 1419.3839 -702.3267 0.242 -0.934 -0.262 108 1 6
-661.7405 1395.3069 -710.9620 0.315 -0.917 -0.246 91 5 4
-659.3541 1395.8568 -713.4050 0.317 -0.912 -0.261 91 5 4
-620.2111 1435.8627 -776.8997 0.289 -0.950 -0.121 74 2 2
-615.9481 1438.5774 -782.5732 0.166 -0.979 0.117 73 1 2
-613.8110 1439.9318 -785.4127 0.169 -0.985 0.035 73 1 2
-611.7999 1441.6245 -788.4006 0.198 -0.980 0.013 73 1 2
-607.7758 1445.0374 -794.3991 0.301 -0.911 -0.282 73 1 0
-601.0009 1455.4232 -808.0056 0.175 -0.907 -0.383 71 2 0
-577.6442 1472.2842 -840.5932 -0.154 -0.825 -0.543 69 2 0
-575.5153 1473.8623 -843.5947 -0.154 -0.825 -0.543 70 2 0
-573.4841 1475.7300 -846.7321 -0.157 -0.830 -0.535 69 2 0
-550.1791 1470.2336 -862.3743 0.002 -0.978 -0.207 68 2 1
-547.6107 1470.5238 -864.7755 0.011 -0.978 -0.208 68 2 1
-545.8657 1473.2797 -868.3413 -0.021 -0.991 -0.132 68 2 1
-543.2856 1473.5437 -870.7327 -0.021 -0.991 -0.132 68 2 0
-497.4986 1488.9131 -921.2469 0.087 -0.897 -0.433 72 2 2
-458.0403 1471.2246 -941.3945 -0.068 -0.981 -0.184 74 2 1
-455.7142 1472.2655 -944.1573 -0.052 -0.976 -0.211 74 2 1
-454.0163 1475.5844 -948.1086 -0.061 -0.991 -0.117 75 2 1
-388.2290 1483.4790 -1009.9623 0.060 -0.991 0.117 107 7 5
-385.6119 1483.3831 -1012.1130 0.060 -0.991 0.117 105 9 5
-382.9966 1483.2876 -1014.2624 0.060 -0.991 0.117 107 12 8
-1890.0220 1544.7455 213.3165 -0.233 -0.797 0.557 50 30 18
-3296.8599 2829.2646 432.6880 0.581 -0.613 0.536 52 30 15
-3291.3337 2829.9495 427.4769 0.581 -0.613 0.536 50 30 16
-3287.7266 2838.0840 418.2404 0.585 -0.593 0.553 50 31 17
-3298.2688 2853.4143 415.5546 0.687 -0.589 0.425 48 30 16
-3293.7327 2855.0396 410.4700 0.687 -0.589 0.425 48 30 16
-3287.5212 2855.1357 405.1238 0.695 -0.589 0.413 48 30 16
-3266.6938 2847.6040 393.1591 0.567 -0.699 0.436 49 30 16
-3250.1235 2838.1492 386.2682 0.521 -0.609 0.598 48 30 16
-3169.2034 2856.0312 303.9995 0.135 -0.763 0.633 50 28 14
-2934.1924 2746.4429 187.6667 -0.322 -0.945 -0.065 49 30 13
-3032.5464 2861.8455 183.5727 0.886 -0.336 -0.320 51 32 15
-2979.2905 2863.9275 136.7815 -0.587 -0.796 0.149 60 34 17
-2877.3882 2803.2756 96.3073 0.806 -0.562 -0.189 65 38 21
-2872.1206 2804.0098 91.2781 0.656 -0.689 -0.309 64 38 21
-1970.9263 2005.6897 -67.8573 0.258 -0.782 -0.567 136 82 73
-2712.0498 2993.4331 -188.3847 0.668 -0.571 -0.478 122 76 63
-2620.0447 2900.5615 -196.0021 0.855 -0.391 -0.341 176 122 108
-2485.6003 3109.4893 -468.7135 0.824 -0.512 0.244 198 133 105
-2330.1882 3007.2495 -523.0492 -0.524 -0.613 0.592 193 122 95
-2319.6375 3000.9771 -527.2452 -0.529 -0.615 0.585 189 118 93
-2059.2866 2765.6340 -569.6423 0.672 -0.680 -0.293 43 23 16
-1998.2095 2686.5366 -561.4583 0.167 -0.912 -0.376 44 23 16
-1986.8457 2677.8616 -564.5210 0.227 -0.917 -0.328 48 21 13
-1982.1899 2678.7212 -569.1258 0.224 -0.918 -0.328 57 23 11
-1887.3149 2550.3223 -552.2144 0.893 -0.442 0.083 68 28 10
-403.0087 1480.4148 -1000.2420 0.712 -0.190 0.677 78 12 3
-384.6905 1479.7535 -1015.2913 0.791 -0.372 0.485 96 10 4
-3281.8733 2826.4570 411.2737 0.645 -0.699 0.309 56 37 23
-3286.7041 2836.5471 407.6833 0.623 -0.712 0.325 56 37 22
-3294.1353 2849.0400 404.4677 0.698 -0.583 0.416 56 37 22
-3289.6917 2850.7432 399.4000 0.698 -0.583 0.416 56 37 22
-3288.6980 2855.6028 394.8537 0.698 -0.676 0.236 56 37 22
-3268.2932 2842.6990 387.3756 0.567 -0.699 0.436 56 37 22
-3176.1951 2769.5740 364.9644 0.345 -0.686 0.640 56 37 23
-3130.5222 2749.9275 341.1872 0.418 -0.732 0.539 58 36 23
-3117.1201 2743.1172 335.0066 0.423 -0.730 0.536 57 36 24
-3149.2744 2848.3413 282.1016 -0.051 -0.846 0.530 56 34 20
-2892.5264 2647.9241 217.0038 -0.204 -0.706 0.678 52 33 18
-2860.2695 2667.1980 174.9501 0.045 -0.944 0.326 55 36 19
-3026.3545 2867.3865 163.3042 0.828 -0.485 -0.280 54 33 14
-3009.8149 2869.3435 147.7810 0.788 -0.296 -0.540 56 33 15
-3010.4500 2876.1763 143.1129 0.788 -0.296 -0.540 57 34 16
-2964.6851 2836.2761 134.6919 0.744 -0.578 -0.335 58 35 17
-2880.8154 2800.1084 91.0985 0.806 -0.562 -0.189 64 37 20
-2871.8970 2797.0920 85.8307 0.784 -0.568 -0.252 65 38 21
-2873.8784 2805.2734 81.2775 0.763 -0.600 -0.241 67 37 21
-1993.6180 2030.1481 -74.8543 0.512 -0.584 -0.630 135 83 76
-2713.7129 3001.9956 -204.5149 0.677 -0.571 -0.464 175 121 107
-2326.0684 3001.2256 -532.8022 -0.529 -0.615 0.585 190 115 94
-2061.9792 2753.7302 -568.2526 0.676 -0.682 -0.280 45 24 14
-2063.5007 2763.5332 -574.4321 0.672 -0.680 -0.293 36 16 9
-1995.9084 2675.4221 -564.6330 0.308 -0.932 -0.190 38 16 10
-1988.4780 2672.3384 -568.5870 0.276 -0.927 -0.252 41 14 7
-1924.1409 2588.1462 -559.0125 -0.396 -0.874 -0.280 54 20 7
-1890.0833 2546.7620 -556.3705 0.891 -0.442 0.103 69 30 9
-1820.0444 2453.6089 -544.8047 0.902 -0.432 -0.014 79 34 10
-1770.5676 2389.4878 -537.9180 0.702 -0.673 -0.233 86 41 14
-3281.4167 2797.2163 422.4294 0.512 -0.838 0.186 66 40 26
-3282.8547 2804.1189 418.3677 0.518 -0.828 0.215 64 40 24
-3278.3171 2805.6555 413.3448 0.518 -0.828 0.215 64 41 25
-3271.6729 2810.9363 403.6715 0.549 -0.812 0.200 62 41 24
-3275.4836 2831.4495 391.2083 0.666 -0.712 0.225 62 41 24
-3276.9387 2838.5012 387.0469 0.692 -0.668 0.272 62 41 24
-3248.3010 2818.0732 378.3957 0.679 -0.674 0.292 62 41 24
-3234.1787 2810.8545 371.9449 0.536 -0.624 0.569 62 41 24
-3101.9238 2722.8521 327.1420 0.463 -0.729 0.504 63 40 26
-3084.5398 2717.8638 316.2197 0.518 -0.816 0.256 63 40 26
-3136.2854 2829.4956 274.6850 0.032 -0.791 0.611 61 40 23
-2989.3962 2706.8003 244.0175 -0.209 -0.965 0.160 60 39 22
-2866.3867 2666.9873 170.1846 0.208 -0.876 0.435 60 42 22
-3007.8665 2842.2737 156.0303 0.905 -0.415 -0.088 58 37 18
-3019.0239 2859.5049 152.3068 0.827 -0.474 -0.302 59 38 19
-3079.4390 2938.6340 142.9894 0.820 -0.361 -0.444 60 37 19
-3069.1936 2934.6707 137.3355 0.775 -0.540 -0.328 60 37 19
-2883.4993 2790.0854 90.5143 0.798 -0.577 -0.174 69 45 28
-2866.1467 2784.5366 80.0474 0.907 -0.411 -0.094 63 41 24
-2868.5405 2793.1023 75.5237 0.901 -0.419 -0.114 64 37 20
-2755.3855 2805.2532 -29.7103 0.411 -0.569 -0.712 124 66 53
-2753.2637 2809.3289 -34.6273 0.411 -0.569 -0.713 131 73 60
-2758.3921 2821.2317 -39.3859 0.571 -0.513 -0.641 133 77 63
-2024.2728 2039.4512 -63.6829 0.669 -0.536 -0.514 135 85 79
-2000.0209 2027.2915 -74.9417 0.389 -0.627 -0.675 130 82 78
-2022.6270 2066.3318 -85.6441 0.496 -0.529 -0.689 86 37 34
-2015.3905 2077.7954 -100.5498 0.438 -0.568 -0.697 74 57 51
-2016.1226 2083.5027 -104.2957 0.400 -0.585 -0.706 78 64 57
-2560.6211 3190.3455 -489.4631 -0.122 -0.980 0.157 200 133 104
-2056.1494 2729.9744 -564.9575 -0.113 -0.848 -0.518 51 28 15
-2042.9423 2718.9648 -567.7319 -0.284 -0.481 0.830 42 22 14
-2032.5120 2711.8074 -571.0991 -0.284 -0.492 0.823 31 11 4
-2018.4938 2699.5359 -573.5958 -0.284 -0.492 0.823 32 10 4
-1774.0004 2387.3235 -542.0221 0.702 -0.673 -0.233 86 41 13
-704.8036 1391.4017 -686.5779 0.399 -0.914 0.070 100 2 2
-675.2463 1384.0549 -706.0169 0.381 -0.849 -0.366 77 9 3
-394.3205 1477.2805 -1015.5217 0.591 -0.468 0.657 66 4 0
-392.0600 1478.6710 -1018.5021 0.590 -0.475 0.653 68 5 0
-371.5318 1456.7842 -1019.1617 0.947 -0.269 0.174 72 12 1
-338.5672 1457.0635 -1047.3242 0.616 -0.782 -0.100 150 99 69
-3138.4836 2825.1250 269.1409 0.032 -0.791 0.611 63 42 25
-3024.9177 2858.6721 147.1496 0.822 -0.487 -0.295 68 47 28
-3048.6074 2888.4312 144.3635 0.856 -0.316 -0.409 69 46 28
-3089.1709 2947.8149 133.1190 0.840 -0.383 -0.383 63 42 23
-2814.3489 2736.9424 62.2386 0.870 -0.460 -0.177 62 32 15
-2765.9949 2809.7522 -34.6574 0.450 -0.578 -0.681 104 46 35
-2765.6716 2815.7637 -39.5488 0.450 -0.578 -0.681 127 69 58
-2029.0736 2044.2603 -71.0603 0.591 -0.597 -0.542 130 85 85
-2028.3856 2048.2617 -74.7169 0.591 -0.597 -0.542 123 80 80
-2028.5824 2053.2395 -78.3735 0.645 -0.552 -0.529 118 74 75
-2595.4783 3202.0610 -480.4719 -0.217 -0.967 0.137 200 135 107
-2578.7009 3196.8469 -490.6820 -0.217 -0.967 0.137 194 127 98
-2205.6243 2899.1831 -578.1474 -0.179 -0.357 0.917 48 27 18
-1971.1979 2610.4766 -555.0156 -0.310 -0.402 0.862 37 18 10
-1954.2926 2593.9573 -556.6507 -0.310 -0.402 0.862 29 8 3
-1931.0487 2568.4121 -556.7234 -0.392 -0.412 0.822 26 4 0
-1901.8945 2541.4651 -560.7272 0.886 -0.450 0.109 63 29 13
-1899.2012 2544.7622 -565.5417 0.886 -0.452 0.103 77 38 14
-1782.2566 2392.0525 -547.3297 0.662 -0.645 -0.382 85 39 10
-1542.3799 2321.7864 -696.6027 -0.435 -0.900 0.003 71 33 15
-1535.9645 2318.6736 -699.6475 -0.435 -0.900 0.003 63 29 12
-707.4320 1391.3151 -689.3399 0.614 -0.727 0.309 90 0 0
-2887.1335 2646.6658 183.1742 0.921 -0.346 -0.182 65 44 27
-3108.5896 2947.6492 138.5856 0.797 -0.510 -0.325 68 47 28
-3121.5613 2973.3169 129.7755 0.609 -0.729 -0.312 69 48 29
-2917.6697 2793.2881 95.9619 -0.471 -0.690 0.550 76 55 38
-2818.6970 2728.8777 61.8281 0.870 -0.460 -0.177 69 44 28
-2861.5764 2778.7695 59.6617 0.913 -0.407 0.020 63 33 17
-2834.7795 2763.4341 48.7974 0.490 -0.723 -0.486 65 30 11
-2770.7715 2807.9917 -39.7613 0.721 -0.588 -0.366 102 45 36
-2115.1960 2788.8738 -580.1208 0.692 -0.241 0.681 43 24 16
-1931.5164 2561.5793 -560.3710 -0.392 -0.412 0.822 25 3 0
-1907.6893 2535.1326 -560.1518 -0.386 -0.411 0.826 42 16 5
-1861.3209 2476.6885 -554.3445 -0.435 -0.696 0.571 64 34 13
-1849.9161 2467.4690 -556.8916 -0.435 -0.696 0.571 79 42 13
-1842.7313 2471.1252 -565.7950 0.899 -0.436 0.033 86 38 8
-1544.8372 2318.2759 -700.1638 0.599 -0.690 0.405 65 30 22
-380.8930 1487.0756 -1044.7395 0.960 -0.119 0.254 64 5 1
-378.8419 1489.4791 -1048.3297 0.945 -0.135 0.297 66 7 3
-3094.6077 2926.8459 131.7395 0.505 -0.815 -0.284 68 47 28
-3089.0515 2927.5886 126.4629 0.512 -0.810 -0.287 72 51 32
-3080.1147 2924.9541 120.9402 0.524 -0.803 -0.283 76 55 36
-2862.9011 2767.4451 59.0792 0.913 -0.408 0.026 75 50 35
-2860.9490 2771.5088 54.2813 0.913 -0.408 0.026 65 35 19
-2594.6028 3175.3486 -483.7494 -0.572 -0.817 -0.073 197 133 106
-1987.0311 2617.4287 -565.9309 -0.385 -0.405 0.830 29 10 3
-1931.9822 2554.7725 -564.0046 -0.392 -0.412 0.822 26 3 0
-1878.5492 2486.7766 -556.5768 -0.319 -0.561 0.764 43 16 6
-1850.3661 2467.7644 -565.7060 0.913 -0.408 0.022 83 40 11
-1550.9467 2320.6064 -705.1426 0.685 -0.649 0.333 56 25 17
-1542.8046 2321.9419 -713.0661 0.659 -0.662 0.357 36 17 8
-734.6293 1392.6149 -677.4545 0.679 -0.609 0.409 106 22 29
-725.6243 1396.1147 -687.7840 0.588 -0.654 0.476 83 2 4
-722.6164 1395.3715 -689.7538 0.156 -0.508 0.847 82 1 2
-3076.7004 2920.9626 110.1133 -0.439 -0.772 0.460 78 57 38
-2862.8689 2760.8330 53.7484 0.832 -0.539 -0.133 80 55 40
-2579.2783 3155.2007 -492.5854 -0.595 -0.801 -0.060 199 134 106
-2210.3008 2834.5308 -555.3693 0.018 -0.955 0.295 46 18 5
-1997.2341 2616.8325 -566.3430 -0.359 -0.405 0.841 25 6 1
-1961.4761 2581.4280 -569.0635 -0.364 -0.407 0.838 29 8 3
-1932.4463 2547.9919 -567.6243 -0.392 -0.412 0.822 27 3 0
-1875.3541 2481.9382 -564.5641 -0.244 -0.574 0.782 66 33 14
-1882.5004 2498.9346 -571.7311 -0.255 -0.548 0.797 79 41 16
-1520.1427 2271.1851 -701.1387 0.667 -0.722 0.185 38 15 7
-1698.9966 2722.2856 -900.5067 0.065 -0.356 0.932 14 9 5
-345.6118 1456.0057 -1060.7771 0.584 -0.801 -0.132 140 86 64
-343.2967 1457.0546 -1063.5500 0.730 -0.678 0.087 147 96 70
-2836.6807 2838.2820 -39.2442 0.463 -0.886 -0.035 68 31 15
-2818.3062 2825.2305 -44.5882 0.551 -0.834 -0.017 67 31 15
-2811.7966 2824.6780 -49.6582 0.513 -0.858 -0.008 67 31 15
-2269.9517 2845.8049 -524.0498 0.154 -0.886 0.437 181 114 84
-2217.2976 2835.9563 -560.8622 0.023 -0.955 0.297 54 26 11
-2167.2310 2813.6274 -585.7500 -0.038 -0.977 0.209 36 17 10
-1977.1158 2588.5593 -570.7961 -0.296 -0.395 0.870 24 6 1
-1861.5468 2462.1895 -569.8575 -0.152 -0.449 0.881 76 38 13
-1763.3990 2330.7935 -550.2742 -0.174 -0.481 0.859 82 38 9
-1515.9442 2264.2251 -707.4528 0.621 -0.776 0.110 25 7 0
-1492.2668 2364.2732 -805.5284 -0.652 -0.753 -0.093 21 16 12
-744.5952 1385.4822 -673.6387 0.802 -0.535 0.266 100 32 33
-793.7155 2641.2700 -1612.0022 0.035 -0.694 -0.719 67 18 13
-2869.0713 2748.0332 48.1496 0.358 -0.771 -0.526 81 60 43
-2875.2463 2760.2720 43.7778 0.360 -0.661 -0.659 83 58 41
-1642.3042 1647.3741 -125.7145 0.118 -0.930 -0.347 70 59 55
-2748.9531 2961.0898 -220.1891 -0.207 -0.962 -0.178 178 125 106
-2172.4338 2812.7114 -590.8502 -0.031 -0.976 0.218 33 14 8
-2118.9358 2754.5923 -590.5045 0.263 -0.490 0.831 25 6 0
-1932.7494 2505.9307 -552.9603 -0.217 -0.483 0.848 25 6 0
-1849.2831 2424.3103 -559.5145 0.054 -0.655 0.754 59 31 15
-1837.0802 2413.9927 -561.7380 -0.252 -0.662 0.706 71 38 17
-1826.3260 2405.6465 -564.2826 -0.270 -0.660 0.702 77 39 12
-1494.7557 2368.2327 -814.9979 -0.639 -0.767 -0.059 31 26 22
-743.9856 1384.1422 -678.1780 0.802 -0.535 0.266 92 17 21
-764.9138 2539.7268 -1565.7128 -0.088 -0.857 -0.507 65 16 11
-343.5969 1459.2755 -1075.1750 0.762 -0.328 0.559 141 94 62
-2876.4250 2754.9192 38.5362 0.307 -0.710 -0.634 85 58 41
-2780.2097 2740.7996 -31.5645 0.510 -0.841 0.182 67 27 8
-1657.8783 1656.2343 -125.9088 0.434 -0.692 0.578 75 64 60
-1644.5757 1645.6304 -128.7973 0.112 -0.925 -0.364 72 58 55
-2264.1772 2807.6292 -519.6414 -0.197 -0.542 0.817 186 117 84
-1978.4777 2575.5229 -578.2424 -0.300 -0.401 0.866 22 7 2
-1903.9537 2486.3848 -571.0425 -0.086 -0.336 0.938 42 22 7
-1790.8890 2349.1042 -558.5121 -0.246 -0.421 0.873 78 38 14
-1424.9236 2105.4075 -675.7416 0.256 -0.916 0.308 24 5 1
-1520.1936 2395.4578 -823.4263 -0.685 -0.723 -0.087 27 22 18
-1499.6058 2376.1768 -825.6398 -0.701 -0.705 -0.105 28 21 15
-1475.4729 2358.2737 -831.9289 0.905 -0.425 -0.002 13 6 1
-751.0895 1382.2621 -675.7764 0.688 -0.591 0.422 93 17 21
-747.7452 1380.8539 -677.4915 0.822 -0.537 0.188 91 15 19
-450.4336 1445.9438 -979.6034 -0.484 -0.842 0.241 54 5 1
-345.2941 1455.6824 -1075.9977 0.754 -0.321 0.573 144 94 65
-2875.1470 2735.2141 42.5779 0.316 -0.944 0.094 81 56 39
-2874.0410 2740.0371 37.8379 0.356 -0.930 0.092 81 56 41
-2876.6179 2748.5884 33.2605 0.326 -0.844 0.426 83 55 38
-2871.5774 2749.4768 28.3078 0.256 -0.841 0.476 71 37 20
-2866.7959 2750.6272 23.3668 0.266 -0.844 0.465 66 29 13
-2865.6023 2755.4180 18.5780 0.290 -0.768 0.571 66 29 11
-2790.2092 2738.5020 -31.6567 0.499 -0.851 0.167 64 29 14
-2783.5610 2737.6750 -36.6112 0.510 -0.841 0.182 65 29 13
-1664.4526 1655.2290 -125.9808 -0.217 -0.653 0.726 83 70 64
-1647.1752 1644.2471 -131.8837 0.129 -0.911 -0.392 75 62 56
-2144.3547 2729.0791 -568.9520 0.554 -0.813 -0.179 47 29 14
-2179.5889 2814.0396 -606.3051 0.247 -0.965 0.090 28 11 3
-1994.6207 2583.2427 -580.1138 -0.061 -0.533 0.844 24 7 0
-1963.4357 2554.4087 -583.6537 -0.231 -0.367 0.901 30 10 0
-1899.3567 2472.8315 -573.3000 -0.102 -0.395 0.913 43 20 5
-1826.3914 2378.5059 -560.3772 -0.305 -0.459 0.834 59 31 13
-1579.3464 2307.3684 -712.5841 -0.216 -0.746 0.629 59 21 2
-1505.3939 2370.3813 -824.7026 -0.689 -0.666 -0.285 32 27 21
-405.3146 1450.7325 -1026.5405 0.337 -0.926 0.170 114 61 53
-2883.1726 2742.7251 33.0091 0.363 -0.923 0.126 77 50 36
-2880.7222 2746.2119 28.1802 0.258 -0.851 0.457 80 50 34
-2874.1130 2745.5183 23.1593 0.258 -0.851 0.457 70 35 19
-2876.1475 2753.5479 18.5110 0.282 -0.678 0.679 66 29 13
-2868.3901 2751.6968 13.4394 0.282 -0.678 0.679 67 28 11
-2868.6960 2758.0115 8.6927 0.277 -0.777 0.565 66 29 11
-2114.3098 2094.3477 -101.2171 0.340 -0.750 0.567 51 43 40
-1665.5138 1652.1538 -129.0640 -0.217 -0.653 0.726 87 74 66
-1655.4943 1645.1873 -131.9883 -0.258 -0.913 -0.317 87 74 66
-2861.1482 3050.6423 -229.5757 -0.368 -0.881 -0.299 184 124 99
-2248.8301 2673.7358 -446.9914 0.663 -0.467 0.585 197 132 104
-2297.0557 2820.1465 -522.3720 -0.225 -0.904 0.362 177 108 82
-2210.5383 2787.7192 -569.5975 -0.364 -0.508 0.780 58 31 19
-2134.7449 2694.0574 -559.2560 0.771 -0.637 0.016 58 35 25
-2165.1318 2741.8899 -571.5502 0.837 -0.534 -0.121 50 31 21
-2204.1421 2824.1323 -603.8456 0.668 -0.744 0.003 27 11 4
-2151.0027 2767.2292 -603.5406 0.616 -0.761 0.205 25 9 1
-1909.7808 2473.2563 -573.8912 -0.101 -0.389 0.916 39 16 4
-1526.0229 2397.0356 -836.9483 -0.693 -0.659 -0.293 32 27 21
-747.4813 1374.7058 -682.9796 0.783 -0.517 0.346 72 2 4
-480.9043 1461.7255 -976.6339 -0.344 -0.875 0.340 71 22 17
-1333.7390 4473.4087 -2644.5229 -0.704 -0.455 0.546 58 9 2
-427.3376 1456.4977 -1017.6411 -0.467 -0.875 0.125 57 6 2
-424.2818 1454.7010 -1018.7930 -0.467 -0.875 0.125 66 15 11
-405.2680 1450.8118 -1031.7371 0.338 -0.920 0.201 102 52 45
-346.0464 1448.0892 -1079.4961 0.750 -0.293 0.593 139 89 66
-1895.3669 1513.6716 168.3063 0.601 -0.679 0.422 87 54 35
-2887.3237 2740.4050 27.9369 0.363 -0.923 0.126 78 51 34
-2883.8027 2742.8108 23.0571 0.262 -0.851 0.456 80 50 34
-2869.3120 2746.0999 8.2348 0.282 -0.678 0.679 74 32 18
-2876.1506 2759.0049 3.7286 0.174 -0.801 0.573 74 32 18
-2862.9397 2757.6443 -6.3170 0.393 -0.914 0.100 62 23 8
-2848.6719 2767.2961 -26.0136 0.347 -0.932 0.107 63 34 23
-2811.8140 2741.5781 -36.6001 0.556 -0.831 0.026 64 34 23
-2803.6379 2739.2034 -41.5978 0.606 -0.766 0.213 81 51 41
-1677.1956 1660.5634 -132.3239 -0.314 -0.644 0.698 88 73 68
-2502.3647 2976.7847 -484.3744 0.823 -0.562 -0.084 194 129 99
-2299.6172 2815.6958 -527.0005 -0.124 -0.853 0.506 186 119 90
-2242.0403 2755.6909 -527.7626 0.636 -0.383 0.670 176 113 97
-2222.4404 2751.7898 -541.1685 0.621 -0.564 0.544 70 23 19
-2201.8459 2746.4802 -554.2919 -0.126 -0.528 0.840 41 14 11
-2158.5854 2725.4460 -573.9976 0.856 -0.513 -0.063 46 26 19
-2200.5405 2811.2939 -606.9536 0.813 -0.581 0.042 24 10 3
-2195.7534 2812.3877 -611.8559 0.585 -0.799 0.140 22 10 2
-1924.4104 2479.4050 -575.5129 -0.076 -0.380 0.922 28 7 0
-1909.7518 2466.0898 -577.2673 -0.077 -0.385 0.920 42 18 6
-1895.9911 2453.9360 -579.1895 -0.064 -0.378 0.923 61 34 18
-1760.1436 2311.6006 -580.3833 -0.102 -0.437 0.894 57 26 4
-491.2088 1469.9437 -979.6649 -0.497 -0.868 -0.026 56 7 2
-487.3534 1465.8845 -979.6830 -0.363 -0.901 0.238 57 8 3
-484.2412 1464.2756 -981.0246 -0.363 -0.901 0.238 67 18 12
-1320.1365 4426.5991 -2633.5864 -0.707 -0.582 0.401 58 9 2
-456.5258 1458.9956 -1000.1696 -0.207 -0.913 0.353 65 15 8
-453.8595 1458.7819 -1002.2453 -0.213 -0.915 0.342 70 20 13
-442.2355 1454.3335 -1008.4977 0.203 -0.978 -0.053 98 48 41
-345.9942 1391.0360 -1039.2084 0.756 -0.332 -0.565 63 11 1
-349.9899 1431.7365 -1068.2216 0.737 -0.400 -0.544 75 23 8
-350.9756 1471.5582 -1099.0712 0.801 -0.351 -0.485 145 93 72
-2878.3782 2754.7083 -1.4314 0.165 -0.802 0.575 80 39 25
-2867.0979 2755.3018 -11.4010 0.393 -0.914 0.100 75 38 22
-2853.0054 2765.1150 -31.1003 0.351 -0.931 0.101 90 60 50
-2799.6304 2728.5100 -46.7973 0.556 -0.813 0.172 99 71 60
-2227.8245 2751.1794 -546.2315 0.635 -0.554 0.538 46 8 3
-2225.9561 2755.9619 -551.6237 0.214 -0.716 0.664 39 5 4
-2203.3152 2807.0815 -611.5062 0.813 -0.581 0.042 23 10 2
-1905.6244 2446.6538 -574.2565 0.042 -0.396 0.917 28 6 0
-1895.9391 2440.0991 -577.1747 0.005 -0.414 0.910 43 17 6
-553.5183 1434.6099 -904.2033 0.177 -0.968 -0.177 57 8 4
-448.3471 1457.8800 -1011.3171 -0.201 -0.599 0.775 86 36 29
-445.0807 1455.4558 -1012.1307 0.527 -0.832 -0.175 72 22 15
-429.1085 1453.8699 -1024.3092 -0.247 -0.892 0.378 59 9 2
-410.4581 1451.5436 -1038.1508 0.393 -0.889 0.237 77 27 20
-351.7735 1417.4788 -1060.3457 0.735 -0.398 -0.549 64 12 1
-352.2220 1430.8362 -1070.6354 0.735 -0.398 -0.549 68 16 3
-353.2094 1470.3900 -1101.3920 0.738 -0.404 -0.541 144 91 73
-2849.6841 2661.1638 38.9608 0.656 -0.684 0.319 84 57 40
-2836.1721 2659.2366 29.1393 0.646 -0.691 0.324 84 57 40
-2829.9255 2658.7673 24.2607 0.642 -0.712 0.284 84 57 40
-2881.1694 2750.9905 -6.5635 0.347 -0.921 0.176 93 54 39
-2241.1309 2760.8630 -552.8904 0.121 -0.768 0.628 31 0 0
-2231.7463 2755.8677 -556.7802 0.106 -0.776 0.622 32 4 3
-2099.8203 2632.2124 -568.6295 0.739 -0.667 0.092 35 15 8
-2139.9636 2692.6157 -583.2833 0.702 -0.705 -0.097 29 9 2
-1577.6990 2420.4688 -838.1017 -0.762 -0.645 -0.054 16 9 3
-789.2389 1415.3042 -695.5702 -0.606 -0.779 -0.162 85 27 26
-575.2626 1443.9250 -898.5153 -0.071 -0.991 0.118 54 4 3
-554.3663 1444.7493 -916.7543 -0.042 -0.828 -0.558 55 6 2
-453.1507 1447.3608 -1003.9924 0.509 -0.810 -0.292 58 8 1
-451.2557 1449.8458 -1007.5787 0.509 -0.810 -0.292 69 19 12
-449.3000 1452.1361 -1011.0599 0.518 -0.835 -0.186 67 17 10
-431.5108 1453.4045 -1027.0413 -0.337 -0.863 0.377 57 7 0
-354.5014 1430.1501 -1073.1810 0.738 -0.414 -0.533 66 14 1
-354.8507 1443.1543 -1083.3120 0.734 -0.417 -0.535 82 29 13
-2888.3999 2664.4478 58.7009 0.448 -0.889 -0.100 86 57 39
-2884.9236 2666.7332 53.9394 0.448 -0.889 -0.100 84 55 37
-2878.7966 2666.4299 49.0327 0.438 -0.890 -0.127 86 55 37
-2859.2800 2652.9907 43.4406 0.786 -0.596 -0.166 86 55 37
-2825.8853 2637.1428 28.1197 0.783 -0.614 -0.101 90 61 45
-2822.3147 2639.2856 23.3937 0.773 -0.624 -0.116 88 61 44
-2808.1382 2630.9263 18.2032 0.791 -0.605 -0.093 92 65 48
-2859.6975 2687.7876 15.7898 0.530 -0.613 -0.586 95 68 51
-2897.5371 2731.2302 12.6411 0.397 -0.634 0.664 94 67 50
-2890.6665 2730.2795 7.6303 0.397 -0.634 0.664 97 65 50
-2871.3855 2722.8103 -2.5679 0.374 -0.647 0.665 109 72 56
-2864.4062 2721.7161 -7.5547 0.374 -0.647 0.665 110 71 56
-2863.8770 2727.0964 -12.3292 0.484 -0.805 0.342 110 71 56
-2203.5483 2648.9194 -504.5340 -0.131 -0.528 0.839 176 110 77
-2335.2200 2882.7468 -582.0076 -0.414 -0.777 0.474 47 21 18
-2162.1660 2707.3008 -586.3033 -0.046 -0.769 0.637 30 7 1
-1936.6487 2461.3472 -577.9642 0.169 -0.371 0.913 21 6 0
-1983.7683 2609.1836 -657.3192 0.029 -0.977 0.211 50 18 2
-1522.4851 2337.4504 -826.4349 0.361 -0.798 0.483 41 34 26
-1517.8690 2337.2744 -830.1738 0.361 -0.798 0.483 41 34 26
-579.5868 1441.2460 -897.9036 0.030 -0.972 -0.234 50 1 0
-578.4094 1445.3423 -902.1898 -0.067 -0.950 -0.305 51 1 0
-575.9855 1445.9940 -904.7520 -0.067 -0.950 -0.305 56 6 5
-568.4478 1447.2079 -912.0654 -0.093 -0.876 -0.474 66 17 13
-434.2732 1454.2778 -1030.5507 -0.345 -0.822 0.454 58 8 1
-358.2211 1424.6919 -1070.6766 0.606 -0.376 -0.701 61 6 0
-357.9864 1469.4840 -1106.9191 0.692 -0.468 -0.550 126 73 55
-357.7942 1480.4607 -1115.9138 0.692 -0.469 -0.549 146 93 76
-2414.9949 2029.1989 163.9285 0.168 -0.850 0.500 93 59 34
-2394.6458 2014.9703 158.3266 -0.087 -0.968 0.237 92 59 34
-2330.9087 1990.0291 124.9275 -0.155 -0.934 0.321 88 57 37
-2323.5608 1987.4146 120.8664 -0.155 -0.934 0.321 89 58 38
-2317.5813 1986.0490 116.9460 -0.101 -0.943 0.318 89 58 38
-2309.4238 1982.6635 112.8276 -0.210 -0.965 0.156 89 59 38
-2308.7117 1990.3147 106.0487 0.623 -0.570 0.536 87 59 38
-2773.8596 2552.2749 42.8838 0.414 -0.896 -0.158 92 61 42
-2769.3684 2553.3438 38.2472 0.273 -0.959 -0.071 90 61 43
-2765.3142 2554.8413 33.6316 0.273 -0.959 -0.071 91 61 43
-2754.3240 2549.5405 28.6805 0.272 -0.960 -0.066 96 65 47
-2768.6082 2596.8350 2.4772 0.408 -0.885 -0.223 101 72 54
-2870.8804 2727.6648 -17.2847 0.454 -0.814 0.361 117 77 60
-2885.8774 2748.6602 -21.6450 0.436 -0.816 -0.381 119 81 65
-2267.6592 2155.8545 -62.1597 -0.145 -0.541 0.828 120 89 79
-2218.8792 2115.6233 -70.6423 -0.183 -0.501 0.846 124 92 82
-2204.1616 2105.2798 -74.6513 -0.183 -0.498 0.848 84 53 43
-2135.9102 2044.5469 -82.9313 0.068 -0.865 -0.497 38 13 7
-2150.9683 2064.6562 -86.5249 -0.311 -0.804 -0.506 33 14 9
-2147.0396 2065.2451 -90.3011 -0.313 -0.808 -0.499 30 16 13
-2186.8789 2627.3076 -510.8551 -0.132 -0.547 0.826 176 110 74
-2264.7996 2798.0864 -583.3450 0.334 -0.663 0.670 44 25 18
-1929.5470 2444.7690 -579.5912 0.149 -0.369 0.918 20 7 0
-1751.0458 2303.9956 -615.8379 0.314 -0.571 0.759 51 22 0
-1600.0812 2268.7751 -714.2145 -0.653 -0.743 -0.144 58 29 12
-1529.7301 2334.2942 -826.2422 0.361 -0.798 0.483 34 27 19
-1525.1133 2334.1196 -829.9797 0.361 -0.798 0.483 45 38 30
-1520.4998 2333.9448 -833.7145 0.361 -0.798 0.483 38 31 23
-1518.2333 2337.6179 -838.5855 0.220 -0.905 0.364 26 19 11
-582.7225 1442.6171 -901.5536 0.058 -0.966 -0.253 50 1 1
-361.7764 1463.7319 -1104.2289 0.758 -0.450 -0.472 89 36 16
-361.2299 1472.9138 -1112.1050 0.758 -0.450 -0.472 115 63 42
-2337.3572 1926.8286 173.7550 0.245 -0.926 -0.286 114 78 59
-2405.8906 2016.3904 158.6720 0.047 -0.936 0.349 89 60 37
-2386.0713 2002.6497 153.1741 -0.073 -0.960 0.269 90 60 38
-2379.7332 2001.0430 149.1556 -0.073 -0.960 0.269 87 59 38
-2350.8811 1995.4679 129.4532 -0.105 -0.931 0.350 86 58 38
-2331.7295 1986.2141 120.8779 -0.111 -0.934 0.340 85 58 40
-2325.4312 1984.5658 116.9266 -0.109 -0.940 0.325 86 58 41
-2321.6572 1985.2307 113.2189 -0.101 -0.943 0.318 89 58 41
-2316.1687 1984.3152 109.3533 0.515 -0.623 0.589 89 58 41
-2311.7688 1984.3989 105.5914 0.515 -0.623 0.589 89 58 41
-2306.7080 1983.8689 101.7725 0.610 -0.631 0.480 89 57 41
-2297.2214 1991.7332 87.4313 0.273 -0.408 0.871 86 58 41
-2284.6812 2022.3839 52.0500 0.953 -0.292 -0.081 82 56 34
-2257.7480 2031.2598 22.2411 0.629 -0.683 0.371 86 59 42
-2247.0894 2115.6636 -55.1458 0.272 -0.962 -0.016 125 90 76
-2150.5259 2045.3802 -79.2273 0.139 -0.846 -0.515 44 16 9
-2152.7842 2061.4849 -90.3898 -0.449 -0.800 -0.398 30 15 10
-2258.9766 2656.7114 -483.8716 0.727 -0.551 0.409 186 121 91
-2212.9888 2646.4189 -514.1354 -0.106 -0.561 0.821 176 110 77
-2241.9653 2717.8862 -547.7567 -0.107 -0.625 0.773 42 12 1
-2129.1392 2634.7566 -575.0754 0.620 -0.699 0.357 35 16 9
-1932.0546 2441.1748 -583.5743 0.147 -0.361 0.921 20 7 0
-1750.7091 2335.8484 -650.4207 0.128 -0.942 0.311 55 21 1
-1743.3849 2338.6553 -658.8457 0.414 -0.901 -0.133 55 22 1
-1707.9478 2301.0710 -658.1221 -0.016 -0.795 0.606 56 22 0
-1696.6239 2297.9087 -665.0651 0.053 -0.813 0.580 55 21 0
-1613.6099 2282.1812 -722.0073 -0.653 -0.743 -0.144 57 31 10
-1596.1022 2269.2151 -726.1925 -0.630 -0.765 -0.137 48 23 4
-1588.1139 2263.8369 -728.5382 -0.617 -0.771 -0.157 41 15 0
-2005.5730 2916.6357 -907.3765 0.158 -0.832 -0.533 29 5 0
-1468.6267 2248.7920 -816.6554 0.226 -0.876 -0.426 19 12 6
-472.9607 1453.4857 -1007.7031 -0.324 -0.894 -0.310 57 8 3
-470.7909 1455.0050 -1010.7568 -0.731 -0.680 -0.058 58 8 1
-392.7275 1432.7167 -1058.2229 -0.038 -0.942 -0.334 56 5 1
-364.0926 1451.5354 -1097.5226 0.899 -0.346 -0.270 72 19 3
-363.5413 1460.4952 -1105.2505 0.900 -0.344 -0.267 79 26 7
-362.9131 1469.2301 -1112.8605 0.894 -0.355 -0.273 105 52 34
-362.0096 1476.8315 -1119.7827 0.894 -0.355 -0.273 136 83 65
-361.0980 1484.5009 -1126.7666 0.894 -0.355 -0.273 146 95 74
-2389.7676 1921.7544 214.2109 0.330 -0.686 0.648 146 112 85
-2386.7439 1922.9941 210.6650 0.236 -0.954 -0.184 146 113 83
-2371.5803 1921.4033 199.2375 0.273 -0.922 -0.274 147 114 85
-2367.8352 1922.0101 195.6014 0.217 -0.949 -0.227 141 110 84
-2368.7537 1926.7063 192.5497 -0.061 -0.980 -0.190 137 106 83
-2360.7205 1923.5531 188.3763 0.193 -0.952 -0.237 137 106 85
-2345.4241 1925.6992 173.7957 0.246 -0.941 -0.231 136 105 82
-2342.0908 1926.6700 170.2091 0.245 -0.926 -0.286 136 105 83
-2339.8213 1928.5869 166.7447 0.342 -0.898 -0.277 128 101 80
-2337.5598 1930.5161 163.2773 0.342 -0.898 -0.277 117 92 74
-2335.3315 1932.4795 159.8098 0.330 -0.901 -0.283 103 79 63
-2333.0562 1934.4058 156.3329 0.330 -0.901 -0.283 86 62 47
-2330.7778 1936.3340 152.8518 0.330 -0.901 -0.283 75 52 34
-2401.2847 2007.6732 153.9435 0.007 -0.936 0.351 76 53 34
-2384.1958 2000.5154 145.4317 -0.088 -0.962 0.258 73 52 35
-2378.5967 1999.5745 141.4998 -0.276 -0.936 0.220 72 51 34
-2371.2747 1997.0669 137.3976 -0.226 -0.894 0.388 71 50 35
-2354.8279 1994.4979 125.6898 -0.105 -0.931 0.350 73 52 37
-2338.2827 1987.6517 117.3804 -0.124 -0.937 0.325 73 52 37
-2331.2332 1985.3256 113.3592 -0.124 -0.937 0.325 77 51 38
-2320.5388 1983.7697 105.6529 -0.158 -0.975 0.154 80 51 38
-2313.8237 1981.7225 101.6851 -0.155 -0.981 0.118 82 50 38
-2313.5952 1985.6547 98.2930 0.002 -0.999 -0.039 84 52 40
-2307.1897 1983.8844 94.3597 -0.200 -0.959 0.199 84 54 42
-2304.0945 1985.1733 90.7138 -0.217 -0.935 0.280 85 53 42
-2297.5515 1983.2621 86.7797 -0.234 -0.916 0.325 83 54 42
-2293.8613 1983.9958 83.0865 -0.188 -0.925 0.331 81 55 42
-2278.9690 2012.2352 47.6074 0.956 -0.286 -0.061 79 58 42
-2278.1719 2015.7644 44.0662 0.959 -0.279 -0.050 79 58 41
-2278.7427 2020.6084 40.6026 0.749 -0.581 0.318 81 60 44
-2276.9084 2023.1724 36.9767 0.436 -0.611 0.660 84 63 47
-2272.6531 2023.4275 33.1988 0.308 -0.615 0.726 83 62 45
-2266.5403 2021.9004 29.3132 0.308 -0.615 0.726 83 62 46
-2259.0947 2019.0840 25.3587 0.310 -0.616 0.724 87 66 50
-2232.6235 2015.2268 6.2885 0.844 -0.530 0.084 94 73 58
-2223.1948 2023.5265 -8.3772 0.831 -0.465 -0.306 106 77 66
-2222.4629 2027.2083 -11.9880 0.831 -0.465 -0.306 103 73 63
-2235.4631 2044.3890 -15.0643 0.394 -0.208 0.895 103 70 61
-2166.1858 2029.1359 -60.7734 -0.054 -0.895 -0.443 132 93 86
-2155.9822 2027.8365 -68.2769 0.527 -0.850 0.017 115 95 87
-2157.4028 2033.7849 -71.9263 0.386 -0.792 -0.472 96 79 71
-2155.8591 2036.7463 -75.6318 0.386 -0.792 -0.472 72 55 47
-2154.6504 2040.0582 -79.3413 0.372 -0.796 -0.478 34 15 11
-2356.3752 2871.3445 -586.6863 -0.563 -0.711 0.422 31 14 4
-1903.1191 2401.9614 -584.9333 0.077 -0.330 0.941 19 8 0
-1746.6649 2297.1973 -630.9301 0.392 -0.886 0.248 49 22 3
-1743.1207 2298.6660 -635.0989 0.392 -0.885 0.252 51 23 4
-1742.4948 2304.2546 -640.1727 0.353 -0.916 0.190 52 23 4
-1743.2264 2311.7891 -645.6911 0.103 -0.938 0.331 52 23 4
-1557.5925 2184.3130 -697.6844 -0.306 -0.951 0.040 55 32 14
-1464.6281 2186.3655 -777.3522 0.004 -0.804 -0.594 11 8 3
-1475.8278 2253.1902 -822.3450 0.233 -0.868 -0.438 15 8 2
-587.0133 1447.1749 -912.0374 0.171 -0.959 -0.224 66 16 15
-582.5871 1449.6827 -917.7921 -0.113 -0.949 -0.294 78 28 27
-575.7522 1452.9521 -926.1876 -0.080 -0.951 -0.298 83 34 30
-571.8398 1456.9855 -932.7529 -0.042 -0.855 -0.516 65 16 12
-612.2576 1629.9669 -1039.6337 -0.642 -0.754 -0.141 51 3 0
-606.7975 1622.5836 -1038.2053 -0.417 -0.905 -0.085 58 10 6
-520.5463 1454.6154 -973.8591 0.332 -0.929 -0.167 114 63 59
-368.4365 1459.8190 -1105.7147 0.945 -0.219 0.241 70 16 2
-366.8272 1464.0702 -1110.5250 0.946 -0.215 0.242 73 20 5
-2390.0654 1917.7200 210.0922 0.330 -0.686 0.648 157 125 89
-2387.8633 1919.6655 206.6562 0.343 -0.693 0.634 157 123 86
-2382.6633 1919.0123 202.8301 0.360 -0.724 0.588 153 123 85
-2366.9985 1924.7323 185.0231 0.217 -0.949 -0.227 150 123 98
-2348.5374 1924.1028 170.0585 0.354 -0.895 -0.271 149 123 95
-2345.1780 1925.0492 166.4687 0.580 -0.679 -0.449 148 124 99
-2410.6699 2007.4222 154.0831 -0.244 -0.885 0.397 54 36 23
-2404.8098 2006.2800 150.1031 -0.011 -0.937 0.349 53 37 21
-2401.1416 2007.1002 146.3575 0.504 -0.822 0.264 53 37 21
-2377.7900 2002.5271 130.5145 -0.159 -0.943 0.292 52 37 25
-2371.6091 2001.0549 126.5349 -0.147 -0.944 0.295 53 38 26
-2363.4907 1997.8131 122.3764 -0.134 -0.945 0.299 55 40 28
-2343.1873 1987.5731 113.7189 -0.096 -0.937 0.335 57 39 27
-2336.8298 1985.8887 109.7648 -0.095 -0.946 0.311 61 39 28
-2326.9585 1985.1019 102.1309 -0.144 -0.972 0.184 68 39 30
-2322.3789 1985.0298 98.3501 -0.149 -0.981 0.121 68 38 30
-2321.7644 1988.6083 94.9113 -0.152 -0.977 0.151 71 41 32
-2315.0747 1986.5894 90.9518 -0.225 -0.955 0.194 75 45 37
-2309.1226 1985.2421 87.0620 -0.217 -0.935 0.280 75 45 37
-2311.3296 1991.4491 83.8414 -0.172 -0.920 0.353 74 45 36
-2305.9734 1990.6542 80.0000 -0.091 -0.904 0.418 72 47 37
-2284.0164 2012.3154 43.8935 0.861 -0.463 0.213 71 56 44
-2274.1819 2015.8351 32.7724 0.454 -0.619 0.640 78 63 51
-2268.4644 2014.6832 28.9194 0.443 -0.614 0.653 78 63 48
-2261.2500 2012.0924 24.9872 0.390 -0.551 0.738 77 62 48
-2249.4158 2009.3632 17.2946 0.585 -0.584 0.563 86 71 58
-2243.3208 2007.8151 13.4491 0.591 -0.592 0.548 86 71 58
-2237.5569 2006.5773 9.6276 0.606 -0.601 0.520 87 72 59
-2232.0410 2005.5714 5.8247 0.850 -0.518 0.100 86 71 57
-2230.1145 2008.0336 2.1978 0.850 -0.518 0.100 85 70 57
-2226.3809 2008.7501 -1.5180 0.860 -0.510 -0.001 86 70 57
-2224.0271 2010.8079 -5.1727 0.832 -0.465 -0.302 87 69 57
-2222.5623 2018.1051 -12.3625 0.832 -0.465 -0.302 99 73 65
-2221.8271 2021.7689 -15.9722 0.832 -0.465 -0.302 93 64 58
-2213.6562 2062.7998 -56.3442 0.681 -0.695 -0.230 128 80 78
-2176.1619 2029.7719 -60.7984 0.741 -0.635 -0.220 135 87 83
-2170.6694 2028.7443 -64.5638 0.923 -0.385 0.003 136 95 92
-2157.3682 2033.3397 -79.4707 0.619 -0.778 -0.102 29 21 14
-2280.3330 2730.7273 -546.1212 -0.281 -0.619 0.733 92 51 33
-2252.9360 2709.9900 -552.1501 -0.149 -0.572 0.807 36 16 2
-2362.3433 2856.3479 -579.9893 0.560 -0.439 0.703 33 16 5
-2283.4116 2821.0339 -617.3184 0.213 -0.622 0.753 27 9 2
-1801.8894 2309.4221 -603.0736 0.234 -0.457 0.858 24 9 1
-1781.6157 2300.6609 -612.9142 -0.028 -0.284 0.958 27 12 3
-1751.2074 2284.0103 -624.8066 0.318 -0.573 0.756 29 14 4
-1748.5624 2305.9961 -644.9863 0.084 -0.987 0.138 36 20 10
-1748.2017 2311.9792 -650.1770 0.097 -0.939 0.329 37 21 11
-1750.4503 2321.6804 -656.2172 0.087 -0.914 0.396 34 18 8
-1752.2942 2330.8552 -662.1667 0.308 -0.801 0.514 30 14 5
-1571.5452 2191.9766 -700.2543 -0.237 -0.946 -0.220 52 29 18
-1569.0768 2194.7654 -704.6025 -0.236 -0.960 -0.153 53 33 23
-1559.5953 2193.5378 -711.5492 -0.236 -0.960 -0.153 43 23 12
