ply
format ascii 1.0
element vertex 790
property float x
property float y
property float z
property float nx
property float ny
property float nz
property uchar diffuse_red
property uchar diffuse_green
property uchar diffuse_blue
end_header
-2900.9363 6103.6099 605.3409 0.564 -0.724 0.397 100 77 69
-3171.1641 7093.8877 584.3335 -0.183 -0.983 -0.019 59 45 34
-2859.4465 6594.5459 502.7464 -0.174 -0.350 -0.920 38 28 18
-1736.0421 5697.0098 60.2555 0.573 -0.817 0.067 124 117 124
-1727.4458 5719.2954 52.0714 0.954 0.220 0.205 132 125 132
-1738.3174 5778.6870 48.0086 0.956 0.222 0.190 126 120 124
-1753.7369 5853.0635 43.8689 0.964 0.196 0.178 125 116 121
-1764.4263 5912.8828 39.6399 0.937 0.084 0.338 119 110 113
-1764.9991 5940.5991 35.3793 0.866 0.054 0.497 113 107 111
-1764.8818 5966.2676 31.0933 0.866 0.048 0.498 100 94 98
-1769.1556 6006.3711 26.7385 0.871 0.011 0.492 99 93 97
-1769.0117 6032.3511 22.3871 0.861 -0.006 0.509 101 95 99
-1506.0309 5336.0176 -1.1748 -0.134 -0.803 -0.581 125 116 117
-4086.3257 2474.2908 1814.4070 0.199 -0.079 -0.977 129 118 106
-4689.6270 2878.3303 2063.1504 0.828 -0.543 0.137 135 127 116
-4930.7168 3114.3799 2150.1682 0.208 -0.978 -0.025 140 132 121
-3796.9968 2602.8599 1641.5966 0.647 0.102 -0.756 177 167 155
-4216.8389 2957.8875 1802.4369 0.600 -0.791 -0.117 149 135 132
-4207.2905 2963.0396 1796.5826 0.620 -0.770 -0.150 119 111 110
-4156.8740 3067.4316 1752.8571 0.768 -0.249 0.590 29 43 53
-4122.3511 3078.4797 1732.9500 0.648 -0.449 0.616 17 31 41
-3306.0647 2566.7385 1390.5912 0.973 -0.071 -0.218 74 59 52
-3296.5847 2588.5576 1382.0057 0.976 -0.218 0.006 74 60 52
-3305.4956 2604.5979 1384.0073 0.960 -0.152 -0.234 97 80 65
-3253.7988 2634.1072 1352.0444 0.883 -0.330 0.333 110 54 49
-3240.9910 2742.1487 1327.4009 0.628 -0.196 -0.753 111 55 31
-2935.4500 2595.1699 1191.8540 0.913 -0.373 -0.165 44 40 39
-2870.5271 2682.1899 1143.4186 0.942 -0.096 -0.321 194 183 191
-2847.6123 3152.5442 1053.3278 0.991 -0.037 0.129 24 28 13
-2850.1355 3166.1987 1052.3815 0.972 -0.075 0.221 34 22 4
-2890.6106 3428.3596 1030.0424 0.987 0.157 -0.033 193 108 61
-2811.9797 3387.8936 995.5980 0.656 -0.465 0.594 211 145 111
-2779.6423 3398.4429 976.9178 0.852 -0.237 0.468 233 195 194
-2771.7371 3413.0835 970.3486 0.732 -0.384 0.563 237 209 214
-2771.4202 3436.5698 966.2830 0.850 -0.215 0.481 230 217 216
-2804.3350 3486.9343 975.1517 0.828 0.041 0.560 224 218 215
-3273.5391 4297.3799 1086.2179 0.046 -0.712 -0.701 206 155 145
-2335.0305 3249.3577 768.9170 0.526 -0.727 0.441 201 165 151
-2237.8203 3166.6934 731.7527 -0.126 -0.970 -0.210 204 168 154
-2193.0208 3118.4553 716.3093 -0.095 -0.935 -0.342 209 173 159
-3029.1975 5207.3071 807.2259 0.610 -0.766 0.203 156 116 106
-3080.2371 5368.0879 807.2499 0.062 -0.319 -0.946 159 119 111
-3190.9136 5695.4097 810.8423 -0.336 -0.903 -0.267 144 105 96
-3167.9854 5676.6973 801.9464 -0.349 -0.914 -0.205 135 100 92
-3044.8635 5585.4238 752.6467 0.248 -0.594 0.766 74 56 42
-3012.6873 5548.9917 741.8513 0.213 -0.622 0.753 70 49 38
-3002.1414 5550.5610 736.0700 0.207 -0.625 0.753 63 46 38
-2937.5720 5495.9116 711.3417 0.924 -0.260 0.281 41 36 32
-2936.3059 5513.7441 707.7181 0.926 -0.256 0.278 36 31 27
-2931.2539 6104.9453 606.9136 0.943 0.265 -0.202 87 76 68
-2931.5173 6128.3823 603.1602 0.986 0.167 -0.006 98 78 71
-2899.2261 6086.2158 593.2568 0.652 -0.671 0.352 98 78 69
-3160.3447 6999.9614 578.2390 -0.411 -0.484 -0.773 68 55 43
-3186.6279 7083.2256 578.1735 -0.208 -0.978 0.001 67 54 45
-3181.2271 7098.7207 572.7734 -0.177 -0.983 -0.049 67 54 45
-2083.8438 6215.8418 144.8822 -0.181 -0.983 -0.022 22 18 17
-2020.9106 6086.2637 133.4511 -0.164 -0.975 0.147 19 18 16
-1805.5009 5626.9585 96.9448 0.221 -0.975 -0.030 205 203 208
-1761.0118 5636.1079 72.1357 0.878 -0.183 0.443 215 210 216
-1736.2629 5680.8584 51.7495 0.521 -0.840 0.151 174 169 175
-1739.4368 5715.3574 47.6830 0.669 -0.184 -0.721 173 168 174
-1724.1305 5691.8335 43.5760 0.966 0.215 0.141 174 167 174
-1733.1143 5744.9653 39.4573 0.961 0.221 0.165 171 165 169
-1742.3961 5799.4595 35.2684 0.969 0.186 0.163 171 165 169
-1750.5742 5850.8525 31.0166 0.941 0.086 0.326 171 165 167
-1755.6829 5892.7905 26.7278 0.865 0.046 0.500 171 165 169
-1755.3367 5917.4517 22.4520 0.865 0.046 0.499 146 140 144
-1756.4208 5973.0269 13.7921 0.865 0.019 0.501 132 126 130
-1714.9343 5915.5742 1.6131 0.858 0.057 0.510 143 134 135
-3828.6653 2281.5513 1701.2931 0.205 -0.200 -0.958 129 112 102
-4753.9033 2875.5315 2084.4392 -0.300 -0.673 -0.676 126 118 107
-3731.8767 2470.4150 1619.1726 0.960 0.048 -0.275 174 164 152
-4281.0791 2972.2434 1821.6021 0.599 -0.796 0.085 155 142 136
-4260.3452 2970.2910 1811.1135 0.267 -0.937 0.227 145 134 128
-4222.9375 2957.4016 1793.7594 0.287 -0.949 0.128 143 132 128
-4209.9858 2960.3342 1786.5122 0.287 -0.949 0.128 101 94 93
-4194.9429 2961.8557 1778.4105 0.583 -0.811 0.049 20 38 48
-4217.2983 2999.4653 1783.7727 0.861 -0.058 -0.505 121 165 181
-4148.5317 3057.0356 1738.2595 0.959 -0.181 0.217 50 77 90
-3306.9211 2592.0889 1377.1240 0.921 -0.077 -0.382 56 43 33
-3281.7800 2612.2180 1360.6382 0.520 -0.589 0.619 83 50 40
-3277.4863 2618.6926 1357.3142 0.466 -0.628 0.622 94 55 47
-3316.1436 2725.9907 1359.5076 0.970 -0.227 -0.092 128 67 49
-3344.5200 2757.5989 1369.0155 0.746 -0.567 0.349 129 68 50
-3284.1255 2741.4436 1340.2178 0.899 -0.349 -0.263 127 57 32
-3274.7769 2744.2195 1334.8765 0.891 -0.330 -0.313 125 55 31
-3264.2595 2746.0598 1329.0820 0.355 -0.624 -0.696 124 56 31
-3260.7292 2753.3154 1326.0253 0.360 -0.631 -0.687 119 59 29
-2938.9209 2593.9680 1184.8494 0.910 -0.375 -0.175 44 40 39
-2865.5928 2683.2449 1131.6464 0.904 -0.126 -0.410 202 191 200
-2867.0803 3112.4250 1060.5393 0.897 -0.120 0.425 36 31 31
-2825.7627 3135.7146 1035.0859 0.591 -0.796 0.131 49 37 17
-2770.9275 3394.3882 963.1572 0.787 -0.370 0.494 234 188 181
-2765.8323 3400.3562 959.4998 0.787 -0.370 0.494 237 196 189
-2862.7087 3573.6069 981.0157 0.834 0.520 -0.184 237 222 210
-3377.8813 4327.0684 1123.5483 0.090 -0.740 -0.667 217 166 155
-2372.3940 3213.1096 785.6326 0.253 -0.812 -0.525 219 181 168
-2365.3691 3215.3389 781.5947 0.200 -0.872 -0.446 215 177 164
-2361.7710 3221.9001 778.6189 0.212 -0.851 -0.480 215 177 164
-2367.7715 3240.7161 778.5975 0.224 -0.821 -0.525 215 177 164
-2335.6333 3244.2637 761.2391 0.526 -0.727 0.441 204 168 154
-3089.5090 5238.8086 820.4180 0.308 -0.659 -0.686 178 136 124
-3025.6492 5172.2061 798.2621 0.170 -0.686 -0.708 162 122 112
-3030.8179 5199.3066 796.4190 0.553 -0.374 -0.744 156 116 106
-3063.0828 5386.4360 781.9072 0.068 -0.360 -0.930 165 125 117
-3095.2061 5519.8477 776.3187 0.526 -0.735 0.428 150 111 102
-3087.3816 5526.4590 771.1298 0.423 -0.786 0.451 142 106 97
-2933.6455 5457.2085 702.5352 0.434 -0.812 0.389 42 38 32
-2951.1938 5528.6670 699.7205 0.630 -0.544 -0.554 30 25 21
-2940.8521 5530.2524 694.0603 0.612 -0.469 -0.637 25 20 16
-2825.0806 5749.0322 597.0272 0.641 -0.279 -0.715 19 14 8
-2881.9705 5948.0259 593.3733 0.891 0.341 -0.299 47 39 33
-2905.9146 6017.9243 594.1560 0.937 0.306 -0.169 73 66 59
-2952.3206 6156.1714 595.2079 0.961 0.273 0.041 99 78 70
-2901.9016 6077.7300 582.0459 0.652 -0.671 0.352 101 78 70
-3043.4373 6386.6831 604.1288 0.253 0.169 -0.953 100 77 69
-3138.4062 6603.4561 617.3602 0.253 0.169 -0.953 100 77 69
-3194.0332 7109.4268 561.6323 -0.386 -0.445 -0.808 73 59 48
-2928.3181 6663.8228 497.6613 0.085 -0.061 -0.995 54 43 33
-1958.0018 5839.2334 129.6254 0.167 -0.852 0.496 19 15 14
-1960.4797 5870.6665 125.6532 0.408 -0.698 0.588 27 26 24
-1972.3218 5954.0664 117.8618 0.022 -0.970 0.244 65 64 62
-1972.1211 6054.1709 100.9907 -0.182 -0.982 0.058 205 202 206
-1889.2993 5834.9712 94.5020 0.253 -0.952 0.174 201 196 202
-1737.0198 5666.4702 43.2906 0.515 -0.840 0.168 196 188 195
-1739.7261 5699.3623 39.1932 0.665 -0.188 -0.722 196 189 196
-1719.6924 5685.4951 31.0656 0.964 0.217 0.155 202 195 202
-1731.2493 5746.7954 26.8269 0.969 0.186 0.162 203 197 201
-1733.4778 5778.8643 22.6181 0.949 0.093 0.302 203 197 201
-1732.7866 5801.8135 18.4138 0.913 0.011 0.407 205 197 202
-1736.0198 5863.0449 9.8447 0.867 0.022 0.498 183 177 181
-1733.6917 5881.1826 5.5925 0.866 0.007 0.500 176 170 174
-1720.2740 5863.2827 1.5915 0.953 0.149 0.262 171 165 169
-1724.7024 5903.5703 -2.8463 0.954 0.160 0.255 162 153 156
-1516.0417 5336.6196 -16.7317 0.047 -0.872 0.488 170 161 162
-2977.4580 1781.8594 1333.0709 0.587 -0.107 -0.802 128 106 92
-4768.8540 2914.8022 2072.7703 -0.516 -0.730 -0.448 134 126 115
-4122.0205 2767.1274 1761.5186 0.996 -0.020 -0.090 169 155 144
-4261.1763 2887.0750 1813.5825 0.713 0.197 -0.673 156 144 132
-4251.4463 2948.6646 1798.1200 0.614 -0.789 -0.018 142 129 123
-4221.0146 2951.6992 1781.7900 0.291 -0.948 0.131 137 128 123
-4208.1235 2954.6592 1774.5897 0.291 -0.948 0.131 75 70 70
-4197.7515 2959.2329 1768.4261 0.583 -0.811 0.049 11 35 47
-4222.6606 2998.4797 1774.7424 0.861 -0.058 -0.505 129 182 201
-4180.5054 3004.8931 1751.7484 0.290 -0.902 0.320 130 182 204
-4177.5532 3037.4565 1744.7126 0.481 -0.777 0.407 111 154 170
-4180.5591 3086.0322 1738.0684 0.864 -0.400 0.305 62 101 116
-3321.4023 2608.2051 1372.2358 0.984 -0.057 -0.167 55 36 21
-3246.9473 2620.9995 1331.3752 0.877 -0.342 0.338 123 67 61
-3249.5771 2700.7832 1319.2633 0.961 -0.211 0.179 137 74 55
-3276.5378 2731.3899 1328.1057 0.896 -0.325 -0.303 136 63 36
-3278.1318 2742.5896 1327.0422 0.891 -0.330 -0.313 135 62 35
-3261.2529 2749.4800 1317.1051 0.409 -0.659 -0.631 130 65 33
-2966.4104 2612.2141 1187.0469 0.794 -0.495 -0.352 44 40 39
-2872.2756 2684.7827 1125.8593 0.943 -0.108 -0.316 184 171 180
-2872.7966 2694.7751 1124.4419 0.653 -0.742 0.152 196 184 194
-2878.8533 2748.2737 1118.5518 0.915 -0.019 0.403 106 148 153
-2959.3484 2931.0745 1129.5074 0.786 -0.606 -0.121 187 147 131
-2960.2605 2942.2791 1128.0885 0.872 -0.486 -0.059 177 140 129
-2987.9558 2978.3127 1136.3959 0.826 -0.520 -0.217 139 109 105
-2991.0737 3002.3130 1133.9618 0.514 -0.847 0.134 82 63 57
-2985.6575 3018.4727 1128.4166 0.138 -0.703 -0.697 21 14 6
-2836.8552 3087.5435 1039.4058 0.236 -0.843 -0.484 41 30 37
-2830.3345 3091.7205 1035.3109 0.236 -0.843 -0.484 107 100 102
-2827.0974 3099.2341 1032.3589 0.471 -0.788 -0.396 107 111 106
-2850.3167 3133.8547 1038.5786 0.882 -0.409 0.234 48 56 43
-2846.2925 3140.6826 1035.3335 0.882 -0.409 0.234 39 42 26
-2827.9390 3132.7305 1027.1375 0.585 -0.800 0.133 82 69 49
-2895.0381 3433.4585 1011.2075 0.997 -0.069 0.036 200 106 54
-2759.1619 3410.4233 944.4756 0.866 -0.181 0.466 231 186 160
-2846.1558 3547.9788 966.4529 0.835 0.525 -0.166 245 213 190
-2886.3794 3607.6001 977.2871 0.769 0.568 -0.293 228 203 200
-2365.8337 3232.4312 770.1087 0.466 -0.410 -0.784 215 177 164
-2343.2029 3248.1902 755.6837 0.066 -0.849 -0.524 190 154 140
-3058.6343 5178.1685 801.4836 0.925 0.037 0.379 178 136 124
-2953.0220 5520.1201 688.8202 0.634 -0.490 -0.599 23 20 15
-2957.7078 5548.7188 686.4242 0.639 -0.510 -0.576 24 19 15
-2886.6992 5440.8237 667.7446 0.909 -0.223 0.353 24 19 15
-2833.8643 5753.3003 587.4925 0.641 -0.279 -0.715 21 13 7
-2881.9265 5934.5278 581.8566 0.898 0.339 -0.282 54 45 40
-2914.6228 6021.6172 584.1378 0.897 0.337 -0.284 81 73 65
-2850.1777 6095.5488 538.1514 0.550 0.210 -0.808 101 78 68
-2563.2422 5673.7271 460.2765 0.362 -0.597 -0.715 89 69 58
-1836.7966 5300.8701 145.6884 0.942 -0.049 0.332 26 18 15
-1996.2815 5810.6890 142.4528 0.425 -0.898 0.110 29 19 17
-1978.7155 5785.5049 137.5773 0.405 -0.908 0.103 30 20 18
-1976.2506 5802.4771 133.4288 0.515 -0.857 -0.018 29 19 17
-1970.4806 5858.5078 120.9638 0.170 -0.981 0.092 34 30 29
-1977.1725 5902.0054 117.0935 0.161 -0.986 0.033 59 55 54
-1955.5303 5913.5576 103.8930 0.023 -0.981 0.195 154 151 150
-1976.0355 6048.4639 91.7595 -0.144 -0.983 0.111 198 191 196
-1893.9600 5832.1104 85.6509 0.253 -0.952 0.174 197 189 196
-1773.8309 5547.6855 71.2636 0.700 0.087 -0.709 211 202 209
-1819.0839 5706.8315 67.8980 0.766 0.125 -0.630 216 206 214
-1732.0737 5634.4512 34.9014 0.741 -0.579 -0.340 205 193 203
-1724.4174 5634.7959 30.8636 0.856 -0.342 -0.388 204 194 203
-1711.9764 5620.0879 26.8822 0.774 0.142 -0.617 204 194 202
-1731.8304 5706.8408 22.5453 0.781 0.148 -0.607 202 193 201
-1721.5615 5699.0640 18.5217 0.990 0.102 -0.098 202 195 199
-1735.7019 5768.6787 14.1106 0.929 -0.136 -0.345 201 195 199
-1667.1676 5697.8726 -9.5489 0.936 -0.297 0.188 179 170 173
-3124.9163 1849.9274 1389.9524 0.704 -0.284 -0.651 124 102 88
-4800.2812 2916.4998 2075.8853 -0.492 -0.649 -0.580 125 117 106
-3736.6311 2466.0212 1601.7806 0.960 0.048 -0.275 174 162 149
-4112.1411 2703.6453 1755.7675 0.753 -0.446 -0.483 173 161 148
-4124.1445 2721.5542 1758.9323 0.885 -0.403 -0.232 172 159 147
-4120.5288 2740.6580 1753.8047 1.000 0.012 0.004 163 146 135
-4117.9019 2749.7334 1750.8977 0.998 0.003 -0.071 164 146 135
-4118.0542 2760.5481 1749.1340 0.998 0.003 -0.071 164 146 136
-4618.0640 3082.6631 1953.2020 0.746 -0.576 -0.335 156 138 127
-4625.0288 3111.2334 1951.9412 0.159 -0.969 0.190 150 133 123
-4607.4209 3112.2966 1942.6407 0.159 -0.969 0.190 149 133 123
-4254.7236 2946.3447 1788.2563 0.614 -0.789 -0.018 137 125 119
-4230.0015 2941.7461 1776.2365 0.379 -0.923 0.068 141 130 126
-4218.8384 2945.8477 1769.7561 0.379 -0.923 0.068 130 122 118
-4207.7026 2949.9390 1763.2919 0.379 -0.923 0.068 54 51 52
-4196.5952 2954.0205 1756.8439 0.379 -0.923 0.068 11 38 54
-4189.7861 2960.8982 1752.1455 0.419 -0.907 0.033 96 145 165
-4195.9116 2976.3057 1752.6925 0.932 -0.062 -0.358 135 192 215
-4214.0693 3092.6165 1742.2780 0.680 -0.651 0.338 104 148 170
-4203.6211 3120.7437 1732.0742 0.587 -0.698 0.410 73 117 139
-3150.8262 2611.5537 1273.5955 0.948 0.150 -0.279 141 80 62
-3228.4780 2690.2705 1300.3984 0.990 -0.136 -0.028 141 68 39
-3242.6487 2711.0044 1304.2045 0.866 -0.457 0.204 139 67 38
-3259.3704 2733.8286 1308.9756 0.725 -0.682 0.095 138 67 37
-3216.0374 2729.8298 1287.2148 -0.283 -0.870 0.404 124 70 32
-2970.1353 2611.1882 1180.0781 0.794 -0.495 -0.352 43 40 38
-2931.8997 2589.5413 1163.9645 0.288 -0.883 0.370 51 47 45
-2907.7400 2588.3857 1151.6492 0.535 -0.845 -0.011 62 61 65
-2874.3181 2691.8528 1116.7100 0.653 -0.742 0.152 170 154 161
-2866.2078 2732.8059 1105.5315 0.930 -0.007 0.368 135 166 166
-2962.6250 2929.3740 1121.9720 0.781 -0.597 -0.186 184 144 128
-2962.3586 2939.4814 1120.1119 0.872 -0.486 -0.059 169 133 122
-2985.2024 2970.9731 1126.5767 0.948 0.003 -0.318 121 95 91
-2908.4971 3089.3096 1066.6874 -0.004 -0.893 0.450 26 27 22
-2867.8796 3102.9375 1043.3296 0.195 -0.519 -0.832 33 32 31
-2863.9189 3109.7957 1040.1097 0.669 -0.688 -0.281 51 42 44
-2850.4158 3128.7478 1029.8872 0.693 -0.543 -0.474 84 89 75
-2845.3936 3134.5342 1026.3003 0.691 -0.539 -0.482 78 76 56
-2821.1956 3120.5671 1016.1481 0.545 -0.801 0.247 115 98 76
-2824.9170 3361.4648 977.0280 0.211 -0.487 0.847 198 107 55
-2771.5293 3371.5957 947.6525 0.850 -0.260 0.459 184 106 73
-2752.1360 3384.6055 935.3920 0.939 -0.075 0.335 192 126 94
-2753.8435 3398.3542 933.9335 0.867 -0.208 0.453 213 152 118
-2799.9583 3487.8167 942.5726 0.833 0.526 -0.172 242 192 162
-2916.0862 3661.5374 973.1143 0.737 0.618 -0.274 225 196 193
-3230.0125 4176.0723 1048.0232 -0.412 -0.843 -0.346 205 156 145
-2332.4431 3140.5769 759.6144 0.576 -0.814 -0.073 216 178 165
-2330.0435 3148.4050 757.0377 0.561 -0.821 -0.105 219 181 168
-2327.3340 3155.8596 754.3643 0.560 -0.821 -0.112 216 178 165
-2371.3105 3256.0134 760.0742 0.585 -0.754 -0.299 179 141 128
-3073.6707 5191.9556 793.9549 0.116 -0.123 -0.986 178 136 124
-3042.7136 5160.3950 783.3000 0.173 -0.117 -0.978 166 128 117
-3035.0256 5166.4126 778.2930 0.190 -0.101 -0.977 158 120 109
-3039.7097 5211.2964 773.0710 0.210 -0.094 -0.973 157 119 108
-3047.3899 5242.6851 771.7001 0.003 -0.262 -0.965 163 125 114
-3007.8088 5505.2383 706.4639 -0.224 -0.642 -0.733 72 48 38
-2888.8582 5393.6353 663.8760 0.591 -0.668 0.453 21 19 14
-2890.9395 5417.0405 660.9658 0.605 -0.637 0.477 21 19 14
-2842.6646 5757.5767 577.9395 0.641 -0.279 -0.715 22 13 6
-2908.5149 5995.9307 571.4293 0.889 0.324 -0.324 89 75 69
-2915.8464 6032.8960 568.9278 0.927 0.288 -0.242 101 82 75
-3015.2573 6253.9346 582.7491 0.950 0.275 -0.151 107 79 72
-2878.1592 6547.4805 461.7281 -0.272 -0.934 0.231 68 51 38
-2945.2153 6720.1929 467.0275 -0.382 -0.908 -0.170 67 51 40
-1881.1362 5519.9858 120.4491 0.769 -0.416 0.485 30 20 18
-2052.8994 6076.1748 114.6344 0.126 -0.970 -0.206 56 51 51
-2060.5371 6148.7041 106.2314 0.070 -0.948 0.311 119 115 114
-1924.1699 5855.0703 85.6401 0.454 -0.723 0.521 192 183 186
-1807.5131 5655.8848 59.1635 0.944 -0.139 0.301 213 200 209
-1797.1407 5696.7061 46.8360 -0.102 -0.994 -0.028 215 200 210
-1729.0626 5632.6812 22.4879 0.856 -0.342 -0.388 198 184 194
-1740.3125 5716.5776 14.0188 0.781 0.148 -0.607 197 185 194
-4643.2974 3118.0127 1947.3334 0.152 -0.955 0.256 146 125 113
-4755.0479 3200.5574 1990.8163 -0.367 -0.799 -0.475 146 125 114
-4742.3574 3205.0535 1983.4949 -0.327 -0.810 -0.487 151 127 113
-4233.8438 2939.8091 1766.6630 0.406 -0.912 -0.049 151 146 146
-4224.9019 2945.3518 1761.0962 0.481 -0.877 -0.004 99 98 102
-4239.1694 2965.9812 1764.9138 0.434 -0.901 -0.018 19 25 33
-4203.6025 2954.1560 1748.5920 0.427 -0.904 0.009 57 87 112
-4193.4878 2958.8706 1742.5624 0.427 -0.904 0.009 148 194 231
-4178.3081 2960.2253 1734.4963 0.407 -0.913 -0.039 130 181 219
-4132.6748 2986.5867 1706.4177 0.043 -0.999 0.026 116 187 217
-4191.5098 3072.5046 1722.0144 0.390 -0.733 -0.558 117 178 216
-3288.0791 2566.8462 1342.7039 0.946 -0.088 -0.312 91 51 34
-3286.9531 2594.5647 1337.3596 0.518 -0.612 -0.597 98 54 31
-3282.9612 2601.2192 1334.1561 0.351 -0.797 -0.492 91 46 24
-3167.6128 2639.4617 1268.0604 0.802 -0.527 0.281 137 74 46
-3219.5806 2689.0820 1286.3510 0.763 -0.598 0.246 134 72 44
-3227.1174 2704.6946 1287.5574 0.561 -0.653 0.509 135 73 45
-2973.8591 2610.1626 1173.1112 0.794 -0.495 -0.352 42 37 32
-2972.2656 2618.2429 1170.9004 0.610 -0.792 0.009 55 50 45
-2865.2063 2660.8486 1108.3324 0.882 -0.107 -0.458 139 105 98
-2965.7271 2927.5171 1114.3801 0.890 -0.453 -0.041 167 132 113
-2963.6155 2935.9177 1111.8469 0.890 -0.454 -0.035 113 82 66
-2990.3020 2970.8994 1119.6068 0.999 0.041 -0.002 67 55 50
-2997.9419 3030.8745 1113.2430 -0.068 -0.514 -0.855 15 13 12
-2854.7976 3095.4482 1028.2789 0.217 -0.871 -0.441 80 83 68
-2847.4229 3098.8018 1023.8970 0.216 -0.877 -0.428 140 140 124
-2825.6565 3109.1077 1010.8937 0.441 -0.756 -0.483 127 100 75
-2817.8806 3111.9690 1006.3894 0.561 -0.797 0.224 139 95 68
-2746.8860 3291.7632 938.8575 0.208 -0.927 -0.312 199 103 53
-2754.5337 3393.2554 925.3635 0.836 -0.240 0.493 197 110 64
-2757.9141 3408.9661 924.4081 0.871 -0.217 0.440 207 121 75
-2322.8018 3243.6318 728.2853 -0.224 -0.673 -0.705 139 99 87
-2288.3069 3220.8701 714.3961 -0.165 -0.854 -0.494 142 102 90
-3096.0891 5217.5820 788.1240 0.116 -0.123 -0.986 179 139 129
-3094.4656 5233.6733 784.5210 0.110 -0.133 -0.985 158 120 109
-3160.8823 5637.5918 749.3847 -0.107 -0.874 0.475 147 113 103
-3148.2715 5636.3687 743.0872 -0.104 -0.858 0.503 136 105 93
-3147.5913 5655.6431 739.4241 -0.080 -0.831 0.551 130 99 88
-3023.2056 5601.3716 684.5625 -0.279 -0.616 -0.737 23 25 16
-2866.3242 5769.2642 574.7550 0.527 -0.507 -0.682 14 10 2
-2851.4819 5761.8608 568.3681 0.641 -0.279 -0.715 22 15 6
-3006.0435 6221.4243 569.1555 0.973 0.215 -0.083 121 83 75
-2518.7922 5532.6118 436.0823 0.237 -0.828 0.508 118 81 66
-3009.7056 6716.2637 486.0114 -0.250 -0.499 -0.829 93 65 50
-3039.5481 6806.4048 485.9213 -0.311 -0.619 -0.721 95 65 50
-3000.6326 6773.7910 471.4439 -0.011 -0.195 -0.981 88 61 45
-2764.5808 6355.9194 421.4401 -0.121 -0.911 -0.395 76 52 39
-2908.1743 6990.2788 386.5304 0.242 0.080 -0.967 43 28 20
-2814.7520 6799.8149 371.0506 0.881 -0.367 0.298 42 27 20
-2056.5549 6044.6416 109.5629 0.262 -0.886 -0.384 68 58 56
-1807.6677 5687.9644 42.4197 0.988 -0.061 0.141 212 186 200
-1766.2860 5780.9722 5.0827 0.955 0.260 0.144 198 179 191
-1623.5337 5521.9653 -24.0747 0.709 -0.452 0.541 198 187 195
-5113.9004 3109.5000 2177.8875 -0.467 -0.501 -0.729 125 116 111
-4695.5825 2977.2192 1985.7201 -0.403 -0.756 -0.516 155 149 138
-4723.4722 3065.6799 1984.7312 -0.298 -0.434 -0.850 139 129 118
-4730.6016 3130.9856 1977.0806 -0.349 -0.547 -0.761 144 120 107
-4265.4248 2955.7490 1768.2631 0.433 -0.902 -0.002 136 132 134
-4255.3223 2960.6135 1762.2255 0.433 -0.902 -0.002 79 79 84
-4243.2769 2964.1936 1755.4117 0.434 -0.901 -0.018 24 31 40
-4233.3213 2969.1040 1749.4419 0.434 -0.901 -0.018 79 109 135
-4199.1172 2958.1089 1733.7603 0.436 -0.900 0.016 147 192 231
-4182.0947 2958.2622 1724.9811 0.382 -0.924 -0.034 130 181 221
-4162.8169 2990.9033 1709.4125 0.021 -1.000 0.011 114 188 217
-4175.1689 3079.9397 1700.3347 0.408 -0.836 0.367 107 172 212
-4127.4673 3058.6665 1679.4940 0.072 -0.816 0.574 102 165 206
-4108.8970 3057.3596 1670.1720 -0.002 -0.778 0.628 99 159 198
-3228.4822 2691.8079 1280.8275 0.863 -0.436 0.255 133 73 45
-2981.1584 2612.0183 1167.4857 0.776 -0.486 -0.402 44 37 31
-2974.9084 2616.3389 1163.5233 0.373 -0.927 -0.047 57 50 44
-2859.3904 2642.3411 1099.6206 0.850 -0.048 -0.525 139 102 93
-2871.8196 2662.3318 1102.5472 0.373 -0.480 -0.794 123 86 77
-2876.7632 2676.0190 1102.7173 0.970 -0.070 -0.234 123 86 77
-2877.1155 2685.8193 1101.2002 0.942 -0.193 -0.276 123 86 77
-2844.7056 2705.3416 1081.1528 0.935 0.035 0.353 210 180 166
-2857.1001 2725.8145 1083.9780 0.726 0.561 -0.398 189 157 142
-2986.3286 2910.6812 1118.3894 0.173 -0.982 -0.076 217 181 159
-2966.8638 2913.5776 1107.8792 0.211 -0.975 -0.068 185 150 130
-2967.7234 2924.6536 1106.4019 0.881 -0.470 -0.046 121 88 69
-2965.4656 2932.9080 1103.8104 0.890 -0.454 -0.035 73 43 27
-3000.4187 2975.4434 1114.4119 0.999 0.043 -0.030 58 46 40
-2993.0784 3021.4121 1102.6716 0.370 -0.865 0.340 17 12 10
-2736.4321 2889.4590 993.5757 0.176 -0.866 -0.468 15 15 9
-2888.3916 3113.2915 1032.9225 0.203 -0.666 -0.718 58 57 48
-2862.3708 3097.9670 1022.1987 0.246 -0.871 -0.426 93 87 73
-2855.5811 3101.9292 1018.0209 0.246 -0.871 -0.426 140 129 113
-2836.6484 3126.0635 1004.1040 0.602 -0.791 0.111 148 91 66
-2718.4329 3276.9690 917.1700 0.181 -0.899 -0.400 200 103 52
-2713.0769 3305.1233 909.5375 0.466 -0.486 -0.739 198 103 57
-2738.2798 3368.6702 911.4842 0.718 -0.310 0.624 189 97 50
-2740.8311 3395.0703 908.2213 0.855 -0.216 0.471 205 113 68
-3194.7549 4046.7188 1028.6963 -0.134 -0.926 -0.352 143 73 55
-3103.8096 3979.1948 993.6353 -0.503 -0.864 -0.029 172 116 99
-2323.1047 3096.4089 745.1898 -0.164 -0.946 0.281 198 161 151
-2306.7778 3097.4114 736.6212 0.398 -0.893 -0.212 220 182 169
-2301.8828 3101.9519 733.3174 0.387 -0.896 -0.216 235 197 184
-2286.4414 3168.6348 713.8224 0.309 -0.582 -0.752 131 91 79
-2267.4023 3154.9202 706.4096 0.300 -0.875 -0.381 135 95 83
-3243.1970 5385.5571 821.5999 0.088 -0.861 -0.500 190 150 140
-3188.9102 5318.1660 805.3648 0.292 -0.919 0.267 189 149 139
-3129.2515 5279.2417 781.4347 0.051 -0.647 -0.760 152 114 103
-3121.6091 5285.7930 776.3699 0.051 -0.647 -0.760 135 97 86
-3114.9927 5293.9995 771.5457 0.052 -0.650 -0.758 150 112 101
-3099.4714 5287.6641 764.6630 0.043 -0.672 -0.739 174 136 125
-3069.8730 5530.0415 707.4431 0.011 -0.962 0.271 134 104 93
-3101.8228 5749.7524 685.7977 -0.064 -0.446 -0.893 25 23 16
-3182.3196 5936.1406 694.8886 -0.089 -0.996 -0.030 19 19 11
-3180.7568 5955.0303 690.8117 -0.133 -0.991 -0.019 20 19 11
-3180.8296 5976.9502 687.0508 -0.219 -0.971 -0.092 21 18 13
-2811.8706 5693.4214 546.4722 0.894 0.243 -0.377 31 19 11
-2859.9717 5829.8491 547.5634 0.802 0.247 -0.544 73 48 44
-2473.4238 5465.5410 411.9391 0.146 -0.851 0.505 107 75 60
-3069.4072 6880.8516 473.1248 0.055 -0.117 -0.992 102 70 55
-3106.8979 6988.6279 473.7253 0.074 -0.087 -0.993 95 67 53
-3045.4944 6881.4126 460.7320 -0.397 -0.662 -0.636 91 64 49
-2971.5186 7119.7134 381.4007 0.245 0.083 -0.966 51 34 26
-2531.0037 6195.1157 315.1190 0.629 -0.685 0.368 44 30 21
-2482.9937 6105.8564 305.9009 0.288 -0.663 0.691 44 30 21
-1866.5956 5339.3364 121.7909 -0.023 -0.936 -0.352 34 20 17
-1878.8860 5394.7451 118.5087 0.076 -0.914 -0.397 41 27 24
-1876.2001 5409.3638 114.5945 0.154 -0.950 -0.273 46 31 28
-1899.6764 5496.3252 111.5961 0.028 -0.993 -0.114 57 42 39
-2281.5020 6632.6279 111.0152 0.942 0.307 0.138 88 77 73
-1752.7362 5438.0142 46.1473 0.962 0.253 0.101 205 178 193
-1802.1896 5655.2363 33.9332 0.935 0.038 0.352 207 179 194
-1605.7723 5152.5698 20.0457 0.939 0.259 0.226 190 163 180
-1721.0652 5622.9141 -2.1781 0.953 0.255 0.161 188 169 181
-3482.0364 2240.3008 1479.9873 0.313 -0.042 -0.949 104 108 105
-4263.4429 2927.3862 1760.2632 0.905 -0.400 -0.147 146 129 121
-4268.6245 2953.3767 1758.3766 0.344 -0.867 -0.361 118 114 115
-4258.8369 2958.4431 1752.4768 0.340 -0.871 -0.354 54 54 59
-4223.3906 2946.8457 1736.3433 0.327 -0.878 -0.349 33 39 50
-4214.4712 2952.3677 1730.8087 0.327 -0.878 -0.349 111 139 166
-4207.2817 2959.0049 1725.9659 0.329 -0.874 -0.357 145 190 229
-4186.1924 2956.5068 1715.5978 0.285 -0.912 -0.295 130 181 221
-3787.1208 2861.9448 1527.6676 -0.336 -0.817 0.470 101 129 141
-3171.2668 2615.1360 1255.2775 0.897 -0.277 0.344 143 82 54
-3216.7688 2668.9885 1269.1793 0.877 -0.412 0.247 135 74 46
-3207.8467 2710.8721 1257.2899 -0.292 -0.906 0.306 127 67 39
-3025.6382 2624.8630 1178.9691 -0.371 -0.891 0.262 44 36 34
-2985.7134 2611.6582 1160.8219 0.785 -0.494 -0.373 45 35 33
-2983.5364 2619.2710 1158.3765 0.390 -0.919 -0.059 58 48 46
-2872.6279 2649.4551 1096.2815 0.803 -0.092 -0.589 128 90 79
-2879.7664 2664.9436 1097.2323 0.373 -0.480 -0.794 119 81 70
-2841.0483 2669.4551 1076.6079 0.104 -0.932 0.346 127 93 81
-2826.5588 2666.3188 1069.7327 0.665 -0.702 -0.256 146 112 100
-2981.1223 2911.5974 1106.0608 0.216 -0.973 -0.081 231 196 176
-2970.7578 2912.4624 1100.5997 0.219 -0.970 -0.107 146 113 94
-2963.7317 2916.3340 1096.3236 0.233 -0.969 -0.086 71 38 21
-2967.4282 2930.0090 1095.8280 0.829 -0.556 -0.058 46 16 1
-3000.4756 2970.7217 1105.6450 0.999 0.043 -0.030 47 32 23
-3002.1387 2982.7385 1104.3975 0.873 -0.348 0.342 40 27 22
-2891.5498 3111.3259 1025.2720 0.223 -0.669 -0.709 87 76 66
-2886.3213 3116.9446 1021.6115 0.223 -0.669 -0.709 116 92 82
-2880.0000 3121.4568 1017.5845 0.226 -0.679 -0.698 141 111 99
-2874.7053 3126.9976 1013.9038 0.226 -0.679 -0.698 150 112 99
-2869.4131 3132.5361 1010.2246 0.226 -0.679 -0.698 139 93 76
-2862.8867 3136.8115 1006.1342 0.227 -0.675 -0.702 148 90 70
-2735.7395 3418.6411 891.7491 0.779 0.576 -0.249 182 104 79
-3194.2788 4053.1174 1015.8054 -0.118 -0.949 -0.293 154 87 60
-3171.1570 4039.4424 1006.3491 -0.244 -0.967 -0.068 153 89 65
-2322.4529 3090.1382 737.4132 -0.045 -0.951 0.305 187 149 139
-2311.1624 3086.7656 732.2181 -0.029 -0.871 0.490 149 111 100
-2358.5112 3233.3596 730.8613 0.756 0.454 -0.472 127 87 75
-2312.7004 3229.9521 707.9868 -0.290 -0.876 -0.386 129 89 77
-3226.4189 5348.0850 805.9993 0.348 -0.892 -0.290 190 150 140
-3191.7498 5330.9990 791.2228 0.468 -0.524 0.712 191 151 141
-3139.0000 5284.2676 772.3635 0.044 -0.668 -0.743 146 108 97
-3131.1250 5290.4692 767.2453 0.044 -0.668 -0.743 124 86 75
-3120.5566 5292.2817 761.5143 0.046 -0.682 -0.730 158 120 109
-3109.7437 5293.6465 755.7360 0.051 -0.671 -0.739 187 149 138
-3095.5796 5289.4785 749.2078 0.043 -0.669 -0.742 188 150 139
-3076.4941 5470.3135 707.8322 -0.398 -0.835 -0.379 169 133 123
-3051.5322 5587.0557 674.6450 -0.284 -0.611 -0.739 34 20 12
-3252.2749 6182.7285 673.4068 -0.384 -0.901 -0.201 19 15 12
-2869.9836 5793.3843 545.5815 0.229 -0.658 -0.717 31 20 12
-2874.0681 5822.7827 542.5373 0.301 -0.733 -0.610 45 26 20
-2550.3794 6177.1606 314.7831 0.629 -0.685 0.368 55 41 32
-2410.0242 5941.8271 283.9964 0.047 -0.784 0.619 44 30 19
-2297.2898 5786.6938 253.3468 -0.297 -0.477 -0.828 38 28 18
-1903.6898 5403.9521 118.5742 0.158 -0.960 -0.233 33 22 18
-1896.4287 5406.1406 114.4717 0.158 -0.960 -0.233 34 20 17
-1997.6882 5751.4370 106.0149 -0.264 -0.436 -0.860 78 63 60
-1934.7362 5600.8208 100.0806 0.973 -0.214 -0.086 100 86 83
-2116.8469 6257.3701 78.6597 -0.016 -0.975 0.220 189 167 173
-1782.4396 5441.7197 49.8557 0.987 0.151 -0.052 186 158 172
-1777.9429 5451.2749 45.8824 0.998 0.066 -0.017 194 164 179
-1803.1672 5548.1572 41.8770 0.955 0.235 -0.181 198 171 186
-1750.1327 5437.6465 34.0160 0.969 0.234 0.076 200 173 188
-1792.7965 5610.9946 25.5841 0.953 0.144 0.267 200 173 188
-1731.6050 5474.0005 18.1716 0.805 -0.323 0.498 196 169 186
-1727.5970 5485.0273 14.1915 0.818 -0.292 0.495 188 163 182
-1687.5875 5502.3262 -9.3289 0.953 0.253 0.165 191 172 186
-1619.4546 5313.1089 -11.1725 0.924 0.263 0.279 194 180 190
-1617.8389 5566.6230 -56.2974 0.906 0.125 0.404 247 236 244
-5202.5864 3137.7278 2190.7312 -0.427 -0.585 -0.689 116 105 99
-4778.0933 3004.9326 1997.4359 0.987 0.154 -0.036 78 84 86
-4732.9536 3135.3262 1951.4215 -0.327 -0.927 -0.182 139 127 119
-4268.1968 2926.0374 1751.0491 0.903 -0.409 -0.131 147 130 122
-4276.2896 2953.8767 1750.2755 0.165 -0.926 -0.339 104 100 102
-4263.5181 2957.0288 1743.2008 0.157 -0.926 -0.345 36 37 42
-4252.4922 2961.2747 1736.8243 0.157 -0.926 -0.345 40 47 59
-4242.7349 2966.3184 1730.9550 0.213 -0.929 -0.304 130 158 187
-4234.5674 2972.3794 1725.7180 0.205 -0.938 -0.279 145 190 229
-4193.4941 2956.8545 1707.4865 0.285 -0.912 -0.295 132 182 222
-4389.6797 3229.9004 1759.5293 -0.398 -0.894 0.205 112 177 219
-4209.6504 3129.5171 1685.3151 -0.343 -0.809 0.477 113 164 190
-3308.4460 2588.8149 1320.5364 0.513 -0.600 -0.614 96 48 26
-3309.2571 2598.9441 1319.1659 0.599 -0.647 -0.472 105 57 35
-2990.3335 2602.0115 1155.8251 0.317 -0.920 -0.228 36 28 25
-2794.8113 2606.8757 1055.1602 0.738 -0.653 0.169 128 90 79
-2831.9856 2695.2102 1058.5741 0.702 0.563 -0.435 156 123 108
-3005.7749 2908.6418 1109.6869 0.739 -0.666 0.101 216 181 161
-2981.8086 2907.5769 1097.6405 0.245 -0.970 0.004 214 181 162
-2972.6516 2909.5339 1092.6215 0.171 -0.974 -0.148 114 81 62
-2966.1558 2913.8838 1088.5391 0.128 -0.979 -0.157 46 13 1
-2957.6946 2916.4246 1083.7723 0.148 -0.979 -0.143 47 18 3
-3003.2307 2968.4897 1097.8446 0.949 0.030 -0.314 41 22 11
-2985.7163 2973.2671 1088.0624 0.483 -0.664 0.571 27 10 4
-2977.4358 3039.4263 1072.1799 0.465 -0.739 0.487 21 11 6
-2917.4382 3056.4436 1038.5549 0.677 -0.724 0.136 29 10 1
-2901.4353 3116.0928 1019.8773 0.053 -0.584 -0.810 111 88 77
-2896.1541 3121.6802 1016.1971 0.053 -0.584 -0.810 134 93 87
-2885.4153 3121.7646 1010.7004 0.035 -0.746 -0.665 144 98 91
-2878.6282 3125.8005 1006.5247 0.035 -0.746 -0.665 147 94 85
-2871.8511 3129.8313 1002.3551 0.035 -0.746 -0.665 144 84 70
-2867.7056 3136.5281 999.0591 0.201 -0.705 -0.680 156 86 70
-2835.9717 3136.7632 982.8186 1.000 0.012 -0.024 167 83 55
-2851.4802 3163.7300 985.9843 0.971 0.016 -0.238 178 90 48
-2854.2126 3177.5903 984.9373 0.973 0.012 -0.232 181 90 46
-2847.4019 3181.5657 980.7603 0.989 -0.012 -0.150 182 89 45
-2690.0769 3301.7644 879.2749 0.736 -0.272 0.620 207 112 64
-2712.1309 3350.1597 882.0068 0.676 -0.411 0.612 203 108 60
-2267.9753 3069.6602 704.6961 0.470 -0.554 -0.687 150 112 99
-2351.0405 3218.0464 720.9565 0.706 0.437 -0.557 117 77 65
-2243.6479 3112.9722 684.6473 0.268 -0.903 -0.337 122 82 70
-2235.3843 3112.9878 680.4263 0.016 -0.914 -0.405 122 82 70
-3167.9622 5301.1899 770.9730 0.612 -0.608 0.506 186 146 136
-3156.0552 5301.0181 764.9251 0.269 -0.938 0.219 139 101 90
-3145.3604 5302.7388 759.1626 0.269 -0.938 0.219 121 83 72
-3132.3940 5300.7300 752.8976 0.257 -0.947 0.191 164 126 115
-3118.6580 5297.3916 746.4738 0.281 -0.937 0.207 192 154 143
-3114.9934 5310.4043 742.3107 0.343 -0.580 -0.739 193 155 144
-3051.4043 5396.8257 694.6252 -0.349 -0.700 -0.623 182 143 134
-3154.6091 5632.2812 705.8268 0.046 -0.779 0.625 165 132 122
-3124.8262 5601.4458 696.0560 -0.271 -0.764 -0.586 160 128 117
-3053.1594 5659.6357 649.2208 0.405 -0.828 0.389 33 21 17
-3080.9983 5771.7852 643.6739 0.004 -0.998 0.056 28 16 14
-3049.3630 5735.7246 633.8779 0.252 -0.870 -0.424 25 16 14
-3000.5984 5751.6216 606.1844 0.060 -0.987 0.149 23 15 13
-3095.2969 5991.3525 612.2906 0.589 0.221 -0.777 18 13 10
-2973.4548 5936.5874 559.7422 -0.123 -0.729 -0.673 15 12 3
-2885.6433 5832.3042 533.2892 0.293 -0.749 -0.594 46 29 22
-2880.6494 5844.1689 528.6497 0.294 -0.738 -0.607 86 60 59
-2910.9810 6482.4238 431.6890 0.220 -0.419 -0.881 112 80 65
-2957.3962 6607.0527 433.4262 -0.010 -0.709 -0.705 111 80 64
-2551.6135 6212.7847 295.7467 0.663 -0.702 0.258 48 34 25
-2314.6570 5702.0820 264.7606 -0.057 -0.870 0.490 47 34 25
-2287.4268 5703.8618 250.5468 -0.092 -0.625 -0.775 39 29 19
-2419.2161 6042.1240 258.2280 -0.359 -0.845 -0.397 39 29 19
-2042.0066 5786.5552 110.6991 -0.290 -0.403 -0.868 31 17 14
-2032.3019 5783.6655 106.2542 -0.273 -0.473 -0.838 41 27 24
-2023.6132 5807.0737 97.6950 -0.215 -0.472 -0.855 108 93 90
-2016.6755 5811.6768 93.3427 -0.217 -0.479 -0.851 129 115 112
-1729.0736 5206.5122 53.1453 0.930 0.245 -0.273 208 182 186
-1772.6069 5397.9307 41.6446 0.987 0.137 -0.081 188 162 175
-1776.8527 5432.7881 37.6710 0.998 0.066 -0.017 187 159 174
-1779.8795 5464.3179 33.6614 0.997 0.066 -0.046 190 162 177
-1783.5946 5567.5791 17.3659 1.000 -0.019 -0.021 190 162 177
-1769.4777 5548.7720 13.4729 0.276 -0.877 -0.394 185 156 174
-1745.0364 5498.7021 9.8174 0.108 -0.942 -0.319 182 155 172
-1566.9844 5134.1738 -16.8520 0.923 0.262 0.281 220 205 216
-5266.3374 3168.9409 2203.7100 -0.427 -0.585 -0.689 97 88 79
-4766.8677 2934.7065 1991.2742 -0.463 -0.574 -0.675 87 102 107
-4820.1904 2977.1394 2010.8583 0.863 0.111 -0.493 89 101 108
-4783.9639 3015.8833 1985.5513 0.054 -0.973 -0.224 50 69 81
-4791.5112 3142.0640 1966.9785 0.280 -0.764 0.582 105 111 120
-4797.3325 3158.0012 1967.1086 0.288 -0.607 0.741 122 122 126
-4772.3594 3154.9783 1954.9437 0.288 -0.607 0.741 134 126 123
-4701.5864 3147.9304 1920.1992 0.147 -0.641 0.753 159 133 117
-4268.9961 2922.1746 1740.2736 0.905 -0.400 -0.147 150 133 125
-4278.5483 2950.9053 1740.0289 0.592 -0.761 -0.265 85 81 82
-4271.6992 2957.8696 1735.3085 0.592 -0.761 -0.265 26 27 33
-4264.8535 2964.8311 1730.5902 0.592 -0.761 -0.265 70 78 89
-4256.3315 2970.6992 1725.2134 0.591 -0.767 -0.248 141 170 198
-4246.5869 2975.7563 1719.3589 0.226 -0.941 -0.253 142 187 226
-4227.3394 2974.5728 1709.7797 0.222 -0.926 -0.304 139 190 230
-4192.5059 3112.8889 1667.4956 -0.337 -0.807 0.484 122 169 197
-3909.8550 2928.0271 1556.5684 -0.337 -0.807 0.485 140 178 199
-3333.3398 2583.6860 1324.5024 0.435 -0.228 -0.871 85 38 22
-2999.1211 2605.0332 1150.7213 0.301 -0.915 -0.268 33 28 24
-2829.8289 2605.0042 1064.6215 0.370 -0.695 0.617 124 86 75
-2863.9033 2728.5171 1060.0146 0.587 0.464 -0.664 188 156 141
-2989.3987 2930.3677 1087.9922 0.397 -0.906 0.147 50 17 2
-2977.8616 2930.1724 1082.1589 0.319 -0.945 0.066 54 23 7
-3008.6350 2968.6897 1090.9697 0.953 0.024 -0.301 45 23 9
-2985.2217 2968.0422 1079.1761 0.535 -0.638 0.554 33 12 3
-2979.7434 2973.4165 1075.4353 0.602 -0.592 0.535 28 7 0
-3007.2302 3009.4419 1083.0170 0.613 -0.612 0.500 27 7 0
-2985.7175 3042.3579 1066.2288 0.390 -0.783 0.485 32 13 5
-3005.0798 3071.4597 1070.9080 0.371 -0.724 0.582 32 13 5
-2888.3748 3023.1926 1020.1227 0.610 -0.787 0.093 46 16 3
-2880.9651 3026.5317 1015.7608 0.626 -0.772 0.110 57 24 11
-2886.1721 3095.7314 1006.1183 0.582 -0.794 -0.175 119 83 73
-2898.5752 3118.9690 1008.2995 -0.048 -0.857 -0.513 137 88 84
-2907.7231 3139.0601 1009.3839 0.001 -0.912 -0.410 141 87 82
-2904.1985 3146.4607 1006.2767 -0.010 -0.910 -0.415 144 86 77
-2851.1885 3147.2102 979.1817 0.538 -0.338 0.772 159 83 52
-2556.4680 3164.8806 826.1430 0.812 -0.406 0.418 195 103 54
-2571.4668 3193.1633 828.7483 0.928 0.192 -0.319 195 103 55
-2313.8438 3079.2061 717.9570 -0.017 -0.941 0.337 127 89 76
-2273.9241 3071.6870 698.9886 0.470 -0.554 -0.687 99 61 48
-2338.6648 3196.5444 709.7405 0.766 0.451 -0.458 90 50 38
-3198.6626 5301.6318 773.2568 0.536 -0.419 0.733 198 158 148
-3172.7727 5298.2056 760.6973 0.445 -0.563 0.697 195 155 145
-3163.2493 5301.8696 755.2028 0.361 -0.635 0.683 127 89 78
-3151.6064 5302.0845 749.2429 0.361 -0.635 0.683 129 91 80
-3132.2107 5308.6431 738.2129 0.786 -0.480 0.389 186 148 137
-3114.6709 5299.0933 730.9880 0.788 -0.511 0.345 196 158 147
-3110.5884 5311.4092 726.7241 0.456 -0.836 0.306 196 158 147
-2989.9114 5319.8267 663.8505 0.388 -0.691 0.610 174 143 132
-3110.6702 5565.4731 681.6403 -0.137 -0.828 -0.544 175 143 132
-3031.7002 5569.0356 640.8420 0.631 -0.472 0.616 88 71 69
-3022.9666 5573.8057 635.5527 0.631 -0.472 0.616 83 66 64
-3074.3843 5705.9751 638.2294 0.327 -0.774 0.543 59 40 38
-3056.4282 5694.6323 631.1114 0.354 -0.767 0.535 52 34 32
-3037.9692 5682.2349 623.9247 0.799 -0.347 0.490 44 31 30
-3039.9763 5706.5522 620.6265 0.797 -0.346 0.495 38 27 25
-3005.1477 5768.5913 591.8930 0.317 -0.942 -0.110 19 13 13
-3013.9819 5848.7114 582.1558 0.746 0.345 -0.570 15 11 10
-2896.4236 5840.2393 523.8683 0.618 -0.571 -0.540 56 39 32
-2958.1672 7091.4370 333.0414 0.317 -0.764 0.562 63 50 42
-2624.7710 6417.9043 283.0992 0.752 -0.591 0.293 54 41 33
-2319.5701 5743.9175 247.5784 0.527 0.120 -0.841 44 34 25
-2472.3750 6154.1899 252.4273 -0.267 -0.870 -0.414 45 35 25
-2064.2468 5737.7490 118.8120 0.846 -0.532 -0.035 43 32 26
-2152.6755 6021.4336 113.4019 0.891 0.240 -0.384 43 32 26
-2127.1016 5976.9614 108.2934 0.896 0.082 -0.437 48 34 31
-2064.3047 5855.0488 98.0072 -0.299 -0.428 -0.853 45 31 28
-1763.8457 5357.4927 33.5617 0.962 0.163 -0.220 191 162 176
-1761.6788 5373.4517 29.6250 0.421 -0.213 -0.882 183 155 170
-1782.3579 5524.9043 13.2426 0.966 0.215 -0.141 180 149 165
-1555.6064 5105.5654 -27.6066 0.923 0.262 0.281 238 225 235
-5073.1558 3031.0535 2116.4556 -0.265 -0.463 -0.846 89 77 71
-5166.8096 3095.7527 2152.3318 -0.260 -0.492 -0.831 88 76 69
-4795.4009 2946.6765 1990.8057 -0.373 -0.462 -0.804 66 88 97
-4775.9712 3006.7214 1970.2080 0.076 -0.964 -0.253 41 68 87
-4956.7300 3137.5876 2038.3792 -0.484 -0.720 -0.498 36 69 93
-4835.1670 3151.6594 1974.2552 -0.174 -0.345 -0.923 62 85 107
-4280.9932 2914.1638 1735.9408 0.908 -0.410 -0.086 154 132 120
-4271.7676 2919.5735 1730.2969 0.905 -0.400 -0.147 150 133 125
-4290.7251 2942.9351 1735.7211 0.592 -0.761 -0.265 138 128 125
-4283.8721 2949.9028 1731.0007 0.592 -0.761 -0.265 60 57 60
-4277.0225 2956.8677 1726.2825 0.592 -0.761 -0.265 18 20 26
-4270.1758 2963.8289 1721.5662 0.592 -0.761 -0.265 106 115 127
-4261.5312 2969.6201 1716.1484 0.591 -0.767 -0.248 153 183 211
-4235.2588 2975.2881 1701.8196 0.222 -0.926 -0.304 138 191 230
-2814.3550 2587.8909 1051.1128 0.284 -0.814 0.507 137 99 88
-2798.2314 2592.5181 1042.1134 0.785 -0.529 -0.321 169 131 120
-2809.6499 2620.6638 1042.8604 0.596 -0.642 0.483 197 159 148
-2877.2764 2735.9585 1056.4877 0.553 0.449 -0.702 178 146 131
-2971.2717 2950.4348 1065.7191 0.593 -0.679 0.434 37 11 0
-2998.0073 2996.0454 1071.1012 0.311 -0.917 -0.249 46 21 6
-2991.3821 3053.4836 1057.4592 0.396 -0.699 0.595 55 31 17
-2982.5046 3055.7393 1052.5565 0.616 -0.142 -0.775 55 31 17
-2977.4031 3061.5776 1048.9258 0.692 0.115 -0.712 46 22 8
-2895.2063 3024.9092 1013.8367 0.625 -0.778 0.062 63 23 7
-2908.0081 3047.9612 1016.1967 0.327 -0.945 -0.012 75 31 16
-2875.1409 3144.6404 982.2300 0.439 -0.470 0.766 130 74 46
-2297.5544 3214.9714 676.9336 -0.098 -0.863 -0.496 102 63 48
-2288.4473 3214.1262 672.4698 -0.115 -0.858 -0.500 110 71 56
-2253.5640 3212.3291 655.1137 -0.146 -0.834 -0.532 209 170 155
-3181.8359 5283.1494 754.7484 0.531 -0.424 0.734 199 159 149
-3171.1702 5284.9976 749.0123 0.445 -0.563 0.697 184 144 134
-3163.0469 5290.8687 743.8445 0.461 -0.550 0.696 127 89 78
-3152.3479 5292.5806 738.1160 0.461 -0.550 0.696 128 90 79
-3132.7332 5298.7437 727.0724 0.786 -0.480 0.389 195 157 146
-3119.4104 5296.0522 720.8027 0.802 -0.497 0.333 196 158 147
-3051.4050 5432.8242 661.8502 0.343 -0.678 0.650 181 147 137
-3063.4329 5532.5200 650.0949 0.520 -0.439 0.733 173 139 129
-3058.7429 5544.3760 645.5952 0.517 -0.443 0.732 165 134 126
-3057.3105 5561.9404 641.7244 0.518 -0.435 0.736 147 121 115
-3061.9431 5651.2319 628.0842 0.499 -0.539 0.679 108 84 84
-3050.9878 5652.2822 622.3443 0.494 -0.543 0.679 103 77 78
-3024.8928 5667.2627 606.4379 0.746 -0.428 0.511 63 50 49
-2994.5862 5653.7300 593.5024 0.192 -0.744 0.640 45 40 39
-3022.6843 5809.5605 579.8398 0.750 0.286 -0.597 18 15 13
-3190.1814 6254.8794 584.9869 0.754 0.203 -0.624 25 23 21
-2933.8362 6963.7393 328.1558 0.400 0.095 -0.912 71 56 47
-2982.1682 7157.1577 318.0168 -0.141 -0.987 0.071 69 55 46
-2966.9355 7149.5107 311.6666 -0.077 -0.991 0.109 61 47 38
-2634.5452 6449.9780 268.4743 0.468 0.137 -0.873 59 46 38
-2412.9016 6067.5015 224.6354 0.310 -0.671 0.673 39 26 17
-2312.7393 5848.4292 213.1017 -0.427 -0.711 -0.558 31 21 11
-1936.6827 5405.7686 101.7871 0.545 0.105 -0.831 42 31 25
-2129.2983 5942.8403 103.2348 0.382 -0.784 -0.489 44 33 27
-2146.9341 6014.2695 99.3824 0.471 -0.671 -0.572 57 43 40
-1802.9235 5279.0000 56.7001 0.129 -0.395 -0.910 181 144 152
-1730.4679 5139.4263 44.9729 0.400 -0.847 -0.350 181 140 149
-1709.2878 5142.4976 33.6894 0.360 0.045 -0.932 176 138 149
-1746.8383 5293.4766 25.6858 0.308 -0.001 -0.951 186 154 169
-1757.9980 5347.7759 21.6188 0.245 -0.016 -0.969 189 159 175
-1777.8356 5427.7539 17.3516 0.272 -0.034 -0.962 177 149 164
-1816.8864 5564.5518 12.6473 0.948 0.278 -0.156 172 144 159
-1771.2272 5499.3804 1.1778 0.442 -0.885 -0.150 187 159 174
-1740.5101 5453.8472 -6.2359 0.152 -0.787 -0.597 203 176 193
-1648.3605 5200.2031 -7.5190 -0.442 -0.530 -0.724 210 184 201
-1485.1444 4851.0298 -27.7116 0.925 0.255 0.282 246 230 241
-1377.2004 4613.7866 -39.9353 0.284 -0.941 0.184 249 236 246
-3010.1165 1779.0072 1287.2865 0.835 -0.534 -0.131 125 102 88
-3123.4873 1867.6661 1328.5283 0.918 0.309 -0.247 109 95 86
-5080.8096 3030.8311 2106.8904 -0.257 -0.574 -0.777 74 65 61
-4850.0254 2973.4941 2000.7103 -0.373 -0.462 -0.804 41 69 82
-4824.2173 2970.6453 1988.1932 0.918 0.207 -0.338 44 69 86
-4796.2466 2966.4568 1974.8264 0.990 0.046 0.133 41 65 79
-4775.4253 3001.9451 1957.9078 -0.254 -0.916 -0.312 33 68 91
-4853.0054 3145.4014 1971.1877 -0.172 -0.332 -0.927 28 66 96
-4694.6357 3109.8228 1897.6447 0.180 -0.617 0.766 118 107 103
-4659.6587 3100.2668 1881.7084 0.180 -0.617 0.766 156 135 123
-4277.9854 2907.9229 1723.7081 0.905 -0.400 -0.147 153 131 120
-4274.5356 2916.9758 1720.3324 0.905 -0.400 -0.147 150 133 127
-4294.2866 2940.8101 1726.0034 0.641 -0.705 -0.304 120 110 107
-4288.1885 2948.2566 1721.5803 0.641 -0.705 -0.304 38 36 39
-4282.0913 2955.7021 1717.1577 0.641 -0.705 -0.304 40 42 50
-4276.4243 2963.4243 1712.9027 0.520 -0.767 -0.377 143 152 166
-4266.7295 2968.5408 1707.0840 0.591 -0.767 -0.248 159 190 219
-4259.7871 2975.4255 1702.3359 0.591 -0.767 -0.248 141 189 227
-3551.6470 2651.0020 1403.3335 0.122 -0.746 -0.655 120 181 220
-2808.0793 2569.4946 1042.5992 0.311 -0.897 0.314 135 98 89
-2832.5217 2664.1843 1037.8503 0.576 0.456 -0.679 233 200 185
-3007.8213 2937.7314 1076.9912 0.519 -0.777 -0.355 97 60 41
-3005.0908 2945.6006 1074.1923 0.509 -0.767 -0.392 99 63 44
-2977.7563 3025.0244 1046.0553 0.495 -0.614 0.615 86 58 38
-2988.1782 3045.5137 1047.6196 0.427 -0.665 0.613 86 58 38
-2987.2502 3055.3123 1045.3824 0.633 -0.148 -0.759 86 58 38
-2989.7432 3068.4050 1044.2782 0.728 0.089 -0.680 69 40 20
-2886.8530 3107.8218 985.2121 0.780 -0.068 0.622 110 68 60
-2887.9492 3119.7563 983.6115 0.792 -0.054 0.608 109 69 56
-2874.2754 3127.6753 975.2780 0.563 -0.298 0.770 97 60 35
-2327.7034 3096.0513 705.0082 0.057 -0.967 0.250 52 15 2
-2307.9626 3211.6826 674.1705 0.075 -0.920 -0.385 80 42 29
-2309.8621 3225.2031 672.6893 -0.089 -0.952 -0.294 87 48 33
-2254.6067 3207.8936 647.9138 -0.154 -0.962 -0.227 209 170 155
-3163.1887 5280.4595 732.6047 0.456 -0.555 0.696 145 107 96
-3152.4646 5282.1108 726.8918 0.456 -0.555 0.696 128 90 79
-3141.7688 5283.7573 721.1940 0.456 -0.555 0.696 164 126 115
-3133.2539 5288.8784 715.9704 0.786 -0.480 0.389 194 156 145
-3131.0039 5304.1357 712.0804 0.846 -0.427 0.319 196 158 147
-3033.2820 5508.4526 625.8615 0.508 -0.421 0.751 173 144 139
-3025.2144 5514.2754 620.7370 0.516 -0.433 0.739 169 138 139
-3038.5825 5618.3140 608.7091 0.491 -0.559 0.669 153 120 121
-3010.4797 5608.9644 596.2068 0.487 -0.564 0.666 135 110 110
-3012.3889 5632.7690 592.8745 0.754 -0.424 0.502 110 93 91
-2975.7019 5607.5210 578.9072 0.161 -0.732 0.662 92 84 81
-2901.0530 5573.0176 547.4426 0.995 0.038 0.097 45 38 35
-2929.5542 5646.0547 548.6512 0.764 0.270 -0.586 47 41 37
-2832.9917 5994.9272 436.9270 0.016 0.022 -1.000 127 85 71
-3069.4209 6573.3945 451.8991 -0.173 -0.885 -0.433 124 82 66
-2657.8643 6102.0981 329.1577 0.034 -0.593 -0.804 100 72 58
-3010.3337 7204.7422 308.1137 -0.138 -0.989 0.049 78 62 51
-2651.2290 6473.2578 258.8175 0.525 0.168 -0.835 67 53 43
-2315.9604 5729.1753 223.8304 0.526 -0.308 -0.792 58 46 35
-2500.4438 6312.3003 211.7333 0.879 0.262 -0.399 27 17 8
-2473.9814 6272.5630 205.5439 0.869 -0.494 -0.039 27 16 10
-1977.1112 5390.1108 113.9344 0.141 -0.532 -0.835 39 28 22
-2128.3596 5948.4717 89.5257 0.386 -0.702 -0.598 67 53 50
-2101.5002 5900.2827 84.6614 -0.235 -0.415 -0.879 104 89 86
-2091.1533 5896.2329 80.1679 -0.238 -0.425 -0.873 129 114 111
-2017.2275 5813.2661 57.8154 0.942 0.300 0.151 169 150 148
-1770.0676 5345.6514 17.4175 0.217 -0.022 -0.976 176 148 162
-1784.3497 5409.0674 13.1829 0.216 -0.024 -0.976 191 165 180
-1767.8250 5473.7891 -6.8423 0.402 -0.914 -0.059 214 189 203
-1762.0276 5479.4966 -10.7997 0.398 -0.917 -0.038 222 198 212
-5214.3945 3125.7786 2143.3572 0.006 -0.281 -0.960 53 59 56
-4807.7344 2945.0081 1971.6600 0.732 0.053 -0.680 24 59 77
-5059.0337 3138.1106 2062.9543 -0.489 -0.491 -0.721 28 60 77
-4672.3325 3043.4011 1885.6418 0.787 -0.359 0.501 15 54 82
-4670.9653 3090.5693 1876.3732 0.179 -0.620 0.764 110 101 100
-4321.8247 2919.9246 1731.7709 0.891 -0.358 0.279 156 129 116
-4299.6426 2939.8296 1716.9904 0.641 -0.705 -0.304 93 84 84
-4292.2349 2946.4399 1712.0610 0.608 -0.791 -0.067 28 26 32
-4284.4849 2952.8235 1707.0010 0.608 -0.791 -0.067 71 76 87
-4282.1099 2962.6553 1704.0175 0.582 -0.722 -0.374 158 170 186
-4269.9390 2966.1770 1697.2539 0.673 -0.718 -0.179 153 190 218
-4267.4546 2975.9492 1694.2263 0.576 -0.715 -0.397 139 189 227
-3591.9238 2704.7588 1403.7147 0.477 -0.782 0.400 119 151 167
-3584.8481 2709.8977 1399.2201 0.492 -0.771 0.405 64 77 86
-3573.7349 2712.1968 1393.2109 0.486 -0.774 0.407 56 47 49
-3254.3784 2629.0303 1247.6785 0.094 -0.959 -0.266 125 70 45
-2920.1858 2594.2651 1085.8767 -0.450 -0.842 -0.299 88 72 68
-2802.1792 2560.5740 1032.6390 0.383 -0.398 -0.833 121 85 76
-2841.0671 2667.4102 1032.7670 0.576 0.456 -0.679 227 192 178
-2999.2380 2987.5872 1054.0925 -0.007 -0.963 -0.270 91 51 27
-2975.5671 3028.6670 1034.7107 0.456 -0.635 0.623 114 72 47
-2876.7476 3081.8755 975.3166 0.787 -0.052 0.615 98 58 48
-2874.0061 3089.8674 972.4835 0.787 -0.052 0.615 95 61 50
-2870.8567 3097.4641 969.5171 0.822 -0.030 0.568 93 63 48
-2805.0229 3138.2883 928.9705 0.710 -0.123 0.693 187 96 51
-2319.9275 3221.4045 669.8071 0.261 -0.650 -0.714 67 30 18
-2313.4841 3224.1143 666.0727 0.227 -0.951 -0.209 78 40 26
-2208.7825 3353.5193 589.8575 0.820 -0.130 -0.557 206 169 160
-2209.9348 3378.3875 585.9131 0.418 -0.320 -0.850 205 168 159
-2210.5610 3402.7029 581.8047 0.673 -0.214 -0.708 202 165 156
-3169.3665 5260.9600 726.1036 0.439 -0.566 0.698 195 155 145
-3147.6069 5263.7173 714.6551 0.439 -0.566 0.698 132 94 83
-3102.6506 5210.2744 701.7609 0.687 -0.482 0.544 143 105 94
-3094.6519 5215.9658 696.7015 0.687 -0.482 0.544 180 142 131
-3094.7444 5234.7339 693.3337 0.666 -0.512 0.543 196 158 147
-3129.2961 5347.5991 690.1835 0.872 -0.010 0.490 196 156 146
-3130.3743 5368.5093 686.9217 0.827 -0.422 0.372 199 156 147
-2953.8821 5339.7612 603.3617 0.390 -0.629 0.673 185 150 142
-2950.7878 5392.3613 592.2359 0.411 -0.689 0.596 174 139 139
-2959.1650 5446.1860 586.6584 0.557 -0.590 0.585 180 142 144
-2955.8159 5459.9692 582.4661 0.513 -0.513 0.688 180 140 142
-2973.4858 5571.3267 571.0970 0.116 -0.826 0.552 140 122 119
-2961.0586 5569.1582 565.2395 0.116 -0.826 0.552 136 117 114
-2946.6714 5583.6001 555.3743 0.143 -0.793 0.592 103 83 80
