ply
format ascii 1.0
element vertex 774
property float x
property float y
property float z
property float nx
property float ny
property float nz
property uchar diffuse_red
property uchar diffuse_green
property uchar diffuse_blue
end_header
-2245.0500 6012.2729 2068.8398 0.423 -0.607 -0.673 44 45 46
-1726.4932 5296.7290 1598.0135 0.758 -0.094 0.646 44 52 78
-1749.2117 5668.5962 1609.4482 0.228 -0.406 -0.885 39 70 95
-1734.2148 5705.9717 1594.2642 -0.036 -0.606 -0.795 31 62 87
-1675.0518 5609.9111 1540.9362 -0.599 -0.667 -0.444 32 61 87
-1258.9935 5494.4258 1150.7930 0.919 -0.391 -0.047 15 30 32
-1363.3202 5970.9077 1236.5400 0.963 -0.143 0.229 16 30 31
-1364.6993 6012.4224 1236.7229 -0.068 -0.924 -0.377 19 28 30
-1307.8036 5857.6255 1187.1237 -0.325 -0.712 -0.623 36 21 21
-1281.5433 5859.1938 1162.2599 -0.320 -0.708 -0.629 225 205 204
336.5261 3777.6362 -310.9556 0.988 -0.139 0.063 255 197 191
369.5160 4057.8801 -349.7032 0.929 -0.141 -0.341 253 168 182
408.9829 4330.4458 -394.3658 0.672 -0.040 0.739 251 79 124
-2272.8655 5958.4312 2079.6799 0.477 -0.585 -0.656 193 194 187
-1572.6182 5353.5190 1436.3751 -0.021 -0.567 -0.824 33 70 110
-1569.5399 5370.4399 1432.9692 -0.034 -0.568 -0.822 34 71 111
-1566.0143 5412.9253 1428.3862 -0.059 -0.558 -0.828 35 72 112
-1624.7280 5624.1929 1477.5863 -0.122 -0.563 -0.818 35 72 109
-1326.5708 5865.2627 1188.9552 -0.314 -0.707 -0.633 17 21 19
-369.9492 7699.6230 231.5807 0.870 -0.126 0.477 210 131 126
-154.4096 6831.3140 53.7039 -0.076 -0.900 -0.429 156 86 76
238.5390 3544.5217 -220.2874 0.962 -0.220 -0.160 238 59 98
335.8914 3761.9260 -318.6234 0.931 -0.143 -0.335 255 195 195
577.5013 5193.9736 -589.0204 0.830 -0.059 0.554 255 146 171
496.7048 3506.7290 -462.9274 -0.177 -0.833 0.524 216 77 98
-3563.3213 5117.4902 3306.8279 0.352 -0.649 -0.674 103 91 77
-2296.6011 5944.8203 2085.5994 -0.109 -0.594 -0.797 198 194 185
-2280.5010 5955.0938 2070.0854 0.522 -0.510 -0.683 190 191 181
-2280.5242 5979.8018 2069.3154 0.442 -0.572 -0.691 172 176 167
-2262.5745 6036.0264 2050.5845 -0.462 -0.886 -0.034 34 36 48
-1779.4529 5819.5952 1601.8589 0.246 -0.471 -0.847 34 83 125
-1654.9064 5991.2070 1478.8928 -0.191 -0.537 -0.822 27 65 97
-1645.1191 6021.6338 1468.6870 -0.233 -0.551 -0.801 27 65 98
-1337.3188 5876.2646 1183.0403 -0.292 -0.938 -0.185 17 23 22
-1308.3276 5867.5264 1155.9771 -0.349 -0.927 -0.139 186 177 176
-2288.1606 5951.8179 2060.5144 0.578 -0.495 -0.649 192 193 180
-2289.2129 6053.7637 2057.9819 0.462 -0.592 -0.661 31 36 42
-1935.4371 5941.7080 1728.5504 0.579 -0.724 -0.375 34 71 119
-1918.5214 5921.4209 1713.3148 0.209 -0.978 0.013 38 74 121
-1805.3550 5788.1611 1611.3029 0.703 -0.706 0.080 30 86 133
-1647.0225 5615.9873 1468.0834 -0.206 -0.606 -0.768 34 87 141
-1648.4014 5648.1875 1468.2694 -0.139 -0.596 -0.791 34 87 140
-1345.2831 5876.2051 1174.8093 -0.048 -0.969 -0.241 15 24 24
-1317.4691 5872.3213 1148.7390 -0.045 -0.972 -0.232 185 177 177
-1308.4910 5872.0889 1140.2885 -0.050 -0.975 -0.217 217 203 205
-955.9854 6674.4912 780.4449 -0.476 -0.770 0.426 236 170 180
177.0845 4508.4824 -212.1917 -0.150 -0.863 0.482 243 90 116
219.9682 3474.3303 -216.8481 0.868 -0.404 0.289 252 46 93
453.9037 4202.2222 -462.4070 -0.102 -0.798 -0.593 250 99 134
459.1461 4206.9878 -467.5107 -0.053 -0.781 -0.622 255 125 155
-1978.2638 5928.1011 1752.8480 0.497 -0.850 -0.176 31 66 99
-1970.6533 5934.0811 1745.4639 0.497 -0.850 -0.176 31 71 112
-1963.0361 5940.0659 1738.0734 0.497 -0.850 -0.176 30 73 117
-1955.4122 5946.0566 1730.6763 0.497 -0.850 -0.176 29 73 120
-1941.6200 5934.7861 1718.1141 0.616 -0.635 -0.465 29 73 120
-1934.9865 5943.5308 1711.5469 0.617 -0.633 -0.468 34 76 122
-1732.3187 5524.9854 1536.3368 0.970 -0.208 -0.128 30 93 144
-1810.2429 5917.8325 1595.1023 0.764 -0.253 -0.594 32 96 148
-1819.0776 5973.0396 1601.3693 0.511 -0.371 -0.776 31 95 147
-1817.4213 5997.1240 1598.9171 0.478 -0.366 -0.799 30 96 147
-1804.4473 6016.4844 1585.9891 -0.243 -0.814 0.527 31 97 148
-1692.2643 5935.1045 1483.4305 -0.127 -0.565 -0.815 26 80 128
-1328.1958 5883.3296 1142.7213 -0.048 -0.969 -0.241 184 177 177
-1319.6466 5884.9175 1134.6167 -0.048 -0.969 -0.241 217 203 205
-408.4326 7708.6255 209.4239 0.184 -0.574 -0.798 211 132 127
439.2568 4194.6733 -458.0216 -0.199 -0.918 0.344 254 77 121
510.9901 3582.6067 -502.8303 0.952 -0.126 0.277 235 25 57
-2284.0959 6363.6343 2006.5865 -0.111 -0.993 0.028 22 44 67
-1981.1224 5806.9502 1743.8148 -0.024 -0.826 -0.563 34 72 101
-1989.3561 5934.7051 1746.4948 0.480 -0.788 -0.385 37 76 108
-1965.6381 5950.3555 1723.5778 0.504 -0.799 -0.329 33 84 126
-1970.5305 6074.8276 1723.2467 0.830 -0.557 0.002 37 88 131
-1828.1046 5945.6709 1594.4695 0.582 -0.415 -0.699 25 100 157
-1334.4380 5876.4741 1133.1196 0.422 -0.585 -0.693 179 173 173
159.7162 4378.7139 -212.1921 -0.359 -0.921 -0.150 235 108 123
357.5479 4056.5400 -385.4102 0.957 -0.137 -0.257 244 77 115
447.6453 4286.7305 -479.2278 0.871 -0.260 0.417 252 89 128
456.8063 4278.9907 -487.5334 0.898 -0.217 0.382 255 125 156
471.1950 4329.3579 -503.0551 0.945 -0.186 0.270 254 146 169
-3689.0732 5075.4297 3362.3000 0.870 -0.404 -0.283 105 97 86
-3731.6511 5144.2407 3399.3843 0.852 -0.328 -0.408 105 97 86
-2319.0237 5985.1450 2037.4038 0.556 -0.505 -0.660 170 177 167
-2308.5774 6347.1538 2012.3416 -0.498 -0.777 0.385 26 48 71
-2283.2261 6309.7031 1990.1130 -0.501 -0.775 0.385 26 48 71
-2264.7712 6289.6001 1973.6298 -0.501 -0.775 0.385 26 48 71
-2126.6514 5986.3848 1856.7010 0.425 -0.469 0.774 27 49 72
-2043.5569 5872.7310 1783.4584 0.047 -0.381 0.923 25 59 83
-1995.7559 5928.4365 1736.2230 -0.420 -0.636 -0.648 44 85 115
-1969.3630 5936.6177 1711.0936 -0.420 -0.636 -0.648 46 103 143
-1975.6736 6064.4048 1711.6357 0.820 -0.568 -0.073 41 98 136
-1907.8435 6068.8652 1647.7509 0.770 -0.634 0.069 38 109 167
-1835.1536 5912.8730 1586.0625 0.590 -0.422 -0.688 36 110 168
-1821.7795 5958.7275 1571.5714 0.590 -0.421 -0.689 39 128 189
-1824.2499 5995.0688 1572.3601 0.492 -0.383 -0.782 27 115 178
-1675.1852 5628.7490 1447.8124 0.544 -0.682 -0.489 23 111 173
-1690.8429 5704.4429 1459.3268 -0.226 -0.938 0.262 20 105 166
-1347.3230 5895.7573 1128.6783 0.412 -0.590 -0.694 178 171 171
-1365.3896 6075.8076 1138.0581 -0.087 -0.727 -0.681 223 198 204
442.1197 4274.1787 -483.4063 0.857 -0.300 0.420 255 98 137
447.8180 4283.2661 -489.1403 0.862 -0.289 0.417 255 112 147
451.7991 4272.5205 -492.4261 0.953 -0.225 0.205 254 130 160
457.1436 4277.5044 -497.6549 0.929 -0.201 0.310 255 140 166
483.4060 3477.1228 -488.5950 0.814 -0.334 -0.476 242 36 67
-3658.1055 4982.2407 3321.2966 -0.545 -0.772 0.326 102 103 94
-3715.6643 5097.1743 3370.1572 0.835 -0.321 -0.447 104 96 85
-3722.5442 5120.1069 3375.5867 0.836 -0.326 -0.442 104 96 85
-3731.7551 5146.1514 3383.0640 0.951 -0.247 -0.186 104 95 86
-2315.6836 6054.2368 2014.1771 -0.429 -0.903 0.002 32 35 46
-2268.1416 6274.2012 1959.7583 -0.501 -0.774 0.387 32 54 77
-2118.0571 5915.5884 1834.9861 0.430 -0.468 0.772 32 54 77
-2105.2087 5908.0469 1823.2705 0.430 -0.468 0.772 33 55 78
-2027.1075 5883.9556 1751.0840 -0.045 -0.552 -0.832 40 77 106
-1991.1385 5945.6611 1714.5880 -0.604 -0.536 -0.590 86 146 183
-1980.9580 5944.6450 1705.0837 -0.604 -0.536 -0.590 69 133 171
-1964.6819 5926.7197 1690.6163 -0.620 -0.528 -0.580 36 100 141
-1981.8324 6056.8975 1700.8914 0.820 -0.568 -0.073 43 106 145
-1832.4708 5824.5552 1571.1588 0.128 -0.331 -0.935 47 122 184
-1825.7330 5945.0293 1559.4587 0.613 -0.375 -0.695 51 150 212
-1854.0303 6058.4248 1580.9392 0.453 -0.430 -0.781 38 137 199
-1852.7535 6084.0190 1578.5986 -0.412 -0.813 0.413 35 136 197
-1783.1024 5932.1094 1520.0463 -0.107 -0.824 0.556 28 127 188
-1737.4413 5821.8638 1482.1371 0.189 -0.618 -0.763 25 120 181
-1356.3706 5899.8086 1121.1954 0.412 -0.593 -0.692 178 171 171
-1373.9849 6077.2329 1129.7958 -0.142 -0.700 -0.700 223 198 204
149.3246 4319.4756 -220.6437 -0.297 -0.954 0.039 231 105 119
327.5192 3796.0427 -364.4244 0.964 -0.145 -0.224 241 82 120
-3680.2393 4998.2793 3325.4329 -0.547 -0.771 0.326 102 103 94
-3714.3735 5083.2295 3353.4099 -0.563 -0.810 0.164 104 96 85
-2343.2559 5999.4258 2025.4215 0.566 -0.501 -0.655 184 189 176
-2337.7927 6060.3984 2017.4260 0.460 -0.607 -0.648 35 40 45
-2053.4988 5827.7754 1762.0110 0.487 -0.497 0.718 37 64 87
-2041.4597 5951.5664 1744.8901 -0.421 -0.640 -0.643 40 79 109
-2008.8844 5970.3188 1713.4816 -0.606 -0.536 -0.588 108 172 209
-1997.2777 5965.5391 1702.8314 -0.604 -0.536 -0.590 89 157 196
-1987.9812 6049.4019 1690.1642 0.820 -0.568 -0.073 46 112 151
-1851.8749 5828.8867 1573.0326 0.132 -0.330 -0.935 53 131 194
-1845.7462 6036.9141 1557.4761 -0.121 -0.877 0.465 42 151 213
-1367.0609 5910.1689 1114.9172 0.432 -0.587 -0.685 179 171 171
-1380.5632 6070.6299 1119.9994 -0.127 -0.669 -0.733 223 198 204
438.5702 4279.2651 -500.0577 0.726 -0.104 0.680 255 111 146
-3711.0918 5025.2227 3337.0635 -0.528 -0.772 0.354 103 104 94
-2329.7769 5922.0366 1999.5861 0.306 -0.640 -0.705 190 193 179
-2347.5649 6012.4380 2011.7430 0.566 -0.501 -0.655 155 158 150
-2047.9380 5919.1807 1735.9272 0.143 -0.640 -0.755 37 89 128
-2012.4843 5983.1968 1699.5612 -0.606 -0.539 -0.585 88 166 207
-2001.2631 6061.7974 1685.1520 -0.229 -0.534 -0.814 45 117 162
-1880.2478 5885.9956 1580.6187 0.141 -0.313 -0.939 70 132 191
-1875.2399 5899.2148 1575.2743 0.148 -0.324 -0.934 72 135 193
-1801.8507 6176.5474 1492.7997 -0.587 -0.762 0.275 24 103 166
-1797.8678 6195.1274 1488.1482 -0.597 -0.761 0.252 24 98 159
-1780.2719 6170.7310 1472.8909 -0.582 -0.757 0.295 30 92 140
-1375.7963 5912.8345 1107.1191 0.432 -0.587 -0.685 170 161 164
-31.3621 7225.6025 -216.5096 -0.005 -0.785 -0.620 204 134 122
197.2644 3460.6365 -243.3960 0.937 -0.332 -0.106 253 58 100
267.4447 3329.7014 -302.5776 0.990 -0.138 -0.027 249 194 193
321.5415 3757.8833 -374.4915 0.407 -0.865 0.293 255 79 125
-3843.2322 5165.3047 3437.2905 -0.554 -0.742 0.377 180 187 179
-2340.1406 5925.1504 1992.2588 0.306 -0.640 -0.705 186 189 175
-2362.2688 6001.1455 2008.9797 0.559 -0.538 -0.630 187 191 177
-2204.7166 5991.4434 1862.1791 0.461 -0.585 -0.667 34 57 88
-2199.0366 6002.6416 1856.2836 0.461 -0.585 -0.667 37 61 95
-2019.8228 6033.5410 1687.1095 -0.565 -0.523 -0.638 32 126 168
-1871.7458 5756.8691 1563.1084 0.089 -0.465 -0.881 65 120 175
-1871.7944 5810.4800 1560.3544 0.150 -0.415 -0.897 63 118 173
-1838.6901 5879.7061 1525.7877 0.916 -0.290 -0.278 67 162 208
-1742.3589 5817.9048 1438.9475 -0.039 -0.762 0.646 31 142 197
-1784.0115 6154.9058 1460.2942 -0.585 -0.757 0.289 33 97 149
-1196.4166 6854.2485 874.3889 0.946 -0.276 0.170 250 232 232
-2401.4216 6046.9312 2025.9553 -0.042 -0.990 0.131 184 187 174
-2360.7686 6049.3701 1987.8539 0.477 -0.655 -0.586 35 38 41
-2067.1792 5923.8042 1720.5283 0.685 -0.557 -0.469 41 99 143
-2111.6912 6067.7432 1754.2214 -0.150 -0.642 -0.752 37 96 139
-2089.9885 6063.7534 1734.1705 -0.080 -0.598 -0.797 100 158 204
-2064.2219 6075.7632 1709.4482 -0.358 -0.544 -0.758 82 167 213
-1826.4202 6017.9238 1490.5186 -0.089 -0.835 0.543 38 160 213
-1745.3661 5801.8413 1426.6459 -0.010 -0.750 0.662 39 158 212
-1765.8818 6101.1509 1429.4229 0.268 -0.414 0.870 35 99 151
-1740.7605 6083.1060 1406.9485 0.269 -0.401 0.876 32 85 129
-1409.8872 5912.1851 1107.2842 0.252 -0.804 -0.538 17 22 23
-1201.2883 6833.3477 862.0394 0.947 -0.272 0.170 250 232 232
-4049.9185 5398.7095 3583.7671 -0.561 -0.738 0.376 202 206 201
-2371.1304 6052.0908 1980.1614 0.501 -0.620 -0.604 35 38 41
-2083.8032 5918.4888 1719.7550 0.588 -0.425 -0.688 32 93 138
-2082.5876 5941.2407 1717.3181 0.574 -0.435 -0.694 43 104 149
-2124.3406 6077.4312 1748.4725 -0.150 -0.642 -0.752 42 103 147
-2107.5449 6059.8013 1733.8130 0.145 -0.607 -0.781 64 125 169
-2102.9741 6074.4966 1728.7073 -0.077 -0.620 -0.781 116 177 223
-2091.8960 6071.9043 1718.5206 -0.104 -0.626 -0.773 134 195 248
-1750.4247 5792.0825 1415.9736 -0.019 -0.758 0.652 46 172 223
-1827.3900 6143.4336 1467.6589 0.007 -0.689 -0.725 43 146 204
-1754.8372 6069.7041 1404.1938 0.292 -0.542 0.788 35 98 152
-1208.2874 6823.4473 851.1419 0.950 -0.248 0.190 250 232 232
-61.0571 7439.2861 -254.4072 -0.034 -0.367 -0.930 191 119 107
402.3048 4048.0237 -492.5115 0.940 -0.154 0.305 255 127 158
-2385.9465 6016.4233 1978.8821 0.444 -0.639 -0.628 173 176 168
-2307.9556 6312.9282 1888.4768 -0.361 -0.823 -0.439 30 77 108
-2108.8472 5960.8174 1723.9747 0.545 -0.566 -0.618 45 104 149
-2116.5581 6059.9419 1725.2351 0.791 -0.609 0.057 88 147 191
-2107.3362 6062.2827 1716.5012 0.683 -0.704 0.195 128 186 231
-2099.3435 6067.8843 1708.7178 0.683 -0.704 0.195 142 202 252
-2002.2656 6049.3823 1619.3561 -0.449 -0.527 0.722 44 84 127
-1860.1000 6096.3843 1484.0609 0.962 -0.247 -0.114 55 188 234
-1706.4723 5832.0645 1356.6948 0.207 -0.661 0.722 46 129 191
-1741.7877 6031.8857 1377.6604 0.447 -0.809 -0.381 30 95 149
-1432.5092 5936.2310 1095.1591 -0.350 -0.719 0.601 22 27 27
-1210.2686 6788.4424 837.1067 0.949 -0.243 0.201 250 232 232
-89.7202 7474.3862 -248.1475 0.809 -0.586 -0.042 170 98 86
447.6245 3553.2529 -514.5018 0.832 -0.193 -0.521 238 108 136
-3723.2695 5007.9482 3269.4631 -0.524 -0.787 0.326 108 96 83
-2421.2097 6004.5122 1995.3079 -0.358 -0.933 -0.033 192 188 179
-2427.5635 6043.1646 1998.8146 0.232 -0.937 0.261 186 189 176
-2395.3347 6016.8667 1970.4514 0.437 -0.640 -0.632 178 181 173
-2394.5935 6039.4009 1968.3577 0.401 -0.569 -0.718 112 117 113
-2391.6970 6057.0405 1964.5624 0.400 -0.577 -0.712 44 47 50
-2121.0559 5969.5283 1718.0781 0.549 -0.562 -0.619 50 109 153
-2154.1455 6081.6758 1741.8942 0.376 -0.704 -0.602 56 115 158
-2137.1160 6063.7617 1727.1576 0.668 -0.714 0.211 76 133 176
-2124.7271 6057.8408 1715.9938 0.792 -0.607 0.061 109 166 209
-2120.8613 6074.3228 1711.3683 0.668 -0.714 0.211 135 192 238
-2105.0479 6059.2529 1697.5865 0.683 -0.704 0.195 141 200 249
-2097.7581 6066.7104 1690.3361 0.948 -0.296 0.114 110 179 228
-1851.8728 5987.7617 1466.3632 0.644 -0.323 -0.693 77 208 248
-1717.0847 5810.4409 1351.9376 -0.537 -0.841 0.070 51 154 212
-1716.5793 5955.5845 1342.4249 0.363 -0.745 -0.560 32 97 151
-1696.9998 6140.4194 1312.6835 -0.460 -0.530 -0.712 34 64 98
-1438.5961 5928.6099 1085.3345 -0.348 -0.798 0.492 23 28 28
-1217.3107 6779.1143 826.3572 0.955 -0.278 0.105 250 232 232
105.8789 4626.1567 -271.2555 0.828 -0.329 -0.454 222 118 118
446.5759 3577.7708 -523.0924 0.836 -0.187 -0.516 230 102 129
-3755.8806 5036.7686 3281.9529 -0.516 -0.792 0.327 114 103 89
-3699.9370 4980.4150 3233.5857 -0.519 -0.790 0.326 120 112 96
-2434.3845 6037.5366 1988.2717 0.015 -0.985 0.174 186 189 175
-2406.3989 6021.1685 1963.3098 0.427 -0.614 -0.664 177 180 172
-2403.2344 6062.3857 1957.6956 0.277 -0.506 -0.817 43 46 49
-2451.0601 6486.4448 1974.6802 0.133 -0.776 -0.617 25 46 80
-2183.6694 6055.7163 1753.9622 0.427 -0.383 -0.819 38 97 138
-2165.8015 6062.1201 1736.9323 0.816 -0.574 -0.058 51 110 154
-2159.4014 6071.8862 1730.3480 0.816 -0.574 -0.058 58 117 159
-2142.8013 6055.1450 1715.9973 0.668 -0.714 0.211 93 152 194
-2130.4270 6049.2744 1704.8713 0.792 -0.607 0.061 132 189 232
-2126.5659 6065.6909 1700.2170 0.668 -0.714 0.211 143 200 246
-2118.4412 6070.9688 1692.3201 0.668 -0.714 0.211 135 196 244
-2112.7336 6136.8613 1682.7417 0.908 -0.241 0.344 63 158 201
-1858.4467 5981.7471 1456.3435 0.646 -0.320 -0.694 89 225 255
-1848.5183 5981.0503 1447.1566 0.597 -0.348 -0.723 76 221 253
-1678.7452 5780.9521 1302.2607 -0.250 -0.968 0.012 43 119 181
-1714.8423 6107.1089 1314.6851 -0.416 -0.546 -0.727 48 78 114
-1715.2578 6140.0806 1312.9343 -0.466 -0.528 -0.710 48 78 112
-1706.5950 6143.5669 1304.6530 -0.466 -0.528 -0.710 34 64 98
-1415.1942 5982.0967 1044.1560 -0.425 -0.787 0.447 222 195 204
-476.5273 7056.3604 101.6904 0.473 -0.070 -0.878 214 138 140
-226.4212 6924.1982 -122.3080 0.422 -0.852 0.309 151 83 70
-3730.4717 5006.7207 3244.3049 -0.467 -0.799 0.379 121 113 97
-2437.0139 6022.3340 1974.4965 0.014 -0.978 0.210 186 189 175
-2419.2668 6029.5811 1957.5243 0.676 -0.525 -0.517 178 181 172
-2440.5657 6436.7402 1949.8905 0.297 -0.659 0.692 24 47 80
-2426.9963 6430.3643 1937.7159 0.307 -0.673 0.673 28 52 87
-2420.6890 6441.8398 1931.0846 0.338 -0.646 0.685 32 61 98
-2172.3091 6055.6592 1726.3832 0.891 -0.449 0.064 50 109 153
-2169.6694 6075.0947 1722.6227 0.809 -0.582 -0.077 61 120 164
-2112.4209 6111.8970 1666.9696 0.880 -0.265 0.395 67 165 208
-1936.2858 5875.3105 1519.2990 -0.249 -0.630 0.735 169 191 221
-1865.3378 5976.6909 1446.5726 0.667 -0.291 -0.686 99 237 255
-1861.6835 5994.4912 1441.9799 0.621 -0.334 -0.709 85 232 255
-1911.5437 6170.9258 1476.4114 -0.297 -0.673 0.677 78 227 255
-2110.3804 6892.3711 1612.5188 0.502 -0.862 0.062 69 197 246
-1791.8071 6077.3481 1371.4962 -0.008 -0.881 0.473 54 142 207
-1749.4193 6066.2153 1332.8743 0.419 -0.823 -0.385 35 101 152
-1724.2224 6078.3677 1308.6519 -0.699 -0.685 -0.207 47 84 123
-1262.9105 6816.7686 830.4434 0.330 -0.615 -0.716 236 217 218
-1256.8817 6836.5000 823.5148 0.354 -0.622 -0.698 250 232 232
462.4535 3184.3779 -527.5518 0.909 -0.089 0.406 195 40 48
-3748.0552 5016.7305 3243.9531 -0.446 -0.804 0.394 120 111 98
-2427.7261 6027.7725 1948.2955 0.676 -0.525 -0.517 178 181 171
-2402.2400 6372.5234 1900.5658 0.280 -0.654 0.703 29 60 96
-2264.2234 6109.4458 1790.8889 -0.390 -0.915 -0.106 28 77 117
-2182.6282 6058.9863 1718.7079 0.852 -0.519 -0.069 49 108 148
-2176.6138 6069.7065 1712.3788 0.852 -0.519 -0.069 72 131 171
-2076.1492 6045.0273 1620.8898 0.954 -0.294 -0.059 48 149 188
-2073.0967 6063.8242 1616.7444 0.976 -0.219 0.013 8 91 125
-2061.7390 6115.0674 1602.6268 0.815 -0.266 0.514 108 129 160
-1967.3409 5964.7290 1525.5444 0.124 -0.272 -0.954 172 187 218
-1903.6423 5840.8569 1475.0969 0.125 -0.361 -0.924 189 204 237
-1892.8171 5947.0024 1457.6381 0.179 -0.336 -0.925 98 186 199
-1892.7935 5974.9458 1455.6641 0.614 -0.356 -0.705 119 227 235
-1888.9432 5992.0127 1450.8994 0.619 -0.359 -0.699 111 237 241
-1903.0482 6090.5288 1457.1044 -0.091 -0.986 -0.141 96 246 254
-1915.1908 6155.4771 1463.8334 -0.271 -0.663 0.698 88 241 255
-1970.5211 6379.6768 1499.5082 -0.432 -0.804 0.409 79 226 255
-1703.9541 5751.1182 1296.0907 0.285 -0.519 -0.806 60 176 226
-1783.5909 6055.2363 1348.7347 0.539 -0.842 0.018 46 149 201
-1246.3593 6839.6895 795.4803 0.306 -0.726 -0.615 253 233 235
418.2705 3404.9070 -509.0556 0.821 -0.188 -0.538 223 79 106
459.3134 2925.4851 -513.6451 0.972 -0.203 -0.118 236 139 132
-3767.7915 5029.3555 3245.3228 -0.451 -0.813 0.369 113 104 93
-2436.1885 6025.9639 1939.0635 0.676 -0.525 -0.517 178 181 171
-2167.7976 5847.1631 1703.2596 -0.527 -0.828 -0.192 26 75 117
-2159.4155 5850.9395 1695.2180 -0.515 -0.834 -0.199 30 82 129
-2137.2092 6023.2720 1662.1644 0.653 -0.721 0.231 151 216 253
-2089.5496 5977.3354 1621.3182 0.975 -0.220 0.029 83 196 228
-2060.5459 6087.4282 1586.4696 0.815 -0.266 0.514 118 135 168
-2020.2810 6087.2637 1549.1639 0.915 -0.210 0.345 168 181 213
-1899.9340 5942.7280 1448.0873 0.610 -0.362 -0.705 108 192 202
-1899.2748 5968.7285 1445.5945 0.620 -0.362 -0.696 132 238 241
-1893.7538 5980.8862 1439.5977 0.670 -0.371 -0.644 120 243 241
-1920.3351 6144.5347 1452.3892 -0.286 -0.676 0.679 98 246 254
-1916.6299 6163.0273 1447.6167 -0.343 -0.697 0.630 90 239 254
-1761.8744 6174.8716 1303.3322 -0.610 -0.661 -0.437 47 101 150
-1499.3400 5963.8496 1075.2882 -0.436 -0.680 0.590 11 28 47
-1208.3711 6515.7358 765.6752 0.409 -0.490 -0.770 243 221 223
-513.0023 7408.4043 56.6002 0.947 -0.087 0.308 212 131 129
-501.5060 7390.4575 47.2444 0.930 -0.028 0.367 206 125 122
-3784.2446 5037.8301 3243.8616 -0.451 -0.813 0.369 112 105 94
-2438.1694 5985.6021 1926.7123 0.161 -0.985 -0.064 180 182 168
-2444.6541 6024.1548 1929.8281 0.676 -0.525 -0.517 178 181 171
-2444.2207 6047.1382 1927.7056 0.772 -0.414 -0.482 138 141 136
-2441.4065 6064.8027 1923.7773 0.777 -0.413 -0.475 66 67 69
-2355.2183 6236.6470 1831.1158 -0.331 -0.677 0.658 24 60 98
-2330.2708 6201.3477 1810.6639 0.078 -0.719 0.691 26 67 108
-2318.9041 6278.3716 1794.3723 0.719 -0.694 0.047 33 92 135
-1974.1533 5962.5537 1498.8624 0.110 -0.341 -0.934 176 188 220
-1942.1721 5927.9102 1471.8494 -0.072 -0.387 -0.919 167 185 215
-1935.5841 5936.7241 1465.0903 -0.054 -0.572 -0.818 151 178 207
-1924.9622 5934.1943 1455.4462 0.030 -0.516 -0.856 139 180 204
-1917.5900 5940.8315 1448.1240 -0.047 -0.547 -0.836 129 188 206
-1908.8850 5943.6982 1439.8506 0.610 -0.362 -0.705 122 201 211
-1922.4415 6124.7837 1438.8386 -0.277 -0.663 0.695 110 249 255
-1906.9567 6108.5269 1425.7206 -0.283 -0.668 0.688 102 243 255
-1926.1648 6194.4829 1437.0656 -0.410 -0.805 0.429 97 238 255
-1849.6324 6084.7690 1374.4304 -0.359 -0.824 0.439 73 212 250
-1888.9667 6294.9424 1395.1045 0.078 -0.869 -0.489 57 176 219
-1686.9001 5968.5293 1232.4821 -0.625 -0.713 -0.319 38 84 127
-1675.7882 5963.2109 1222.5933 -0.625 -0.713 -0.319 37 79 116
-1488.2573 5735.2432 1066.0546 -0.061 -0.862 -0.504 18 36 60
147.2877 3441.9868 -276.3461 0.770 -0.475 0.426 252 49 100
183.1544 3729.4695 -331.0815 0.512 -0.262 0.818 247 182 176
376.9696 4244.4668 -549.0815 0.878 -0.285 0.384 248 119 153
453.6615 2925.9175 -521.3298 0.877 -0.228 -0.424 226 130 123
-3801.8955 5047.7324 3243.3230 -0.465 -0.809 0.358 115 108 97
-3754.4636 5002.5762 3202.9558 -0.465 -0.809 0.358 111 104 94
-2438.9148 5966.4189 1911.7799 0.242 -0.968 0.062 180 182 168
-2453.1226 6022.3442 1920.5892 0.676 -0.525 -0.517 178 181 171
-2452.0757 6043.8608 1917.9556 0.772 -0.414 -0.482 138 141 136
-2447.7202 6057.9375 1912.8380 0.772 -0.414 -0.482 65 67 68
-2443.3489 6072.0640 1907.7020 0.772 -0.414 -0.482 33 32 42
-2443.1401 6095.9038 1905.6636 0.798 -0.394 -0.456 26 25 40
-2265.2278 5993.7690 1749.0444 -0.679 -0.732 0.053 25 61 100
-2285.3716 6119.2812 1757.9563 -0.489 -0.855 -0.170 29 81 130
-2089.9861 6010.8452 1585.6665 0.952 -0.289 -0.101 108 178 227
-1964.7047 5966.6289 1473.2346 -0.148 -0.625 -0.766 158 178 207
-1948.0619 5947.4692 1459.3273 -0.056 -0.575 -0.816 139 166 195
-1938.9640 5949.3164 1450.7709 0.030 -0.523 -0.852 136 174 200
-1930.4188 5952.7109 1442.6060 -0.035 -0.543 -0.839 150 203 221
-1924.1206 5962.4854 1436.0249 -0.035 -0.543 -0.839 135 207 217
-1935.2114 6107.2783 1435.0725 -0.034 -0.997 -0.072 134 255 254
-1851.1178 6033.8428 1362.9911 -0.029 -0.913 0.407 83 224 252
-1838.8862 6055.6982 1349.9880 -0.350 -0.823 0.448 77 208 246
-1722.6846 5818.2148 1260.9139 -0.014 -0.841 0.541 42 149 196
-1673.9376 5960.6191 1204.8110 0.749 -0.640 -0.172 33 69 104
-1235.1431 6561.3325 752.5303 0.963 -0.221 0.153 243 221 223
-3781.5562 5024.2632 3210.2749 -0.536 -0.799 0.273 112 105 95
-2442.0127 5952.6641 1898.6837 0.234 -0.966 0.112 181 183 169
-2459.1616 6015.0205 1909.5406 0.678 -0.530 -0.508 185 188 178
-2455.5850 6030.6973 1904.9839 0.749 -0.367 -0.552 147 150 145
-2451.7092 6045.7896 1900.1974 0.749 -0.367 -0.552 74 75 77
-2447.8181 6060.9409 1895.3918 0.749 -0.367 -0.552 32 30 41
-2446.4692 6082.0459 1892.4590 0.765 -0.416 -0.492 25 24 39
-2247.1262 6052.9219 1710.6465 -0.536 -0.832 0.141 26 85 128
-2102.7383 5916.8174 1588.1492 -0.493 -0.557 -0.669 138 219 248
-2095.8882 5924.7559 1581.1870 0.888 -0.221 -0.404 123 212 251
-2095.4497 6001.8340 1574.6210 0.898 -0.433 -0.078 110 181 230
-2090.0664 6014.0645 1568.6707 0.898 -0.433 -0.078 103 157 197
-2024.8146 5999.4429 1509.5640 -0.282 -0.792 0.541 157 172 203
-2013.8542 5996.5776 1499.6686 0.954 -0.265 0.136 155 166 198
-1999.0626 6010.3530 1484.9041 0.097 -0.361 -0.927 164 179 210
-1982.6058 5992.1489 1471.1573 -0.105 -0.500 -0.860 149 172 199
-1961.9048 5961.9062 1454.4523 0.034 -0.513 -0.858 144 172 199
-1950.9641 5958.6807 1444.6039 0.030 -0.523 -0.852 144 181 207
-1927.2067 6058.7241 1414.6619 0.684 -0.345 -0.643 149 254 255
-1830.3484 5834.1470 1343.1407 -0.159 -0.973 -0.166 128 247 254
-1897.2305 6057.5532 1387.0652 0.191 -0.969 0.157 117 243 255
-1987.2649 6381.7046 1444.3239 0.385 -0.836 -0.390 101 239 255
-1851.5979 6038.5371 1346.4329 -0.339 -0.821 0.459 83 229 255
-1839.8844 6032.6592 1336.0824 -0.336 -0.824 0.455 83 215 252
-1240.4026 6545.2183 741.3509 0.965 -0.222 0.138 243 221 223
60.6674 4347.1445 -284.8015 0.997 -0.073 0.020 213 127 120
152.2514 5403.6885 -453.8505 0.447 -0.882 0.151 255 34 91
206.7431 2877.5974 -302.2758 0.885 -0.147 -0.441 255 180 188
401.4013 3259.8335 -512.6406 0.988 -0.149 -0.033 243 33 65
-3790.4377 5023.3354 3202.4922 -0.555 -0.792 0.255 117 110 100
-2454.1882 5959.4023 1892.3389 -0.040 -0.999 0.006 182 184 170
-2463.6807 6004.2969 1897.3964 0.421 -0.655 -0.627 188 191 181
-2461.2434 6022.4805 1893.6483 0.742 -0.348 -0.572 151 154 149
-2457.5713 6037.9722 1888.9825 0.742 -0.348 -0.572 81 83 84
-2232.8208 6123.3081 1674.5664 0.040 -0.756 0.654 143 202 242
-2171.5325 6019.4106 1626.5809 -0.656 -0.747 0.111 138 201 238
-2131.3198 5942.1533 1595.8457 -0.509 -0.594 -0.622 135 209 234
-2106.3816 5929.1714 1573.9052 0.868 -0.218 -0.447 111 207 243
-2114.8652 5977.0605 1577.7848 0.805 -0.292 -0.517 107 202 249
-2111.4448 6020.5239 1571.0453 -0.538 -0.829 -0.152 107 185 232
-2099.1208 6014.5112 1560.1696 -0.538 -0.829 -0.152 104 166 204
-2089.8459 6016.4902 1551.4485 0.823 -0.432 -0.368 106 151 182
-2055.6311 6005.1724 1520.8108 -0.316 -0.760 0.569 173 184 216
-2019.6414 6015.4800 1486.7528 0.102 -0.337 -0.936 150 162 194
-2018.6278 6237.4302 1467.5183 0.057 -0.440 -0.896 177 247 255
-1964.0942 6347.0654 1408.1603 -0.213 -0.970 -0.120 84 232 253
-1841.4572 6011.5166 1322.6665 -0.028 -0.974 0.226 85 217 253
-1833.5640 6016.9604 1314.9344 -0.374 -0.811 0.450 80 204 245
-1816.3380 6023.5444 1298.4969 -0.085 -0.974 0.212 66 177 223
-1757.0251 5959.7568 1249.0273 0.760 -0.572 -0.310 52 137 191
-1790.7659 6186.7090 1261.4487 -0.622 -0.740 -0.256 41 91 136
-1736.4594 6138.6426 1215.3022 0.538 -0.843 -0.007 39 67 99
-1453.6104 5912.5381 972.9553 -0.478 -0.781 0.403 217 191 202
203.0054 2859.5261 -303.9142 0.885 -0.143 -0.443 254 175 184
-3739.9368 4962.6396 3145.0435 -0.595 -0.772 0.222 113 103 94
-2472.8132 6004.0098 1888.6642 0.165 -0.694 -0.701 188 191 181
-2470.4963 6022.4233 1884.9641 0.395 -0.327 -0.858 152 154 149
-2467.4741 6039.3579 1880.7396 0.394 -0.329 -0.858 85 87 88
-2294.9985 6000.0884 1725.1067 -0.680 -0.732 0.039 23 59 97
-2275.8792 5978.5537 1709.3142 -0.586 -0.806 0.080 19 63 104
-2280.0601 6140.7554 1699.3861 0.001 -0.770 0.638 75 134 174
-2266.2224 6132.1631 1687.3621 0.041 -0.770 0.637 123 182 222
-2252.1379 6122.8428 1675.1724 0.041 -0.770 0.637 144 203 243
-2238.1143 6113.5620 1663.0356 0.041 -0.770 0.637 141 200 240
-2107.8877 6014.1763 1551.4509 -0.508 -0.845 -0.169 94 169 203
-2093.0659 6001.5347 1538.8638 -0.511 -0.843 -0.167 91 145 176
-2085.3745 6007.6470 1531.2552 -0.492 -0.846 -0.205 129 156 187
-2058.7295 6016.5327 1505.9419 -0.329 -0.769 0.549 166 181 212
-2029.6134 5991.6304 1481.2216 0.723 -0.526 0.447 154 165 197
-2022.1437 5998.2754 1473.7721 0.740 -0.539 0.402 150 162 194
-2005.6283 5980.1787 1460.0876 0.714 -0.642 0.278 161 176 207
-2039.7025 6185.1836 1474.0754 0.268 -0.290 -0.919 161 200 220
-2040.9884 6217.2949 1472.5322 0.269 -0.292 -0.918 194 241 252
-2027.1202 6206.9839 1460.6262 -0.056 -0.532 -0.845 195 248 255
-2020.5697 6217.2549 1453.7159 -0.056 -0.532 -0.845 192 250 255
-1980.1876 6337.2017 1406.3047 -0.211 -0.970 -0.118 92 238 248
-1974.3442 6350.3511 1399.8016 -0.213 -0.970 -0.120 85 234 251
-1845.1580 5996.8638 1310.7656 -0.006 -0.973 0.232 85 217 253
-1775.3716 5931.4863 1251.9987 -0.247 -0.735 -0.631 60 159 209
-1803.6748 6199.6938 1255.2974 -0.622 -0.740 -0.256 40 91 138
-1735.5797 6046.1890 1205.5770 -0.395 -0.918 -0.016 40 82 118
-1730.8051 6061.6826 1199.8599 -0.079 -0.991 -0.109 38 74 108
-1741.5563 6127.1670 1204.2053 0.536 -0.844 0.008 37 68 101
-1559.8618 6031.4292 1044.8732 -0.679 -0.725 0.116 28 46 65
-1546.7372 6018.2891 1033.8927 -0.454 -0.789 0.414 17 27 31
-1479.0079 5908.8496 980.7657 -0.501 -0.782 0.370 209 194 202
-1458.4923 5900.6919 962.5497 -0.466 -0.784 0.410 217 191 202
-1325.0283 6765.4043 766.0665 0.749 -0.657 0.085 235 213 215
-335.6415 7679.1333 -223.4797 -0.135 -0.990 0.042 203 129 118
-3772.6145 4991.1865 3156.7781 -0.595 -0.772 0.222 112 103 94
-2475.7607 5989.8379 1875.4368 0.392 -0.405 -0.826 188 191 180
-2482.3652 6028.2344 1878.1584 0.394 -0.329 -0.858 151 153 148
-2478.9358 6044.2363 1873.6012 0.394 -0.329 -0.858 89 90 92
-2299.1853 6139.4600 1699.7794 -0.283 -0.931 -0.231 48 107 147
-2286.9016 6134.8452 1688.8739 -0.269 -0.868 0.416 89 148 186
-2272.2585 6124.2808 1676.3167 -0.269 -0.868 0.416 139 198 237
-2262.0056 6124.5752 1666.8512 -0.275 -0.865 0.419 150 209 249
-2243.3611 6103.7520 1651.5074 0.041 -0.770 0.637 139 199 239
-2150.6111 5971.7852 1577.6599 -0.493 -0.557 -0.669 74 185 210
-2109.0571 6020.2437 1535.1630 0.848 -0.378 -0.371 71 147 174
-2104.9180 6035.8228 1529.9893 0.850 -0.377 -0.369 118 152 182
-2097.7490 6043.4771 1522.7194 0.840 -0.417 -0.347 154 172 204
-2041.2635 6192.7451 1457.6565 0.307 -0.297 -0.904 203 243 253
-2009.7527 6132.8911 1433.8816 0.213 -0.346 -0.914 206 251 255
-2008.1632 6156.7773 1430.3285 0.218 -0.343 -0.914 203 252 254
-1983.6035 6115.7939 1411.3024 0.216 -0.350 -0.912 200 254 255
-1968.3721 6305.8003 1380.6571 0.140 -0.985 0.097 85 233 247
-1826.5558 5973.4678 1279.1638 -0.332 -0.819 0.469 69 190 233
-1802.4528 6168.2983 1239.9287 0.452 -0.837 -0.309 39 91 140
-1745.0760 6049.1445 1197.5273 0.476 -0.778 -0.409 39 83 122
-1748.3451 6121.1807 1194.2351 0.550 -0.804 -0.228 35 68 102
-1921.8226 6850.1118 1290.1829 0.304 -0.351 0.886 32 57 83
-1329.0940 6742.8853 753.8543 0.745 -0.662 -0.081 235 213 215
-335.9539 7366.1152 -215.0237 -0.238 -0.950 0.204 211 134 124
-308.7784 7402.0415 -243.1864 -0.479 -0.813 -0.330 208 135 123
65.6686 4626.0791 -345.0825 0.936 -0.185 -0.299 247 59 98
216.2393 3082.9143 -348.7096 0.925 -0.064 0.375 242 80 117
565.0303 4522.4951 -795.7693 0.990 -0.130 0.053 181 17 33
-3825.3083 5044.1909 3184.5112 -0.514 -0.798 0.313 111 105 95
-2484.9307 5966.3394 1868.8387 0.214 -0.637 -0.741 183 185 171
-2487.1270 6018.0415 1866.2052 0.383 -0.408 -0.829 163 164 158
-2304.3499 5978.9531 1701.6320 0.480 -0.519 0.707 15 60 96
-2314.7583 6155.0337 1695.3571 -0.374 -0.927 -0.005 61 123 150
-2298.9836 6141.9058 1682.0314 -0.374 -0.927 -0.020 113 170 200
-2285.2778 6133.7651 1670.1594 -0.346 -0.895 0.283 149 202 238
-2197.5869 6042.8823 1597.6938 -0.548 -0.649 -0.528 66 166 214
-2189.1968 6047.4321 1589.5681 -0.550 -0.645 -0.530 61 179 227
-2119.0178 6022.9937 1527.2275 -0.527 -0.818 -0.230 48 167 188
-2113.8328 6035.7993 1521.3065 -0.667 -0.629 -0.399 79 137 164
-1858.7740 5986.1870 1291.2065 -0.353 -0.823 0.445 85 225 255
-1818.3663 5952.1997 1257.1042 -0.338 -0.816 0.470 64 185 234
-1893.6230 6237.6074 1300.6278 -0.047 -0.841 -0.540 66 175 226
-1838.5913 6130.9751 1259.6146 -0.377 -0.735 -0.563 55 149 204
-1872.0942 6295.0435 1275.6597 -0.524 -0.642 0.560 41 110 168
-1734.9816 5930.7363 1182.3511 -0.367 -0.814 0.449 59 116 166
-1748.8066 6095.0938 1180.2733 0.529 -0.824 -0.200 37 73 109
-1835.0483 6467.8428 1226.0386 0.400 -0.530 0.748 40 68 92
-1468.0986 5876.7144 941.7737 -0.344 -0.710 0.614 213 189 202
-1331.0653 6711.0952 740.6574 0.720 -0.688 -0.092 236 211 215
-1263.4219 6491.5615 698.2067 0.549 -0.836 0.000 245 220 224
-396.6345 7708.4141 -208.4509 0.961 -0.107 -0.257 208 130 120
-257.0855 6992.5381 -272.3593 0.399 -0.668 -0.628 206 137 124
181.0188 2673.8181 -286.5829 0.944 -0.138 -0.298 253 189 196
342.0508 4360.6538 -586.4895 -0.205 -0.964 0.167 254 92 135
347.1755 4360.6616 -591.2031 -0.204 -0.967 0.150 253 101 144
-4140.5723 5360.7651 3428.6924 -0.532 -0.772 0.348 218 216 208
-3787.4573 4999.3452 3137.7468 -0.505 -0.797 0.331 112 110 98
-2505.0559 5990.4756 1867.9988 -0.110 -0.986 -0.124 182 184 170
-2498.3523 6022.3477 1858.8920 0.383 -0.408 -0.829 169 170 163
-2495.2917 6039.0874 1854.5317 0.385 -0.409 -0.827 122 122 122
-2502.7373 6103.5835 1855.4047 0.105 -0.637 -0.764 33 31 43
-2280.2261 5923.9048 1667.6221 -0.634 -0.745 -0.206 18 66 102
-2206.0542 6067.3159 1586.2178 -0.201 -0.975 0.092 58 179 231
-2190.6772 6054.1606 1573.3091 0.226 -0.963 0.145 57 199 244
-2183.0430 6060.6826 1565.6925 -0.533 -0.814 -0.232 59 215 247
-2177.9165 6073.6816 1559.7805 -0.755 -0.571 -0.323 66 232 254
-1861.6539 5969.3564 1278.9038 -0.234 -0.966 0.111 86 227 255
-1806.9121 5921.1353 1233.0775 -0.327 -0.795 0.511 70 188 238
-1851.0801 6142.2993 1253.1904 -0.377 -0.735 -0.563 53 149 204
-1744.3218 5933.5679 1174.4298 -0.350 -0.817 0.458 63 121 171
-1761.3470 6138.4561 1171.1145 0.284 -0.795 0.536 40 68 96
-1849.3276 6517.7271 1216.8478 0.687 -0.345 0.640 40 68 92
-1468.2018 5847.9775 928.6959 -0.384 -0.737 0.556 213 189 202
-1335.4072 6690.3667 728.7729 0.620 -0.691 -0.370 236 211 215
-1098.2915 7444.0083 441.2277 0.805 -0.593 -0.027 226 134 144
31.8068 4288.6455 -304.9961 0.106 -0.502 -0.858 209 127 121
177.4655 2650.8804 -287.2844 0.942 -0.141 -0.306 253 182 193
182.5011 2708.3035 -297.2227 0.945 -0.139 -0.296 254 169 186
192.9437 2821.6777 -317.3045 0.945 -0.139 -0.296 238 103 135
338.2582 4375.1367 -594.5137 -0.186 -0.968 0.167 255 105 145
-4196.0254 5415.2627 3457.1389 -0.537 -0.768 0.350 215 215 206
-2511.3723 5983.9165 1857.2441 0.005 -0.997 -0.083 182 184 170
-2507.3159 5998.1816 1852.1665 0.211 -0.647 -0.732 184 186 174
-2512.6116 6033.3584 1853.6829 0.374 -0.413 -0.831 168 169 163
-2515.3245 6063.0171 1853.3536 0.374 -0.407 -0.833 123 123 123
-2511.1692 6077.4678 1848.1675 0.374 -0.407 -0.833 57 56 62
-2514.7993 6109.5576 1848.4490 0.112 -0.635 -0.764 33 31 43
-2518.1887 6141.3354 1848.5394 0.181 -0.968 -0.176 37 37 54
-2303.1277 5981.6489 1666.3723 -0.482 -0.876 0.003 25 74 107
-2327.0728 6114.3389 1675.7350 -0.215 -0.976 0.009 52 116 138
-2318.2852 6118.3330 1667.2917 -0.249 -0.969 0.014 93 154 178
-2222.9983 6061.3804 1585.2678 -0.311 -0.936 0.164 59 166 218
-2189.3557 6027.8706 1557.5817 0.055 -0.939 0.340 57 198 245
-2113.0757 6039.8218 1486.4503 0.895 -0.340 -0.289 107 128 161
-2102.8789 6039.4814 1477.1262 0.899 -0.345 -0.268 132 146 181
-1908.7976 5913.1479 1311.0406 -0.428 -0.734 0.528 181 249 255
-1856.0387 5817.3184 1271.7355 -0.439 -0.728 0.526 139 246 252
-1872.1987 5891.1138 1279.5513 -0.063 -0.978 0.198 121 246 254
-1825.5607 5922.8877 1233.7361 -0.332 -0.796 0.506 63 187 236
-1814.4879 5918.4165 1224.0006 -0.327 -0.795 0.511 69 188 236
-1859.3689 6140.7910 1244.0513 0.075 -0.905 -0.418 53 149 205
-1475.6942 5845.9302 920.0085 -0.403 -0.820 0.407 213 189 202
-1340.6841 6674.0522 717.4241 0.708 -0.706 -0.002 236 211 215
-1097.1858 7380.0767 426.8930 0.806 -0.591 -0.035 227 134 144
56.4581 4563.2837 -364.0183 0.736 -0.138 0.662 252 50 98
-4231.6875 5445.5952 3469.4175 -0.530 -0.767 0.363 214 214 205
-2520.1138 5982.7217 1848.2113 0.114 -0.980 0.160 183 185 171
-2518.6511 6002.6875 1844.9230 0.211 -0.647 -0.732 184 186 174
-2533.8560 6059.7700 1853.2911 0.395 -0.473 -0.788 168 169 163
-2529.1724 6072.9751 1847.7103 0.395 -0.473 -0.788 122 122 122
-2528.5391 6095.3184 1844.9503 0.522 -0.575 -0.630 57 56 63
-2533.4326 6130.2275 1846.0304 0.511 -0.594 -0.621 33 31 43
-2520.7314 6125.7109 1834.8291 0.181 -0.870 0.459 37 37 54
-2340.2139 6073.5054 1674.4612 -0.129 -0.988 -0.081 31 80 113
-2338.5137 6094.4526 1670.8594 -0.153 -0.987 -0.056 34 86 119
-2336.1091 6113.8438 1666.7639 -0.228 -0.974 0.003 64 130 151
-2252.2021 6060.4204 1595.0670 -0.241 -0.939 0.246 99 183 226
-2232.3403 6062.0547 1576.7021 -0.304 -0.936 0.175 58 165 221
-2217.1816 6049.6714 1564.0160 -0.428 -0.892 0.148 57 178 236
-2193.5388 6015.6865 1545.6603 0.027 -0.946 0.323 58 196 246
-2217.6646 6155.3711 1554.1478 -0.764 -0.560 -0.321 68 223 247
-2092.4326 5988.4644 1455.6428 0.861 -0.447 -0.242 120 135 169
-2011.8529 5985.4565 1382.0778 0.079 -0.980 -0.182 191 228 244
-2018.6643 6031.2749 1383.8516 0.196 -0.922 -0.335 212 249 255
-2006.4774 6025.0820 1373.2853 0.350 -0.306 -0.886 215 252 254
-1861.1154 5807.7876 1261.2444 -0.447 -0.730 0.517 134 247 253
-1881.8464 5894.3486 1271.8025 -0.086 -0.836 0.541 117 248 254
-1863.8545 5870.1855 1257.6683 -0.141 -0.866 0.479 100 244 254
-1860.0366 5886.7783 1252.5503 -0.120 -0.832 0.542 91 241 255
-1819.6001 5908.3892 1213.3785 -0.296 -0.816 0.497 70 188 236
-1810.6738 5910.2373 1205.0165 -0.325 -0.799 0.506 65 177 228
-1869.1508 6143.7671 1235.8356 0.075 -0.905 -0.418 53 149 205
-1791.8319 6242.5547 1155.3295 0.706 -0.115 0.699 40 68 92
-1481.9091 5839.3311 910.5908 -0.377 -0.828 0.415 213 189 202
-1347.8759 6666.4424 707.0548 0.726 -0.688 -0.022 236 211 215
-1103.8440 7363.2607 415.4047 0.801 -0.597 -0.037 228 134 144
136.8142 3652.2139 -359.7666 -0.312 -0.749 0.585 253 177 169
358.6606 2514.2087 -452.0993 0.967 -0.120 0.223 231 71 83
-2526.8164 6000.1602 1835.4370 0.216 -0.647 -0.731 179 181 169
-2555.0884 6085.9468 1852.7378 0.520 -0.573 -0.633 174 175 169
-2538.2524 6095.9531 1836.3221 0.522 -0.575 -0.630 68 67 74
-2538.4661 6120.2910 1834.0824 0.519 -0.574 -0.633 30 28 40
-2531.0889 6127.7393 1826.5828 0.201 -0.977 -0.075 38 38 55
-2362.7083 6105.2856 1674.6654 -0.231 -0.970 -0.071 19 68 101
-2359.2703 6122.1411 1669.8311 -0.231 -0.973 -0.017 48 101 134
-2346.2361 6115.9604 1658.5157 -0.228 -0.973 -0.016 92 159 178
-2334.7568 6113.4634 1648.2557 -0.228 -0.974 0.003 125 188 209
-2280.0186 6081.1953 1601.3678 -0.229 -0.946 0.230 128 192 234
-2263.1707 6065.0425 1587.5587 -0.215 -0.950 0.225 83 170 212
-2225.1006 6046.8267 1554.5256 -0.148 -0.821 0.552 52 175 233
-2244.3645 6173.5737 1559.4803 -0.758 -0.570 -0.317 75 222 253
-2211.3254 6142.1338 1532.3770 -0.756 -0.566 -0.328 80 204 232
-2149.9121 6062.8438 1484.0826 -0.608 -0.793 -0.049 64 91 126
-2133.3699 6046.1279 1470.6097 -0.574 -0.735 0.361 63 85 119
-2110.7261 6013.2236 1453.1704 -0.611 -0.791 -0.033 85 102 136
-2088.2522 5980.4336 1435.8750 0.716 -0.652 0.250 117 121 162
-2029.3828 6036.4424 1376.3715 0.183 -0.920 -0.346 204 250 254
-2032.1052 6098.9121 1372.6132 0.758 -0.649 -0.067 209 253 251
-1991.1943 6013.3096 1343.7222 0.735 -0.655 -0.175 206 254 251
-1958.3910 5949.4502 1320.0784 0.795 -0.551 0.254 200 255 255
-1866.1160 5798.0996 1250.7388 -0.421 -0.773 0.475 131 250 254
-1857.4141 5854.7207 1237.1060 -0.147 -0.858 0.492 87 242 254
-1883.5305 6190.4409 1227.4241 -0.325 -0.760 -0.562 40 119 177
-1487.4966 5830.5532 900.8391 -0.371 -0.835 0.406 214 190 203
-1101.1587 7291.5430 400.9288 0.850 -0.527 0.015 234 139 150
-2540.8538 6010.5166 1829.9978 -0.252 -0.800 -0.545 176 178 166
-2561.9104 6080.1675 1842.1104 0.425 -0.609 -0.670 178 179 172
-2545.6038 6115.0972 1823.6143 0.422 -0.619 -0.662 27 25 37
-2542.2100 6131.4419 1818.8339 0.324 -0.677 -0.661 35 35 52
-2322.9983 5915.9912 1640.4546 0.509 -0.569 0.646 14 64 101
-2379.2908 6122.7188 1670.7308 0.087 -0.950 0.299 20 69 102
-2357.3464 6120.4038 1650.8992 0.081 -0.945 0.318 105 172 191
-2341.4580 6107.3193 1637.7107 0.233 -0.971 -0.053 132 195 216
-2290.2468 6083.8354 1593.2847 0.078 -0.681 0.728 121 185 227
-2259.0227 6057.6792 1567.4116 0.097 -0.695 0.712 56 157 200
-2232.6562 6043.0742 1544.7963 0.057 -0.681 0.730 48 174 231
-2263.4668 6198.5894 1557.0216 0.678 -0.448 0.583 67 208 241
-2227.3411 6186.2427 1525.2494 0.824 -0.306 -0.477 47 134 167
-2204.9019 6155.1885 1507.9131 -0.427 -0.639 0.640 59 109 140
-2085.9937 5977.4600 1417.3967 0.708 -0.615 0.348 98 99 140
-2044.7148 6000.0454 1377.3285 -0.412 -0.904 -0.114 168 216 236
-2035.3087 6001.4731 1368.5797 -0.215 -0.949 -0.231 189 241 253
-2033.9753 6024.8633 1364.9609 0.115 -0.858 -0.501 200 253 255
-2013.6997 6023.8052 1346.5264 0.234 -0.939 -0.254 202 255 251
-2005.3217 6028.0786 1338.4259 0.234 -0.939 -0.254 201 255 251
-1891.7823 6099.8027 1227.2313 0.355 -0.924 0.145 63 176 224
-1882.6362 6101.9688 1218.6445 0.355 -0.924 0.145 57 161 214
-1108.4739 7279.4214 389.8536 0.850 -0.527 0.015 236 141 152
531.2518 4415.2866 -815.9573 0.975 -0.092 0.200 201 44 55
560.2211 4498.4507 -850.9819 0.853 -0.194 -0.484 212 55 64
-4054.6465 5209.2441 3279.8467 -0.446 -0.883 0.147 219 217 205
-2553.6123 6017.9829 1823.6151 -0.251 -0.801 -0.543 177 179 167
-2571.5388 6080.5703 1833.4142 0.381 -0.626 -0.681 177 178 172
-2553.4397 6111.4712 1813.6326 0.333 -0.661 -0.672 27 25 37
-2551.8110 6131.7061 1810.0181 0.268 -0.691 -0.672 27 27 44
-2521.4226 6334.3701 1760.9586 -0.553 -0.783 -0.284 16 63 99
-2399.1721 6098.0571 1674.1143 -0.117 -0.966 -0.229 16 64 100
-2383.2761 6110.0952 1658.3278 -0.233 -0.972 -0.007 27 75 111
-2371.6541 6107.3853 1647.9955 -0.233 -0.972 -0.007 76 129 162
-2360.0571 6104.6816 1637.6855 -0.233 -0.972 -0.007 117 181 202
-2348.0337 6100.8984 1627.0994 -0.241 -0.970 0.004 138 200 221
-2293.7786 6070.0522 1580.7775 0.078 -0.681 0.728 114 178 220
-2248.7505 6035.1309 1543.3130 0.078 -0.681 0.728 48 163 215
-2225.4436 6002.5713 1525.4432 0.099 -0.697 0.710 47 172 227
-2213.8848 5999.0635 1515.2526 0.152 -0.823 0.547 43 179 230
-2249.0593 6165.1108 1529.9352 0.804 -0.163 0.571 46 167 202
-2211.8286 6149.4546 1497.5691 -0.427 -0.639 0.640 57 102 135
-2078.4885 5934.5552 1398.3436 -0.093 -0.950 -0.298 69 69 111
-2056.7351 5981.9854 1373.4866 0.068 -0.978 -0.196 140 188 211
-2053.6233 6000.2881 1368.7205 -0.228 -0.946 -0.230 172 227 245
-2045.2079 6004.4121 1360.5992 -0.220 -0.947 -0.235 185 243 253
-2040.0463 6017.3657 1354.5227 0.147 -0.972 -0.183 196 255 255
-2019.6323 6015.9185 1336.0260 -0.163 -0.753 0.637 198 255 252
-2004.3124 6001.0737 1323.5909 0.119 -0.965 -0.233 196 255 252
-1999.5269 6015.1631 1317.7384 0.160 -0.952 -0.260 182 253 252
-1949.2368 5957.3276 1277.8752 0.268 -0.290 -0.919 135 249 252
-1892.4615 5879.0693 1234.2338 -0.178 -0.855 0.486 78 240 244
-1797.3752 5995.4731 1135.1365 0.282 -0.919 -0.276 41 93 139
-1789.3240 6000.3057 1127.2734 0.282 -0.919 -0.276 40 87 129
-1590.9863 5973.1089 948.9445 -0.622 -0.755 0.208 15 22 25
-1490.1201 5783.2212 876.7563 -0.332 -0.801 0.498 214 190 203
-880.2263 4947.8076 407.3972 -0.087 -0.676 0.732 236 180 186
310.3549 4490.4561 -632.1685 0.845 -0.150 0.514 255 84 122
316.8051 2750.0576 -455.1561 0.844 -0.186 -0.502 236 38 65
-4067.9329 5213.0107 3274.7849 -0.452 -0.880 0.146 219 217 206
-2558.8938 6009.0850 1812.1091 -0.312 -0.809 -0.498 177 179 167
-2582.0840 6082.9546 1825.3213 0.381 -0.626 -0.681 178 178 173
-2564.4617 6114.9048 1805.8026 0.381 -0.626 -0.681 27 25 36
-2397.7129 6072.8350 1658.1699 -0.103 -0.966 -0.238 15 63 98
-2384.1987 6090.2998 1643.9587 -0.280 -0.943 -0.181 36 84 119
-2373.1599 6088.9277 1634.0334 -0.280 -0.943 -0.181 88 139 173
-2331.3252 6088.6152 1595.8925 -0.324 -0.943 -0.072 138 190 222
-2219.2610 5964.9131 1506.9443 -0.025 -0.709 0.705 51 169 221
-2215.6255 5981.0107 1501.8947 0.290 -0.806 0.515 43 170 218
-2273.4753 6151.0034 1536.3905 0.817 -0.257 0.517 43 170 211
-2229.6672 6145.2041 1497.0392 0.757 -0.334 -0.562 25 91 130
-2213.5059 6130.3203 1483.8936 -0.567 -0.717 0.406 69 109 141
-2088.1455 5936.8560 1390.3195 0.249 -0.833 -0.495 60 62 100
-2082.8132 5948.8677 1384.1613 0.265 -0.871 -0.414 68 67 106
-2071.8728 5972.3936 1371.6462 0.051 -0.787 0.615 84 127 152
-2066.3003 5983.9990 1365.3126 0.044 -0.788 0.614 155 208 228
-2057.6099 5987.3354 1357.0233 0.036 -0.761 0.648 174 235 249
-2045.6117 5981.7798 1346.6729 0.021 -0.770 0.637 183 248 253
-2047.7051 6014.1948 1345.0948 0.400 -0.916 -0.001 190 255 255
-2043.8375 6030.7070 1339.7888 0.128 -0.988 0.085 189 255 254
-2024.2162 6004.3975 1324.7153 -0.173 -0.756 0.631 189 255 253
-1982.0114 5942.7842 1292.8331 0.844 -0.529 -0.082 168 252 252
-1976.0433 5953.3315 1286.2523 0.844 -0.529 -0.082 156 249 252
-2016.0570 6119.6167 1304.8715 0.251 -0.277 -0.927 125 246 251
-2097.1487 6375.1987 1351.3655 0.143 -0.948 0.283 102 239 244
-2092.2766 6480.7983 1335.5564 0.044 -0.255 -0.966 70 214 249
-1590.0980 5973.6108 931.8915 -0.506 -0.762 0.405 33 34 39
-1396.0403 6765.1875 669.6318 -0.622 -0.782 -0.046 236 210 215
-1389.7875 6782.3613 662.0780 -0.631 -0.775 0.034 244 219 223
-1118.4642 7228.8496 366.4472 0.821 -0.572 0.001 234 142 152
39.5405 4773.7725 -426.0554 0.763 -0.494 -0.416 251 35 88
418.8963 3433.0417 -627.9471 0.991 -0.126 0.051 195 37 51
553.9725 4526.3779 -868.8575 0.985 -0.113 0.127 212 55 64
-4079.9634 5215.2437 3268.7031 -0.438 -0.873 0.215 217 217 209
-2563.6057 5998.9917 1800.2512 -0.105 -0.904 -0.415 180 178 172
-2573.3911 6113.6763 1796.5410 0.416 -0.629 -0.657 44 40 41
-2406.7651 6072.3398 1649.2153 0.495 -0.840 -0.224 16 63 96
-2400.3474 6081.8384 1642.3198 0.083 -0.943 -0.323 26 73 106
-2391.4519 6085.5479 1633.8031 0.083 -0.943 -0.323 59 107 138
-2382.5562 6089.2568 1625.2863 0.083 -0.943 -0.323 115 162 192
-2377.6582 6102.4668 1619.3669 0.082 -0.944 -0.321 143 192 214
-2334.3298 6175.1270 1571.8722 0.795 -0.479 0.372 58 146 184
-2287.6379 6086.1426 1539.1124 -0.447 -0.875 0.188 53 159 194
-2271.9275 6124.1636 1520.6053 0.817 -0.257 0.517 30 127 160
-2233.2810 6053.3921 1493.1731 0.796 -0.163 0.583 28 109 147
-2226.4895 6113.8853 1480.3209 -0.633 -0.758 0.155 27 67 108
-2098.8723 5916.1401 1385.7756 -0.128 -0.937 -0.324 84 94 112
-2097.7324 5938.9336 1382.2266 0.230 -0.871 -0.434 83 93 112
-2093.4993 5953.8086 1376.7300 0.256 -0.872 -0.418 84 94 113
-2081.0991 5947.3203 1366.1418 0.282 -0.856 -0.433 81 97 114
-2080.1409 5970.9541 1362.6660 0.018 -0.784 0.620 95 146 154
-2069.0305 5967.8418 1352.8816 -0.077 -0.720 0.689 148 211 216
-2040.8754 5972.0601 1326.7540 0.086 -0.683 0.726 162 255 255
-1988.1677 5909.1392 1285.6406 0.403 -0.913 -0.071 129 246 245
-1974.5465 5898.5239 1274.3940 0.568 -0.822 0.031 121 251 253
-1968.7782 5909.3960 1267.9390 0.576 -0.817 0.017 114 249 255
-2082.7837 6309.1123 1327.8358 -0.004 -0.878 0.479 84 236 247
-1827.3184 6215.1167 1105.3330 -0.007 -0.557 0.831 38 63 89
-1598.1222 5972.5776 923.1323 -0.514 -0.764 0.390 27 30 35
-1407.9463 6777.6025 661.1374 -0.625 -0.780 -0.024 231 209 211
-1406.5515 6816.1021 655.6263 -0.644 -0.764 0.037 241 219 221
-1138.8671 7232.3975 365.7913 0.822 -0.565 0.071 224 128 139
173.3597 3432.5193 -411.8351 0.663 -0.388 0.641 255 183 198
-2568.5603 5989.4736 1788.5924 -0.124 -0.903 -0.410 182 177 173
-2585.5867 6119.6162 1789.4355 0.360 -0.631 -0.687 48 44 41
-2590.1511 6153.4131 1789.7845 0.298 -0.652 -0.697 24 20 20
-2372.7534 5923.9438 1617.6975 -0.566 -0.777 -0.274 12 55 86
-2411.1050 6085.2998 1634.4407 0.538 -0.819 -0.201 35 76 109
-2403.5356 6092.1484 1626.7776 0.538 -0.819 -0.201 77 118 151
-2395.9578 6099.0044 1619.1060 0.538 -0.819 -0.201 125 167 198
-2398.6230 6130.1372 1618.0259 0.514 -0.819 -0.254 147 191 213
-2377.5581 6130.0845 1598.8530 -0.475 -0.827 0.299 143 195 216
-2329.0740 6039.0142 1564.9675 0.555 -0.740 0.380 141 197 222
-2292.5740 6075.7827 1527.5938 -0.101 -0.938 0.332 52 147 180
-2235.7493 6062.4951 1477.3534 0.651 -0.406 0.641 18 66 109
-2235.2671 6112.9863 1471.2272 -0.633 -0.759 0.153 30 58 101
-2107.9812 5917.0000 1377.4128 -0.124 -0.938 -0.324 126 138 152
-2108.4153 5943.8159 1374.7874 0.265 -0.873 -0.409 127 139 155
-2102.7944 5955.0640 1368.4030 0.256 -0.872 -0.418 127 139 155
-2090.3408 5948.4941 1357.8043 0.282 -0.856 -0.433 123 142 155
-2087.8674 5968.0791 1353.3462 -0.243 -0.889 0.388 112 163 169
-2019.8418 5944.9604 1294.0151 -0.136 -0.769 0.624 134 253 254
-1997.4001 5910.7080 1277.4408 0.364 -0.929 -0.058 124 251 252
-2070.3318 6220.3979 1308.9602 0.298 -0.610 0.734 85 236 251
-1975.5569 6549.2700 1185.6272 0.042 -0.449 0.893 33 63 90
-1810.4087 6196.7690 1074.9696 -0.055 -0.633 0.772 16 40 66
-1805.5597 6212.6719 1068.7635 -0.083 -0.658 0.749 15 39 65
-1610.5588 5986.4229 916.7054 -0.544 -0.784 0.298 26 29 34
-1598.3137 5976.7466 906.6465 -0.544 -0.782 0.304 104 99 107
-1417.7626 6780.7856 651.6955 -0.633 -0.771 0.065 231 209 211
-1391.6316 6755.4932 630.7529 -0.568 -0.810 0.147 246 224 226
168.8651 3396.8008 -411.7174 -0.546 -0.783 0.298 254 174 190
174.3705 3293.2930 -405.0711 -0.058 -0.581 0.812 250 112 145
-2600.8989 6132.3218 1784.3328 0.380 -0.595 -0.708 50 45 41
-2605.1965 6165.4873 1784.4221 0.385 -0.619 -0.685 25 20 19
-2605.0422 6189.0591 1781.5676 -0.396 -0.774 0.494 30 28 31
-2587.6240 6174.5117 1767.4019 -0.395 -0.775 0.494 30 33 41
-2446.5359 5977.3452 1661.7932 -0.429 -0.821 -0.377 13 44 70
-2440.4910 5987.2271 1655.1577 -0.614 -0.754 -0.233 10 44 73
