ply
format ascii 1.0
element vertex 794
property float x
property float y
property float z
property float nx
property float ny
property float nz
property uchar diffuse_red
property uchar diffuse_green
property uchar diffuse_blue
end_header
-2728.6497 3389.8447 -67.8013 0.036 -0.692 0.721 102 62 65
-2704.6970 3428.5676 -88.5938 0.729 -0.452 0.514 14 5 3
-2673.2869 3401.7544 -91.2024 0.726 -0.164 0.668 11 6 3
-2675.6191 3415.8196 -94.8457 0.719 -0.183 0.671 11 6 3
-2523.2024 3461.1482 -163.2556 0.679 -0.311 0.665 63 49 56
-2517.6360 3465.2607 -166.5349 0.681 -0.315 0.661 76 60 68
-2463.5349 3484.8169 -191.9189 0.828 0.071 0.556 174 139 145
-2227.2517 3853.2180 -392.7122 0.871 0.176 0.459 218 187 184
-2230.2896 3871.4956 -397.4442 0.871 0.180 0.458 220 189 186
-2629.0388 2033.7487 320.9720 0.836 0.223 0.502 57 42 34
-2632.1641 2042.7800 319.1912 0.838 0.213 0.503 76 52 39
-2632.7388 2050.0574 317.0709 0.838 0.213 0.503 89 61 49
-2633.6865 2057.6199 314.9912 0.776 0.151 0.613 106 76 65
-2631.8701 2063.2520 312.5531 0.777 0.153 0.611 117 87 76
-3271.0337 2843.8042 288.7749 0.600 -0.779 0.185 111 65 46
-2654.7803 2808.3210 82.8112 0.346 -0.006 -0.938 164 97 92
-2685.3762 2847.9658 80.9450 0.945 0.146 -0.293 203 131 137
-2699.7043 2881.0371 75.4410 0.748 -0.082 0.658 245 168 152
-2677.2114 3002.3376 28.7919 0.834 -0.198 -0.515 153 93 87
-2597.8979 3187.7625 -58.3600 0.002 -0.987 0.159 125 84 88
-2665.7175 3288.3130 -66.5419 0.341 -0.917 0.207 122 81 85
-2703.2563 3343.3447 -70.8714 0.047 -0.689 0.724 116 75 79
-2693.4275 3342.7434 -74.1451 0.035 -0.703 0.710 112 72 75
-2682.1150 3395.7468 -95.0522 0.583 -0.611 0.536 13 5 3
-2664.0786 3385.0884 -98.0097 0.731 -0.152 0.665 10 6 3
-2658.8125 3389.8452 -101.3848 0.727 -0.148 0.670 12 7 4
-2663.2056 3406.3855 -105.1153 0.707 -0.180 0.684 24 11 13
-2563.2144 3614.0225 -206.6481 0.811 -0.567 -0.145 174 132 141
-2483.8896 3529.9214 -207.7734 0.816 -0.016 0.578 187 146 148
-2508.1384 3586.6938 -217.3447 0.901 -0.064 0.429 205 161 158
-2289.6082 3884.2607 -389.3789 0.449 -0.167 0.878 213 178 174
-1759.3328 4511.3159 -776.5038 0.068 -0.991 0.115 202 179 171
-2626.5005 2001.7295 323.4718 0.520 -0.817 0.250 42 33 24
-2625.7009 2028.3002 314.6727 0.834 0.212 0.509 48 33 25
-2629.8604 2038.0303 313.0127 0.837 0.209 0.505 61 37 24
-2621.6157 2039.1108 309.7734 0.712 0.155 0.685 68 40 28
-2643.5273 2075.2625 305.8714 0.762 0.179 0.622 114 86 74
-2694.5276 2852.5886 74.5561 0.964 -0.192 -0.184 241 170 175
-2693.6377 2861.0581 71.5285 0.937 0.143 -0.318 254 178 166
-2703.5464 3157.0801 -19.8991 0.333 -0.684 -0.650 145 99 102
-2691.1416 3184.8511 -33.1550 0.364 -0.931 -0.019 148 106 107
-2628.8079 3208.0762 -62.4719 0.149 -0.951 0.270 150 109 113
-2614.4253 3201.8804 -65.5320 0.179 -0.955 0.238 147 106 110
-2674.0950 3380.5876 -101.8891 0.508 -0.706 0.494 14 8 4
-2659.6965 3374.3123 -104.9291 0.727 -0.153 0.669 12 9 6
-2646.9431 3369.9487 -108.0050 0.641 -0.116 0.759 10 8 4
-2647.7822 3393.2236 -115.1725 0.676 -0.187 0.713 42 30 32
-2645.5188 3401.6340 -118.6630 0.674 -0.206 0.709 78 66 68
-2494.9419 3401.6025 -171.4860 0.586 -0.090 -0.805 129 99 112
-2491.3435 3442.0066 -185.7020 0.904 -0.416 -0.101 120 84 95
-2551.5718 3592.3145 -212.7582 0.713 -0.686 -0.146 185 137 147
-2503.6338 3574.5781 -223.8920 0.896 -0.068 0.439 210 166 163
-2511.0066 3596.5955 -228.3639 0.819 0.012 0.573 210 166 163
-2233.7991 3773.0728 -382.2063 0.615 -0.161 0.772 216 181 177
-2260.6238 3842.9546 -395.1982 0.487 -0.152 0.860 221 186 182
-2101.4490 3617.1501 -378.6554 0.164 -0.832 -0.531 223 189 187
-1750.4130 4479.4307 -778.2698 0.061 -0.995 0.085 206 182 174
-1758.1292 4516.2544 -787.3680 0.077 -0.868 0.490 203 183 176
-1742.0913 4579.8652 -813.3888 0.842 -0.482 0.240 194 175 168
-1707.9187 4543.0913 -813.5893 0.605 -0.557 0.569 187 168 162
-1714.7180 4578.8198 -822.6583 0.578 -0.555 0.598 187 168 162
-1711.7894 4588.8706 -826.9080 0.685 -0.430 0.588 187 168 162
-1710.5872 4603.5776 -832.0449 0.734 -0.354 0.579 187 168 162
-2617.7021 2040.0734 301.2306 0.540 -0.036 0.841 62 32 21
-2643.3745 2752.0471 80.9347 0.517 -0.308 -0.799 113 52 10
-2682.3115 2826.7346 70.4796 0.477 -0.192 -0.858 207 140 135
-2692.6384 2846.2410 67.8040 0.946 0.136 -0.295 241 169 174
-2695.4912 2858.4133 64.8804 0.937 0.143 -0.318 245 170 157
-2693.8179 3151.6196 -30.1177 0.353 -0.622 -0.699 150 104 107
-2686.3474 3174.3977 -40.0607 0.304 -0.952 -0.042 153 111 112
-2667.2517 3290.3315 -84.0591 0.220 -0.973 0.065 142 101 105
-2663.6909 3362.6057 -108.5750 0.427 -0.703 0.570 14 7 4
-2663.5989 3373.5713 -112.1381 0.405 -0.752 0.521 11 9 4
-2648.3145 3366.1624 -115.0889 0.647 -0.114 0.754 10 8 3
-2642.7007 3392.6702 -125.5846 0.679 -0.205 0.705 98 86 88
-2459.7842 3339.2791 -172.2565 0.571 0.074 -0.817 146 109 124
-2500.2939 3403.0100 -178.6346 0.597 -0.083 -0.798 143 107 122
-2507.3987 3434.8269 -186.3991 0.932 -0.340 0.130 115 78 93
-1764.6527 4540.9229 -801.8932 0.735 -0.001 0.679 208 189 182
-1773.4301 4580.8662 -811.6907 0.770 0.029 0.638 207 188 181
-1690.6396 4470.6934 -805.1203 0.905 -0.126 -0.405 204 185 179
-1690.7142 4488.2280 -810.7405 0.905 -0.126 -0.405 203 184 178
-1690.7891 4505.8623 -816.3928 0.905 -0.126 -0.405 204 185 179
-1692.5076 4527.9683 -822.9109 0.941 -0.005 -0.337 204 185 179
-1694.8611 4551.9067 -829.7976 0.941 -0.005 -0.337 204 185 179
-1676.4805 4555.8545 -837.4863 0.974 0.084 -0.209 204 177 174
-2276.5139 1786.0206 258.0008 0.669 0.467 -0.578 49 25 12
-2650.3911 2745.5801 77.5608 0.949 0.187 -0.254 113 50 19
-2684.8325 2815.5640 66.8928 0.914 0.169 -0.370 161 97 73
-2687.3799 2827.3057 63.9804 0.921 0.171 -0.351 207 140 134
-2695.4963 2853.9353 58.1879 0.921 0.168 -0.352 207 132 119
-2703.0100 3156.7725 -37.1426 0.786 0.139 -0.603 157 111 114
-2655.0110 3144.5669 -49.8709 -0.064 -0.939 0.338 160 118 119
-2636.7832 3238.7114 -86.6510 0.537 -0.157 -0.829 155 114 118
-2690.7141 3334.3704 -98.8515 -0.073 -0.978 0.196 137 98 103
-2647.0657 3326.2620 -111.3934 0.118 -0.984 0.135 19 5 4
-2663.5393 3356.9954 -115.6097 0.427 -0.703 0.570 15 7 4
-2666.0891 3371.1233 -119.2930 0.430 -0.730 0.531 12 9 4
-2639.1858 3349.6790 -121.7044 0.687 -0.188 0.701 10 8 3
-2633.9172 3376.4363 -132.1884 0.665 -0.190 0.722 91 79 81
-2610.3948 3403.1665 -149.0054 0.987 -0.088 0.132 145 123 128
-2466.4468 3342.4624 -179.3832 0.507 0.020 -0.861 155 113 129
-2496.5559 3392.5945 -185.1360 0.593 -0.063 -0.803 145 103 120
-2500.1414 3408.4600 -189.0214 0.598 -0.087 -0.796 125 83 99
-2504.6965 3425.6694 -193.0045 0.598 -0.063 -0.799 117 75 89
-1769.1705 4491.3555 -793.1945 0.868 0.222 0.444 222 194 185
-1793.0099 4568.7388 -809.9390 0.757 0.016 0.653 220 194 187
-1778.3894 4655.2305 -842.9908 0.795 0.143 0.590 207 187 180
-2194.3862 1715.0493 246.7530 0.688 0.490 -0.536 46 33 25
-2682.8342 2809.1965 60.2099 0.902 0.387 -0.190 161 96 73
-2685.8403 2821.3623 57.2975 0.962 0.257 -0.092 207 139 131
-2688.0776 2832.8191 54.3495 0.961 0.261 -0.087 238 167 168
-2697.5969 2851.5439 51.5581 0.921 0.168 -0.352 164 91 76
-2722.1829 3172.9248 -44.3323 0.293 -0.669 -0.683 162 114 117
-2753.7141 3239.4976 -55.0560 0.713 0.205 -0.671 165 122 122
-2650.4023 3324.8887 -118.5067 0.118 -0.984 0.135 22 5 3
-2662.2644 3350.0503 -122.5789 0.434 -0.687 0.583 17 6 3
-2664.1523 3363.3494 -126.2460 0.428 -0.726 0.537 15 8 5
-2643.0598 3348.9497 -128.8604 0.069 -0.896 0.439 16 10 6
-2623.7456 3369.6138 -142.2492 0.851 0.277 0.445 119 104 107
-2585.8420 3389.3479 -161.7622 0.445 -0.753 0.484 153 114 120
-2479.1755 3353.4678 -186.9817 0.503 0.014 -0.864 150 104 118
-2508.1743 3413.3477 -196.4070 0.589 -0.081 -0.804 124 79 92
-2513.4524 3431.5054 -200.4802 0.621 -0.021 -0.784 122 77 90
-2583.4736 3569.8601 -221.2142 0.977 0.031 -0.212 192 135 145
-1786.8947 4596.3940 -830.0212 0.760 0.049 0.648 219 197 190
-1739.1997 4526.4717 -823.7972 0.746 0.257 0.614 213 191 185
-1737.1765 4538.6777 -828.4614 0.735 0.274 0.620 213 191 185
-1726.6553 4528.8057 -828.8919 0.730 0.270 0.628 206 184 179
-1733.0234 4562.9746 -837.7891 0.730 0.271 0.627 204 181 177
-1745.8429 4686.6064 -873.5151 0.611 -0.057 0.789 205 182 177
-1692.1606 4561.0337 -851.2847 0.094 -0.996 -0.009 206 181 177
-1705.0912 4613.6748 -863.9133 0.085 -0.992 0.091 222 193 191
-2700.2456 2896.7058 29.6072 0.965 -0.261 0.028 171 92 77
-2829.8010 3243.5955 -38.9922 -0.004 -0.823 -0.568 169 113 115
-2665.7310 3272.7295 -104.9314 0.123 -0.900 0.418 176 123 122
-2664.5735 3282.1267 -108.3951 0.196 -0.932 0.304 172 120 119
-2685.3196 3339.1675 -119.8669 -0.038 -0.901 0.432 119 77 79
-2655.3987 3325.4927 -125.6978 0.112 -0.989 0.091 35 8 6
-2654.1802 3334.9714 -129.2092 0.159 -0.917 0.365 22 0 0
-2644.4141 3345.1782 -135.8980 0.393 -0.712 0.582 29 17 14
-2626.1501 3356.0593 -145.7299 -0.156 -0.653 0.741 32 18 18
-2505.1970 3326.4661 -177.6802 0.609 -0.140 0.781 166 113 118
-2455.1167 3295.2605 -184.7264 0.608 -0.227 0.761 152 102 107
-2443.8677 3291.6323 -187.4121 0.601 -0.250 0.759 152 102 108
-2480.6343 3349.8872 -193.7696 0.477 0.140 -0.867 149 99 105
-2585.0718 3566.1060 -228.3811 0.977 0.024 -0.213 192 143 141
-1708.8054 4560.3521 -854.1337 0.790 0.328 0.518 224 192 189
-1718.1670 4639.0752 -876.5947 0.050 -0.995 0.085 227 192 190
-1721.5331 4666.3213 -884.3252 0.958 0.023 -0.285 227 192 190
-2365.9331 1821.6349 259.2158 0.741 0.107 0.663 50 36 25
-2352.5127 1891.9454 231.5873 0.891 -0.277 0.358 130 94 70
-2338.7029 1888.2146 228.0832 0.843 -0.265 0.468 121 85 61
-2332.1648 1889.6931 225.3611 0.811 -0.287 0.510 127 91 67
-2856.6716 2771.8218 115.8649 0.684 -0.521 0.511 93 47 27
-2653.3049 3252.9976 -111.3815 0.169 -0.857 0.487 178 122 121
-2654.9922 3330.5686 -136.2182 0.126 -0.934 0.334 25 2 1
-2621.9509 3345.5298 -152.4281 -0.157 -0.654 0.740 26 12 12
-2440.1577 3281.5237 -193.6762 0.601 -0.250 0.759 142 92 95
-2508.3391 3380.1143 -202.6420 0.473 0.136 -0.870 146 95 100
-2573.2202 3498.1001 -219.0917 0.490 0.152 -0.858 172 122 125
-2600.4529 3580.5574 -236.7865 0.971 -0.076 0.228 197 149 145
-1640.0435 4318.5439 -807.2656 0.739 0.270 0.618 225 191 190
-2334.7188 1779.8013 256.2455 0.805 0.209 0.556 46 34 22
-2354.1392 1822.8600 248.6912 0.781 0.139 0.609 93 77 63
-2370.0994 1839.9230 248.5117 0.775 0.152 0.614 149 121 98
-2369.5522 1888.8210 232.2366 0.918 -0.226 0.325 184 148 124
-2362.4631 1889.9904 229.4378 0.869 -0.414 0.272 171 135 111
-2321.9714 1885.6450 217.0792 0.719 -0.275 0.639 133 97 73
-2321.4756 1891.4780 214.9911 0.557 -0.036 0.830 129 93 69
-2847.1299 2749.7776 111.5848 0.716 -0.597 0.361 97 59 43
-2833.4758 2746.5156 108.0086 0.740 -0.574 0.352 93 47 27
-2825.4275 2748.2795 104.6875 0.758 -0.548 0.354 94 46 26
-2678.3108 2773.4275 46.3164 0.952 0.212 -0.221 126 59 33
-2734.3171 2893.2815 25.9526 0.966 -0.081 -0.244 169 90 75
-2669.6570 3266.8088 -118.9665 0.184 -0.877 0.444 178 122 121
-2646.2896 3260.9216 -124.9866 0.256 -0.851 0.458 163 107 113
-2654.9263 3325.1270 -143.1709 0.419 -0.343 0.841 26 3 2
-2706.7810 3570.2576 -206.1679 0.816 0.565 -0.123 158 101 107
-2441.9277 3267.7351 -196.8185 0.601 -0.250 0.759 141 90 93
-2510.5908 3456.2278 -235.4564 0.811 -0.514 0.279 204 156 152
-2843.9343 1553.0397 497.7074 0.632 -0.023 -0.775 38 28 18
-2823.5530 1549.2190 492.0646 0.438 -0.466 -0.769 38 28 18
-2805.2883 1552.0260 484.9490 0.283 -0.768 -0.574 34 24 14
-2370.4604 1837.3877 243.3363 0.962 -0.066 0.265 162 133 111
-2369.6692 1842.9329 241.2360 0.960 -0.063 0.271 171 141 117
-2368.7146 1848.3771 239.1135 0.960 -0.063 0.271 184 152 127
-2384.1919 1865.2930 238.7678 0.987 -0.097 0.125 191 159 134
-2368.5364 1885.2411 226.8722 0.918 -0.226 0.325 188 152 128
-2341.3877 1884.4458 217.9370 0.880 -0.345 0.326 172 136 112
-2304.1416 1882.1680 206.0706 0.870 -0.304 0.388 122 85 61
-2325.9585 1916.8466 202.0033 0.963 -0.164 0.212 140 93 75
-2351.0991 1941.7711 202.2852 0.485 -0.162 0.860 140 93 75
-3045.4116 2894.8538 122.5926 0.696 -0.636 -0.334 98 65 48
-3028.5317 2889.4141 118.6710 0.828 -0.528 -0.188 98 65 48
-3037.0598 2906.6650 115.8601 0.337 -0.849 0.407 98 65 48
-2697.7346 2787.8865 40.1440 -0.164 -0.979 0.118 126 59 33
-2672.9590 2818.6489 21.5851 0.969 0.007 -0.247 169 90 75
-2579.4214 3177.4761 -128.6728 0.737 -0.675 0.041 167 112 118
-2681.9934 3533.1873 -211.4589 0.815 0.565 -0.130 153 96 102
-2392.9343 3339.3455 -245.3416 0.790 0.089 0.607 212 164 160
-2850.6155 1553.6538 493.2096 0.637 -0.019 -0.771 47 37 27
-2809.8650 1551.6996 480.1219 0.280 -0.831 -0.481 37 27 17
-2353.9565 1859.7417 224.2255 0.986 0.136 0.095 189 157 132
-2354.4023 1866.1986 222.2332 0.932 0.086 0.351 189 157 132
-2364.4417 1879.4834 221.2089 0.913 -0.311 0.265 191 155 131
-2323.7542 1887.4302 204.8569 0.712 -0.421 0.562 146 110 86
-2309.4951 1883.2343 201.4428 0.853 -0.522 0.026 131 94 71
-2306.6914 1887.3586 199.1291 0.859 -0.512 -0.002 134 88 70
-2301.9949 1890.0947 196.6381 0.854 -0.520 -0.027 136 89 71
-2313.5500 1904.8047 195.6518 0.964 -0.159 0.214 138 91 73
-2292.0942 1895.1654 191.6182 0.768 -0.562 0.305 139 92 74
-3031.6204 2859.0061 121.0651 0.830 -0.114 -0.545 104 71 54
-3032.2820 2869.1057 117.9369 0.830 -0.114 -0.545 104 71 54
-3036.6777 2882.5552 114.9557 0.897 -0.323 -0.303 96 63 46
-3031.3291 2887.3760 111.5529 0.756 -0.573 -0.316 96 63 46
-2859.4683 2743.2163 101.4587 0.092 -0.952 0.291 96 63 46
-2814.8042 2757.2029 81.7621 0.850 -0.337 0.405 87 39 19
-2733.1265 2808.4946 37.2099 -0.280 -0.959 -0.031 114 47 21
-2941.0061 3213.4653 -27.1000 0.910 0.410 -0.060 158 94 92
-2688.1567 3267.0715 -130.1191 -0.015 -0.954 0.298 186 131 128
-2570.6624 3162.1670 -134.9136 0.751 -0.657 0.064 171 117 123
-2622.3152 3318.9011 -169.5118 0.334 -0.770 0.544 14 5 4
-2830.1760 1530.2501 487.5984 0.839 0.027 -0.543 47 37 27
-2763.5669 1516.1697 469.9524 0.579 -0.319 -0.751 47 37 27
-2809.5349 1549.0522 474.4107 0.298 -0.818 -0.492 42 32 22
-2306.7156 1724.1599 247.4331 0.958 -0.231 -0.167 43 35 24
-2475.2659 1922.9401 237.7181 0.988 0.152 -0.019 187 155 130
-2351.9326 1861.6360 216.7855 0.932 0.086 0.351 189 157 132
-2351.9238 1867.7738 214.7372 0.984 0.163 0.076 190 156 131
-2349.3005 1872.0696 212.4260 0.871 -0.329 0.364 191 155 131
-2347.1646 1876.7162 210.1612 0.870 -0.328 0.367 191 155 131
-2316.9089 1891.9781 194.9289 0.986 -0.009 -0.168 139 95 76
-2317.2000 1898.3964 192.8878 0.986 -0.009 -0.168 139 92 74
-2316.8381 1904.3533 190.7814 0.988 0.005 -0.156 136 89 71
-2318.2202 1911.6144 188.8252 0.964 0.144 0.226 134 87 69
-2323.1604 1921.5397 187.1745 0.933 0.092 0.347 137 90 72
-3036.9443 2868.7275 110.9151 0.830 -0.114 -0.545 104 71 54
-3044.0120 2894.1353 104.8187 0.747 -0.542 -0.385 101 68 51
-2946.0298 2816.2498 97.9133 0.860 -0.278 -0.428 103 67 51
-2820.0784 2748.6545 78.1990 0.881 -0.395 0.260 90 42 22
-2818.3054 2756.0991 75.1237 0.891 -0.381 0.247 87 39 19
-2891.8105 3167.9885 -37.4809 0.347 -0.630 0.695 162 100 98
-2634.1321 3199.5383 -134.4096 0.452 -0.118 -0.884 186 131 128
-2568.0500 3154.0698 -141.4193 0.760 -0.650 0.013 176 122 128
-2613.6643 3303.1440 -175.7985 0.408 -0.491 0.769 14 4 3
-2606.3369 3305.1372 -178.9201 0.412 -0.486 0.771 17 3 3
-2594.8667 3302.0835 -181.7492 0.430 -0.444 0.786 31 11 13
-2792.8899 1555.7623 460.1364 0.533 0.133 -0.836 45 35 25
-2827.7627 1589.8010 460.3809 0.664 0.225 -0.713 42 29 20
-2296.5554 1709.2089 243.1902 0.903 -0.309 0.297 43 35 24
-2297.0991 1715.2441 241.3520 0.856 -0.301 0.420 43 35 24
-2318.9021 1896.7804 187.8782 0.988 0.002 -0.152 163 118 99
-2320.8740 1916.9487 181.7870 0.927 0.091 0.364 137 90 72
-3046.9470 2892.2043 97.6814 0.881 -0.372 -0.291 108 75 58
-2937.4211 2804.1711 90.5979 0.688 -0.360 -0.631 110 74 58
-2836.8281 2732.4377 81.0404 -0.199 -0.976 -0.086 121 75 55
-2823.3403 2756.3901 68.5249 0.844 -0.487 0.226 87 39 19
-2783.9478 2982.2329 -20.1927 0.726 -0.539 -0.427 169 102 99
-2820.8318 3059.3130 -33.6803 0.865 0.479 -0.151 170 106 104
-2535.5508 3101.0894 -142.8416 0.672 -0.738 -0.067 186 130 130
-2568.6753 3149.7612 -148.0772 0.751 -0.660 -0.002 183 128 134
-2602.1387 3294.7544 -185.4321 0.423 -0.450 0.787 18 4 3
-2591.1279 3292.2417 -188.2649 0.439 -0.433 0.787 25 6 8
-2727.6091 3608.7119 -248.6309 0.816 0.553 -0.170 196 145 149
-2801.6287 1557.4360 456.0213 0.538 0.128 -0.833 49 39 29
-2810.4497 1567.3773 455.6086 0.501 0.105 -0.859 43 30 21
-2335.9197 1720.8535 246.5280 0.254 -0.941 -0.221 46 37 25
-2325.1052 1719.5566 243.3742 0.233 -0.953 -0.192 46 37 25
-2317.6321 1720.4025 240.6095 0.283 -0.941 -0.187 44 35 23
-2310.0920 1721.1818 237.8449 0.373 -0.853 -0.366 43 34 22
-2388.9590 1826.7990 228.5317 0.649 -0.397 -0.649 170 153 138
-2436.7109 1865.4303 231.4002 0.817 -0.120 -0.564 174 155 138
-2452.5383 1882.4791 230.9247 0.688 -0.058 -0.724 184 156 132
-2433.5288 1875.6908 226.8961 0.801 -0.026 -0.599 186 156 129
-2343.9326 1868.7546 199.4879 0.983 0.112 0.145 190 157 129
-2358.0254 1891.1855 196.6281 0.983 0.136 0.124 193 158 132
-2317.6978 1893.0415 182.6187 0.986 0.012 -0.169 191 147 128
-2319.5088 1900.5754 180.6882 0.988 0.001 -0.152 176 132 114
-2842.8584 2751.6626 68.4055 0.824 -0.481 0.301 100 51 32
-2827.8391 2756.1860 61.9002 0.864 -0.446 0.235 87 39 20
-2771.6094 2822.9219 20.8107 0.265 -0.853 -0.450 114 47 22
-2535.2056 3095.7498 -149.3365 0.329 -0.944 -0.035 187 131 131
-2599.2520 3285.9797 -192.0018 0.423 -0.450 0.787 18 4 2
-2591.2168 3287.0513 -195.0289 0.536 -0.301 0.789 21 4 3
-1831.6813 4070.4500 -710.3848 0.532 -0.814 -0.233 231 198 193
-2340.4827 1721.2070 242.0190 0.240 -0.947 -0.213 48 33 19
-2324.7271 1716.7167 238.3316 0.222 -0.961 -0.168 50 33 19
-2324.1772 1722.0762 236.3416 0.207 -0.965 -0.162 46 29 15
-2319.1748 1724.5338 233.8605 0.200 -0.967 -0.156 38 21 8
-2379.4404 1811.5593 224.3952 0.911 0.114 -0.397 185 160 133
-2334.7473 1871.6716 189.3534 0.617 -0.787 0.027 192 165 133
-2320.2805 1867.4353 186.0059 0.556 -0.813 0.176 189 159 130
-2312.4663 1880.2094 179.1151 0.930 -0.303 0.211 187 151 130
-2329.7036 1974.8859 152.8600 0.165 -0.760 0.628 138 89 79
-2831.1907 2709.9434 70.4204 -0.084 -0.961 -0.262 118 72 57
-2865.3970 2749.5020 68.3671 -0.176 -0.979 -0.105 118 70 54
-2837.5410 2751.6267 58.4520 0.506 -0.816 -0.280 86 37 22
-2658.2554 2755.1875 -1.9506 0.756 -0.622 -0.204 160 94 73
-2811.1636 3039.8152 -47.5025 0.878 0.451 -0.158 179 114 110
-2611.1016 3273.4338 -192.3947 0.502 -0.134 0.854 35 3 2
-2600.9658 3272.0300 -195.2678 0.524 -0.323 0.788 29 7 3
-2598.2432 3279.4849 -198.6824 0.546 -0.300 0.782 22 11 4
-2591.9771 3282.6814 -201.8302 0.546 -0.300 0.782 14 11 1
-1838.4681 3990.4355 -689.4625 0.954 -0.233 0.191 220 192 188
-2346.7188 1711.1810 241.5625 0.969 0.179 -0.169 48 34 18
-2354.3110 1721.7837 240.4640 0.275 -0.949 0.153 49 33 17
-2345.8257 1722.0580 237.5837 0.291 -0.935 0.202 50 33 17
-2327.2637 1715.7719 233.6163 0.278 -0.952 -0.131 50 33 17
-2322.7893 1718.5758 231.1965 0.328 -0.916 -0.232 44 27 11
-2329.7998 1865.3154 183.7792 0.618 -0.782 0.085 191 165 132
-2319.6533 1864.1724 180.8335 0.554 -0.817 0.160 189 160 128
-2312.7209 1865.3046 178.1726 0.572 -0.804 0.161 182 153 123
-2312.8875 1871.5454 176.1127 0.565 -0.790 0.239 177 148 119
-2311.2776 1876.5160 173.8997 0.567 -0.786 0.248 185 152 130
-2669.4312 2708.1416 9.7671 -0.158 -0.979 0.128 101 36 16
-2618.3962 3192.2673 -171.0347 0.518 -0.095 -0.850 176 125 122
-2599.2280 3264.6992 -201.8735 0.497 -0.154 0.854 29 6 1
-2595.8564 3271.3533 -205.2356 0.540 -0.301 0.786 21 11 2
-2589.5525 3274.4863 -208.3679 0.540 -0.301 0.786 16 15 3
-2585.8931 3345.9009 -233.7676 -0.235 -0.834 0.499 188 139 135
-1801.6471 3989.6233 -709.4968 0.962 0.239 -0.135 215 186 182
-1791.3584 4054.2490 -734.7737 0.483 -0.871 -0.094 226 197 191
-1782.6870 4049.6226 -736.0546 0.286 -0.569 -0.771 227 196 191
-1779.8518 4058.0154 -739.8297 0.275 -0.580 -0.767 230 197 192
-2315.0151 1682.7041 234.9953 0.964 0.052 -0.259 45 33 24
-2341.1206 1705.0153 235.9349 0.962 0.177 -0.206 48 34 18
-2326.3567 1706.9069 230.4669 0.978 0.187 -0.088 50 33 17
-2330.6968 1715.4055 228.9936 0.278 -0.952 -0.131 50 33 15
-2358.7214 1883.1282 181.0869 0.278 -0.419 0.865 191 165 132
-2305.9810 1957.2461 138.6356 0.235 -0.774 0.588 140 100 87
-2860.7148 2736.7642 54.6910 -0.173 -0.970 -0.172 119 70 55
-2594.7561 3254.1250 -208.2387 0.514 -0.327 0.793 29 7 2
-2589.1089 3258.0212 -211.4097 0.429 -0.451 0.783 19 11 4
-2582.7329 3261.0315 -214.5173 0.537 -0.300 0.789 15 15 5
-2577.1519 3264.9829 -217.6854 0.441 -0.440 0.782 26 21 13
-1796.3999 3942.2183 -703.2289 0.963 0.128 -0.238 188 160 156
-1781.9486 3925.1484 -702.1436 0.933 0.225 -0.281 171 143 139
-1797.5431 3973.1372 -713.3750 0.966 0.235 -0.109 165 137 133
-1810.8496 4030.9878 -728.7094 0.999 0.015 -0.031 184 156 149
-1795.3685 4055.3813 -742.0676 0.604 -0.593 -0.532 227 196 191
-1789.8057 4057.7209 -744.6814 0.286 -0.569 -0.771 227 196 191
-1785.1316 4062.0283 -747.6743 0.399 -0.502 -0.767 230 197 192
-1781.2721 4068.1599 -751.0215 0.405 -0.509 -0.759 232 197 193
-1779.3623 4078.6987 -755.2312 0.464 -0.879 -0.110 233 196 193
-1782.9225 4101.6719 -761.8840 0.497 -0.858 -0.126 232 197 193
-2299.2827 1659.0729 232.1551 0.969 0.120 -0.217 43 34 25
-2300.4111 1665.3253 230.3860 0.970 0.122 -0.210 44 35 26
-2324.8894 1697.7256 227.2740 0.978 0.187 -0.088 50 33 17
-2326.3064 1704.3000 225.4885 0.978 0.187 -0.088 51 34 18
-2357.7571 1776.9606 210.8889 0.562 -0.317 0.764 180 151 121
-2310.7742 1957.9514 133.7853 0.272 -0.774 0.571 135 101 87
-2291.1821 1955.6874 128.1902 -0.143 -0.897 -0.418 142 99 84
-2285.7441 1957.8573 125.6812 -0.178 -0.899 -0.400 142 99 83
-2837.5129 2702.9250 50.5009 0.700 -0.704 -0.119 118 72 57
-2859.9272 2740.8203 44.8407 0.572 -0.685 -0.451 123 74 59
-1844.5675 2129.9668 -76.5232 0.456 -0.316 0.832 176 121 114
-2593.6619 3194.9929 -196.8685 0.219 -0.786 0.578 158 107 104
-2590.1641 3243.4377 -214.5556 0.607 -0.189 0.772 28 6 1
-2585.9316 3248.9968 -217.8305 0.545 -0.298 0.784 19 12 4
-2577.3943 3249.3931 -220.7410 0.539 -0.299 0.788 11 12 2
-2571.9304 3253.4536 -223.9043 0.285 -0.477 0.831 10 5 0
-2564.5515 3255.1917 -226.8965 -0.129 -0.778 0.615 80 63 57
-1903.0609 3905.6389 -664.1290 0.778 0.068 -0.624 233 190 184
-1968.1622 4064.9553 -697.3944 0.725 0.028 -0.688 233 190 184
-1982.7826 4109.0552 -707.7077 0.679 0.003 -0.734 233 190 184
-1803.0474 3949.0601 -711.4730 0.997 0.015 -0.077 142 113 109
-1781.5431 3916.8469 -707.4581 0.933 0.225 -0.281 125 96 92
-1794.6980 3959.4380 -717.7323 0.966 0.235 -0.109 113 84 80
-1814.5525 4016.8904 -730.9058 0.990 0.106 0.097 109 80 74
-1810.6998 4022.9851 -734.2403 1.000 -0.001 -0.031 120 91 85
-2305.8958 1649.6912 231.7749 0.977 0.171 -0.126 42 33 24
-2294.5261 1648.0759 228.6527 0.951 0.242 -0.191 42 33 24
-2328.5215 1697.4891 222.6948 0.979 0.014 -0.204 53 35 21
-2328.7898 1703.3252 220.7797 0.982 0.019 -0.189 78 60 46
-2325.0115 1953.0657 133.8908 -0.044 -0.952 0.302 84 59 41
-2315.3071 1958.4512 128.9056 0.231 -0.592 0.772 122 95 78
-2305.5491 1957.3833 126.1167 0.248 -0.777 0.579 139 110 93
-2299.4036 1959.0469 123.5590 0.066 -0.837 0.543 154 113 97
-2285.6592 1954.8466 120.5557 0.087 -0.818 0.569 154 111 95
-2279.6948 1956.5940 118.0277 0.317 -0.823 0.472 154 108 93
-2839.8782 2700.8169 43.8709 0.725 -0.672 -0.152 117 71 56
-2585.5952 3180.4683 -202.8815 0.380 -0.795 0.473 170 119 116
-2583.6257 3219.9338 -217.0560 0.392 -0.603 0.695 74 39 38
-2585.5139 3232.7117 -220.8286 0.607 -0.189 0.772 26 3 1
-2582.1399 3239.2634 -224.1670 0.545 -0.298 0.784 17 10 2
-2573.2026 3239.1619 -227.0219 0.540 -0.296 0.788 12 13 3
-2566.8428 3242.1189 -230.0926 0.400 -0.449 0.799 11 6 0
-2549.0574 3241.8499 -235.7511 -0.133 -0.790 0.598 171 140 138
-2530.7124 3240.7422 -241.3028 -0.138 -0.799 0.585 196 147 144
-1834.1536 3951.3799 -710.2954 0.911 -0.385 0.146 224 196 193
-1831.4248 3959.7300 -714.0420 0.938 -0.310 0.154 205 175 171
-1825.0172 3960.2712 -716.2996 0.913 -0.383 0.137 153 122 119
-1824.0508 3972.4070 -720.7748 0.892 -0.426 0.151 89 60 56
-1802.9705 3941.4387 -716.9681 0.998 0.014 -0.065 83 54 50
-1779.5892 3905.2361 -712.1099 0.937 0.229 -0.264 77 48 44
-1792.4031 3946.9766 -722.2845 0.971 0.222 -0.087 69 40 36
-1808.0792 3995.2122 -733.7619 0.989 0.118 0.083 62 31 26
-1768.6887 4083.4016 -776.7496 -0.109 -0.952 0.286 230 197 192
-1761.5558 4082.0703 -778.5993 -0.107 -0.952 0.286 230 197 192
-2250.9434 1607.5771 222.8733 0.979 -0.008 -0.205 42 33 24
-2324.5259 1732.2181 203.6105 0.242 -0.906 -0.348 187 161 134
-2323.1946 1955.1134 126.4124 -0.154 -0.964 0.218 70 51 31
-2317.8430 1957.4276 123.8942 -0.159 -0.953 0.257 86 67 48
-2304.3174 1953.4976 120.8975 0.262 -0.778 0.571 101 78 58
-2296.5522 1953.9166 118.2558 0.193 -0.788 0.584 138 98 82
-2286.6218 1952.6459 115.4995 0.101 -0.840 0.534 142 99 83
-2277.3752 1951.8638 112.7950 0.319 -0.833 0.453 147 101 86
-2270.6997 1953.0359 110.2442 0.319 -0.833 0.453 150 104 89
-2260.3025 1951.2966 107.4992 -0.001 -0.876 0.483 151 105 90
-1779.9534 2017.0754 -69.6497 0.151 -0.772 0.617 173 114 106
-2780.1411 3346.8889 -205.9783 0.571 0.282 -0.771 154 101 97
-2581.6758 3212.4758 -223.5154 0.417 -0.447 0.792 86 50 48
-2580.8916 3222.0491 -227.0649 0.607 -0.189 0.772 30 7 4
-2578.3677 3229.5806 -230.4706 0.545 -0.298 0.784 20 10 3
-2569.3730 3229.3926 -233.2987 0.540 -0.298 0.788 11 9 2
-2564.2073 3233.7581 -236.4638 0.379 -0.356 0.854 11 6 0
-2558.5176 3237.4861 -239.5778 0.376 -0.359 0.854 61 45 40
-2550.4543 3238.3347 -242.4634 0.423 -0.314 0.850 156 125 123
-2543.1892 3240.1194 -245.4147 0.423 -0.314 0.850 183 144 142
-2540.6511 3247.6304 -248.8180 0.384 -0.346 0.856 196 147 144
-1958.2526 3959.6580 -681.3705 0.179 -0.273 -0.945 223 180 174
-1864.1145 3964.5393 -713.3291 0.116 -0.877 0.465 218 179 173
-1845.8948 3968.7288 -720.6320 0.514 -0.851 -0.103 235 207 204
-1833.6938 3957.0952 -720.5493 0.636 -0.766 -0.089 179 149 146
-1828.0073 3959.1753 -723.0947 0.874 -0.482 0.068 101 71 67
-1825.3110 3967.6101 -726.8670 0.892 -0.426 0.151 53 25 21
-1803.7115 3935.5923 -722.7864 0.997 0.015 -0.077 52 23 19
-1806.9956 3985.2893 -738.8468 0.999 0.016 -0.042 62 31 26
-1759.9526 4070.5090 -783.3286 -0.103 -0.958 0.269 231 195 191
-2304.5898 1950.7651 115.7785 0.270 -0.772 0.576 71 52 32
-2289.7505 1952.1090 110.5665 0.068 -0.766 0.639 125 82 66
-2279.7087 1950.7261 107.8322 0.068 -0.766 0.639 136 93 77
-2269.7292 1949.3517 105.1150 0.068 -0.766 0.639 145 99 84
-2268.9797 1955.0952 102.8890 -0.067 -0.907 0.415 151 105 90
-1936.5796 2259.8962 -108.8558 0.652 0.464 -0.600 186 131 124
-2762.5532 3310.5627 -207.9537 0.627 0.320 -0.710 159 106 100
-2577.6865 3202.6292 -229.7699 0.452 -0.378 0.808 101 64 62
-2577.3970 3212.7532 -233.3636 0.531 -0.307 0.790 40 15 11
-2573.1008 3218.1475 -236.6033 0.540 -0.300 0.787 23 13 6
-2565.0718 3219.0872 -239.4970 0.536 -0.299 0.790 8 7 1
-2558.8528 3222.1636 -242.5504 0.536 -0.299 0.790 8 4 0
-2554.2869 3227.2109 -245.7565 0.376 -0.359 0.854 50 34 29
-2546.5410 3228.4204 -248.6528 0.376 -0.359 0.854 133 105 102
-2537.5156 3238.6067 -255.0627 0.390 -0.352 0.851 196 147 144
-1954.4161 3917.2971 -676.3068 0.262 -0.389 -0.883 224 181 175
-1871.4272 3972.3560 -721.8964 0.391 -0.700 0.597 220 179 172
-1857.7216 3986.1802 -731.0618 0.782 -0.535 0.319 197 168 164
-1836.4814 3955.5591 -727.2674 0.636 -0.766 -0.089 123 94 90
-1820.4164 3935.6372 -725.5176 0.421 -0.642 -0.641 55 28 23
-1815.3126 3938.8574 -728.2639 0.554 -0.692 -0.464 34 9 4
-1814.6952 3951.6499 -732.8853 0.612 -0.655 -0.442 37 12 7
-1804.4885 3972.3215 -743.2991 0.921 0.066 -0.384 60 32 26
-1781.2885 3936.2756 -738.2559 0.999 0.052 -0.009 62 34 28
-2259.4192 1597.3182 217.9812 0.096 -0.709 -0.699 45 34 23
-2300.9939 1639.1992 216.6688 0.893 0.182 -0.411 44 33 22
-2345.1208 1746.2660 193.5351 0.907 -0.004 -0.420 188 161 132
-2278.1204 1794.2821 155.5437 0.499 -0.234 0.834 196 170 138
-2298.6982 1949.6794 108.1358 0.210 -0.828 0.519 98 60 46
-2295.4724 1953.5538 105.7641 0.207 -0.815 0.540 111 69 57
-2287.5679 1953.8330 103.1519 0.207 -0.815 0.540 127 85 72
-2278.1902 1952.9489 100.4749 0.213 -0.811 0.544 139 95 82
-2276.6282 1958.0791 98.1966 0.202 -0.803 0.560 150 106 93
-2273.9053 1962.3165 95.8589 0.073 -0.861 0.503 150 106 93
-2235.6741 1938.8623 91.8372 -0.138 -0.869 -0.475 150 106 93
-2770.4019 2795.8896 -35.5818 -0.259 -0.960 0.107 105 39 21
-2680.6187 2746.7383 -47.0850 -0.225 -0.916 -0.332 171 104 88
-1821.4276 2028.4160 -71.0706 0.942 -0.251 0.223 180 116 112
-1738.1559 1949.6582 -70.2221 0.807 0.439 -0.394 183 124 116
-1783.0228 2001.7192 -74.0216 0.276 -0.893 0.355 182 124 116
-1739.9647 1975.8479 -78.7399 0.186 -0.981 0.062 187 129 120
-2114.7664 2456.3726 -126.3214 0.411 0.272 -0.870 186 131 123
-2718.8701 3234.3713 -204.2254 0.831 0.388 -0.399 162 109 103
-2808.4126 3368.4639 -222.2914 0.627 0.320 -0.710 182 129 124
-2573.6504 3203.1848 -239.6061 0.531 -0.307 0.790 48 22 18
-2567.3765 3206.2041 -242.6508 0.531 -0.307 0.790 25 12 5
-2561.1130 3209.2195 -245.6908 0.531 -0.307 0.790 9 5 0
-2553.5471 3210.6614 -248.5990 0.540 -0.291 0.790 11 5 0
-2552.0269 3219.3286 -252.0921 0.396 -0.327 0.858 42 27 21
-2544.5103 3220.8005 -254.9950 0.396 -0.327 0.858 119 93 89
-2533.2205 3228.2012 -261.1570 0.377 -0.487 0.788 195 147 144
-1875.6929 3769.4060 -658.2958 0.968 0.253 0.000 225 176 172
-1891.9554 3882.0789 -692.2424 0.930 0.304 -0.208 215 165 157
-1874.1405 3900.9001 -704.4461 0.324 -0.893 0.313 201 155 143
-1859.6451 3982.7546 -737.4794 0.827 -0.452 0.335 157 126 121
-1838.3351 3952.0520 -733.6000 0.704 -0.703 -0.100 81 53 49
-1823.5922 3934.9731 -732.3612 0.554 -0.692 -0.464 37 12 7
-1816.4742 3933.9226 -734.2614 0.651 -0.656 -0.381 34 12 6
-1818.2893 3951.8757 -739.9174 0.497 -0.864 0.073 37 17 10
-1804.1757 3935.8259 -738.8356 0.555 -0.825 0.100 43 22 16
-1796.6428 3933.7556 -740.5139 0.522 -0.851 0.060 49 28 22
-1819.7531 3997.7388 -755.3758 0.666 -0.717 -0.206 56 32 25
-2278.2964 1601.1299 217.0547 0.677 -0.450 0.582 44 31 21
-2285.4460 1610.8710 215.9218 0.628 -0.450 0.635 58 42 25
-2301.5403 1631.6104 213.7856 0.899 0.183 -0.399 40 24 5
-2302.8672 1637.8928 212.0154 0.893 0.182 -0.411 51 34 15
-2350.7864 1741.5513 191.0453 0.791 0.325 -0.519 195 168 131
-2278.6863 1791.9858 150.6446 0.743 -0.026 0.668 190 171 145
-2306.1414 1933.4580 110.0157 0.360 -0.555 0.750 42 33 19
-2273.4951 1940.1024 97.3672 0.273 -0.539 0.797 81 46 37
-2265.5774 1940.3046 94.7909 0.273 -0.539 0.797 91 56 47
-2275.1279 1953.9778 93.0469 0.225 -0.800 0.556 129 95 86
-2263.9685 1951.6608 90.3229 -0.052 -0.967 -0.248 134 99 90
-2242.6130 1941.3585 87.1555 -0.044 -0.944 -0.327 140 104 95
-2236.4822 1942.8483 84.6958 -0.077 -0.899 -0.431 145 107 99
-2231.2122 1944.9956 82.2793 -0.061 -0.887 -0.459 156 110 103
-2946.7932 2759.7996 24.7073 0.891 0.406 -0.204 141 88 74
-2761.5371 2792.3015 -45.2546 -0.262 -0.960 0.103 136 72 61
-2736.5750 3259.8252 -216.1366 0.779 0.477 -0.406 191 136 129
-2768.6990 3306.9785 -222.4077 0.779 0.477 -0.406 192 136 129
-2795.6677 3348.5549 -228.3661 0.781 0.470 -0.411 193 136 129
-2561.8740 3184.1621 -245.0509 0.287 -0.683 0.671 67 35 30
-2557.3999 3189.2571 -248.2431 0.650 -0.188 0.736 30 2 1
-2556.5779 3198.6936 -251.7929 0.536 -0.431 0.726 24 5 2
-2549.9282 3201.2051 -254.7730 0.534 -0.304 0.789 25 11 4
-2547.7754 3209.0825 -258.2004 0.386 -0.348 0.854 30 19 10
-2540.1824 3210.4395 -261.0766 0.386 -0.348 0.854 101 92 80
-2533.9595 3213.4214 -264.0855 0.398 -0.336 0.853 172 147 138
-2167.6003 3662.1196 -536.4535 0.302 -0.857 0.417 218 187 177
-1885.5670 3903.1370 -709.7342 0.994 0.064 -0.091 195 141 123
-1867.4756 3935.3970 -726.7061 0.828 0.160 -0.538 223 166 148
-1861.0392 3978.2251 -743.6732 0.812 -0.492 0.313 145 108 106
-1847.6190 3964.1858 -743.0264 0.853 -0.347 0.390 76 45 39
-1828.2208 3937.3726 -739.8184 0.765 -0.619 -0.178 40 14 7
-1815.3876 3924.2332 -739.2995 0.674 -0.634 -0.379 41 24 14
-1822.5785 3953.5723 -747.2515 0.541 -0.835 0.095 37 27 15
-1815.7841 3953.2170 -749.2780 0.558 -0.827 0.073 35 27 14
-1802.0219 3937.8748 -748.2852 0.444 -0.856 0.263 38 26 16
-1783.4657 3912.0540 -745.1567 0.278 -0.910 -0.308 49 31 23
-1750.9561 4146.2871 -837.1008 -0.146 -0.989 0.025 233 192 190
-2287.4165 1598.9197 215.0920 0.453 -0.578 0.679 44 31 22
-2295.7629 1614.7589 212.1755 0.572 -0.411 -0.710 48 32 13
-2360.9587 1728.2095 192.9900 0.948 0.297 0.113 203 177 142
-2268.6694 1933.4949 92.0894 0.276 -0.536 0.798 70 41 30
-2260.8213 1933.7372 89.5342 0.276 -0.536 0.798 77 48 37
-2274.5496 1950.5972 87.9546 0.225 -0.800 0.556 86 58 47
-2268.3032 1952.0876 85.4667 -0.037 -0.968 -0.247 102 73 62
-2261.8093 1953.3679 82.9745 0.464 -0.867 -0.179 124 94 84
-2254.6094 1954.0780 80.4596 0.031 -0.967 -0.253 143 109 100
-2258.0918 1963.1294 78.3878 0.471 -0.844 0.257 142 99 92
-2241.5220 1956.4586 75.5067 -0.021 -0.855 -0.518 147 101 95
-2924.0339 2762.9031 8.0911 0.828 -0.542 0.145 138 88 73
-2711.1807 2767.3772 -60.4764 -0.192 -0.907 -0.375 169 105 95
-2678.1904 2753.7827 -66.1030 0.188 -0.976 0.110 174 109 103
-2075.5981 2230.2388 -72.5456 0.865 0.197 -0.461 179 116 111
-2083.5972 2252.3848 -77.7789 0.885 0.187 -0.426 180 116 111
-2577.8877 3177.1748 -245.8635 0.253 -0.604 0.755 187 134 127
-2560.5142 3177.4763 -251.4377 0.253 -0.604 0.755 74 40 35
-2554.4751 3180.7034 -254.4682 0.514 -0.348 0.784 35 5 2
-2555.1606 3191.8992 -258.1709 0.536 -0.420 0.732 28 6 2
-2546.6555 3192.1875 -260.9491 0.765 -0.317 0.561 29 12 5
-2546.4832 3202.4028 -264.5787 0.390 -0.492 0.778 31 20 10
-2540.6169 3205.8220 -267.6219 0.342 -0.537 0.771 84 79 64
-2533.1128 3207.2554 -270.4858 0.224 -0.683 0.696 166 143 134
-2274.8025 3729.0186 -534.4135 0.861 -0.167 -0.481 219 178 172
-2159.0461 3605.3735 -527.5753 0.866 -0.439 -0.238 214 184 174
-2080.2903 3501.6160 -516.0508 0.335 -0.719 0.609 217 187 177
-2071.8696 3499.6289 -518.0060 0.354 -0.715 0.603 218 188 178
-2060.7727 3493.2075 -519.2516 0.357 -0.721 0.594 217 187 177
-2054.3491 3494.3843 -521.6855 0.357 -0.721 0.594 216 188 180
-2048.9426 3497.2112 -524.3766 0.382 -0.772 0.509 217 191 182
-1842.5962 3822.4946 -703.1794 0.172 -0.983 0.071 197 139 120
-1875.2794 3902.5576 -720.9135 0.517 -0.808 0.282 203 147 126
-1872.0540 3965.5420 -743.9733 0.378 -0.779 -0.500 211 161 146
-1859.9021 3954.3291 -743.8740 0.348 -0.794 -0.499 194 151 144
-1862.3241 3973.4775 -749.8135 0.357 -0.796 -0.488 129 93 91
-1849.3735 3960.4521 -749.3312 0.669 -0.743 0.020 72 41 35
-1836.2589 3946.9414 -748.7307 0.745 -0.614 -0.260 48 23 15
-1842.2332 3973.6790 -756.2082 0.771 -0.590 -0.239 41 25 14
-1836.6802 3976.0967 -758.8024 0.920 -0.354 -0.167 35 26 13
-1819.1006 3952.8499 -756.1997 0.656 -0.642 -0.397 34 28 14
-1621.0054 3877.6638 -792.2407 0.873 0.068 -0.482 233 187 187
-1703.5607 4117.8306 -850.3124 0.857 -0.042 -0.514 234 188 187
-1592.5348 3998.7222 -843.5730 0.300 -0.919 -0.256 225 195 192
-2357.7349 1628.1105 221.2318 0.387 -0.892 0.234 42 32 22
-2347.0581 1627.1621 218.2225 0.313 -0.941 0.125 42 32 22
-2291.1985 1598.8041 210.6994 0.608 -0.760 0.229 42 32 22
-2348.3630 1717.5015 186.8864 0.982 0.180 -0.052 203 177 142
-2269.9968 1931.6085 87.1167 0.510 -0.578 0.637 57 33 23
-2263.8733 1933.1782 84.6479 0.320 -0.672 0.668 59 35 25
-2269.9949 1944.1609 82.7052 -0.196 -0.975 -0.106 58 34 24
-2256.7358 1940.2163 79.9404 -0.061 -0.991 -0.118 73 49 39
-2264.8184 1952.7714 78.0590 0.464 -0.867 -0.179 95 69 59
-2259.7791 1955.1725 75.6375 0.031 -0.967 -0.253 112 83 74
-2255.7646 1958.3640 73.2593 -0.029 -0.871 -0.490 124 86 78
-2245.3188 1956.5042 70.6426 -0.027 -0.847 -0.531 133 93 85
-2239.8835 1958.5475 68.2230 -0.066 -0.871 -0.487 144 102 95
-2246.2202 1969.8833 66.2235 0.171 -0.981 0.091 152 109 102
-2227.6960 1967.8762 61.1294 -0.092 -0.995 -0.042 147 106 98
-2717.0251 2768.6421 -67.0610 0.204 -0.939 0.278 169 105 95
-2069.6108 2213.9233 -74.8214 0.751 0.251 -0.611 179 116 111
-2076.3936 2227.6426 -77.5188 0.751 0.251 -0.611 176 117 111
-1862.6373 2029.1244 -74.6811 0.945 -0.198 0.262 176 117 111
-1860.9364 2033.7725 -76.8469 0.939 -0.209 0.274 176 117 111
-2529.1018 3025.3369 -216.0947 0.142 -0.865 0.481 191 136 129
-2517.6521 3022.1746 -218.5679 0.141 -0.876 0.460 193 136 128
-2559.5552 3171.2786 -257.8435 0.261 -0.605 0.753 80 45 41
-2552.5286 3173.3281 -260.7636 0.373 -0.515 0.772 42 11 8
-2552.7988 3184.0020 -264.4296 0.536 -0.420 0.732 31 10 3
-2543.8240 3183.7195 -267.1401 0.767 -0.313 0.560 31 14 6
-2540.8098 3190.5115 -270.4704 0.560 -0.423 0.712 32 21 11
-2538.5144 3198.1748 -273.8819 0.342 -0.537 0.771 62 58 43
-2533.0291 3202.0212 -276.9508 0.212 -0.693 0.689 160 138 128
-2523.6057 3201.1074 -279.5798 0.224 -0.683 0.696 192 148 142
-2184.5742 3579.8972 -518.8240 0.982 -0.161 -0.102 219 178 172
-2158.3726 3562.1697 -520.7975 0.019 -0.972 -0.236 217 180 172
-2071.9243 3493.7373 -523.8152 0.348 -0.715 0.607 201 168 159
-2045.7479 3462.6738 -521.0946 0.372 -0.545 0.751 199 169 159
-2039.3273 3463.7583 -523.4858 0.372 -0.545 0.751 199 171 160
-2047.2263 3488.3918 -529.6690 0.354 -0.754 0.554 197 172 162
-2025.8947 3464.8647 -528.0800 0.529 -0.682 0.505 196 174 163
-2022.2212 3470.4165 -531.1808 0.875 0.014 0.483 197 171 162
-2020.3716 3479.0088 -534.7792 0.875 0.014 0.483 194 167 158
-1959.1672 3528.3210 -571.2683 0.887 -0.331 0.322 223 188 182
-1847.2623 3824.9067 -710.5204 0.139 -0.990 0.025 191 133 114
-1870.6735 3955.2996 -749.0103 0.241 -0.766 -0.596 199 150 134
-1860.0243 3947.2134 -749.5027 0.246 -0.830 -0.500 185 144 136
-1852.2511 3945.0298 -751.1690 0.327 -0.829 -0.454 112 75 73
-1840.2637 3933.9580 -751.0313 0.262 -0.946 -0.191 67 36 31
-1817.4548 3913.9033 -751.1249 0.350 -0.906 -0.238 40 24 13
-1821.8656 3937.2263 -757.9396 0.605 -0.607 -0.515 35 26 14
-1818.2789 3943.6709 -761.3271 0.605 -0.607 -0.515 34 28 14
-1810.3391 3940.8267 -762.8134 0.672 -0.655 -0.346 37 26 16
-1653.4613 3932.0093 -808.8285 0.952 0.212 0.220 230 190 188
-1666.1411 3976.3335 -820.4341 0.934 0.194 0.300 231 190 188
-2356.1877 1708.5057 186.6123 0.946 0.291 0.144 203 177 142
-2262.1331 1928.9462 79.5592 0.320 -0.672 0.668 44 26 14
-2261.6423 1941.0930 75.1213 -0.061 -0.991 -0.118 56 40 28
-2266.5146 1951.1550 73.0885 0.413 -0.889 -0.196 63 45 33
-2262.6965 1954.5076 70.7170 -0.083 -0.959 -0.272 68 47 35
-2261.7268 1960.0790 68.4496 -0.020 -0.875 -0.484 107 76 66
-2252.2026 1958.9626 65.8780 -0.035 -0.847 -0.531 121 86 76
-2246.2334 1960.6038 63.4404 -0.055 -0.874 -0.482 137 101 92
-2245.7625 1966.5673 61.1899 0.173 -0.979 0.108 148 112 103
-2241.6191 1969.6378 58.8167 0.159 -0.983 0.096 143 108 98
-2243.3074 1990.1219 52.1158 0.124 -0.992 -0.019 146 106 97
-2264.2974 2013.4166 50.4332 0.135 -0.987 0.084 155 110 96
-2282.4231 2034.5446 48.6232 0.631 -0.652 0.421 156 110 95
-2816.3286 2830.8411 -66.0627 -0.376 -0.909 -0.179 136 72 62
-2763.6099 2799.4822 -71.4143 0.354 -0.880 0.316 170 106 96
-2378.9539 2466.4507 -73.6915 0.864 -0.120 -0.489 174 109 105
-2395.3438 2490.2161 -76.9724 0.837 -0.064 -0.543 175 110 106
-2178.3796 2324.8357 -86.1823 0.655 -0.014 -0.756 172 118 111
-1842.3978 2005.9867 -78.3078 0.725 -0.424 0.542 171 118 110
-2269.5635 2701.2507 -190.5853 0.638 -0.702 0.316 189 136 128
-2556.4431 3162.5667 -264.0085 0.253 -0.613 0.748 90 53 50
-2560.0176 3177.0940 -268.0206 0.304 -0.651 0.695 47 16 13
-2555.7170 3182.3716 -271.2214 0.366 -0.551 0.750 33 12 5
-2542.1289 3176.6230 -273.4243 0.767 -0.313 0.560 34 17 9
-2537.8276 3181.8606 -276.6112 0.583 -0.412 0.700 28 20 9
-2538.2256 3192.7163 -280.3170 0.240 -0.745 0.622 47 43 29
-2528.8779 3191.9182 -282.9460 0.237 -0.743 0.626 151 130 120
-2520.5344 3192.2861 -285.6736 0.237 -0.743 0.626 192 148 142
-2512.6802 3203.6294 -292.1208 0.257 -0.631 0.732 196 145 141
-2169.8435 3515.2026 -508.7847 0.773 -0.341 -0.534 215 174 168
-2167.9885 3524.0298 -512.4763 0.777 -0.339 -0.530 215 176 169
-2189.5271 3569.6973 -521.8809 0.980 -0.158 -0.125 218 177 171
-2152.7546 3547.1746 -525.3847 0.224 -0.970 -0.100 215 177 170
-2085.7114 3452.0144 -512.6880 -0.192 -0.979 0.073 210 177 168
-2077.5374 3461.9949 -518.7541 0.973 0.215 -0.080 203 173 163
-2080.1467 3477.7927 -523.5149 0.975 0.192 0.107 195 167 156
-2075.6870 3482.2183 -526.4647 0.364 -0.751 0.552 170 140 129
-2038.6063 3456.6565 -528.9923 0.372 -0.545 0.751 152 124 113
-2034.3942 3461.3303 -531.9526 0.372 -0.549 0.749 138 112 103
-2025.6882 3458.5898 -533.6965 0.520 -0.685 0.509 135 112 102
-2018.1184 3457.6741 -535.7304 0.894 0.006 0.449 136 112 102
-2016.1840 3466.0786 -539.2977 0.895 0.009 0.446 142 115 106
-2013.4343 3473.1492 -542.6482 0.895 0.017 0.446 146 122 112
-2010.3494 3479.6741 -545.9106 0.899 0.018 0.438 145 123 112
-1967.4553 3500.9075 -566.7570 0.211 -0.508 0.835 217 184 177
-1958.8846 3497.9365 -568.3773 0.215 -0.504 0.837 212 178 172
-1840.6376 3686.6543 -671.7715 0.972 0.232 0.025 214 154 144
-1804.8608 3641.9802 -667.1506 0.291 -0.937 -0.193 206 146 135
-1766.9308 3604.7515 -665.8267 0.921 0.382 -0.076 186 126 115
-1792.2859 3680.8704 -684.7858 0.975 0.144 0.168 180 121 107
-1791.9480 3693.0984 -689.2048 0.950 -0.020 0.312 183 127 108
-1801.3929 3738.2554 -702.1949 0.969 0.095 0.230 191 134 114
-1852.3734 3896.2925 -742.0749 0.997 -0.039 0.065 191 135 117
-1858.3706 3922.5063 -749.4554 0.508 -0.674 0.536 192 142 127
-1856.6403 3932.8406 -753.6401 0.584 -0.660 0.472 177 134 127
-1852.6595 3938.5259 -756.8852 0.573 -0.677 0.461 116 79 77
-1845.1277 3936.7881 -758.6172 0.352 -0.910 -0.218 74 44 38
-1820.7719 3941.5603 -767.8842 0.973 -0.136 -0.184 33 26 13
-1803.9215 3919.7361 -765.4314 0.886 -0.350 -0.304 35 24 14
-1669.1226 3960.9817 -821.9531 0.238 -0.970 0.050 219 182 179
-1560.5323 3962.4973 -856.2983 0.291 -0.655 0.697 229 195 193
-1552.4996 3957.1570 -856.9154 0.274 -0.669 0.691 224 190 188
-1542.7102 3947.2822 -856.4797 0.292 -0.644 0.707 226 192 190
-2385.8928 1713.3121 188.2260 0.947 0.270 0.177 201 177 141
-2291.7334 1837.8041 114.9773 0.540 -0.167 0.825 72 67 48
-2288.1453 1841.2443 112.6477 0.571 -0.153 0.807 42 37 18
-2268.4224 1956.0194 65.8897 -0.082 -0.958 -0.275 47 31 17
-2268.6062 1962.4974 63.6523 -0.057 -0.868 -0.493 69 45 32
-2258.7446 1961.1403 61.0793 -0.028 -0.836 -0.548 82 54 42
-2239.2551 1958.4923 55.9822 0.518 -0.773 -0.367 110 80 69
-2242.0688 1967.0402 53.8260 0.166 -0.981 0.103 134 106 94
-2235.2063 1967.9436 51.3811 0.166 -0.981 0.103 138 110 98
-2230.9788 1970.9240 49.0164 0.148 -0.984 0.102 144 114 103
-2235.0459 1980.5302 46.8735 0.996 0.085 0.034 150 116 105
-2243.9805 1994.0858 44.8390 0.974 0.214 -0.079 148 104 89
-2655.3931 2719.1606 -84.5723 0.694 0.000 -0.720 174 107 101
-2177.8711 2313.4150 -88.7311 0.680 0.155 -0.717 179 116 112
-2560.9807 3152.5710 -267.3114 0.351 -0.549 0.759 164 122 117
-2556.5042 3167.8933 -274.1245 0.375 -0.567 0.734 54 23 17
-2539.5171 3168.4585 -279.5847 0.723 -0.319 0.613 36 19 11
-2535.7227 3174.2766 -282.8202 0.583 -0.412 0.700 12 4 0
-2537.3213 3186.5354 -286.6670 0.235 -0.674 0.701 34 32 17
-2528.7798 3186.6985 -289.3697 0.235 -0.674 0.701 125 104 94
-2519.7847 3186.2800 -292.0068 0.233 -0.671 0.704 192 148 142
-2505.0159 3189.2219 -297.6219 0.217 -0.716 0.663 196 145 141
-2167.7480 3494.3440 -510.1243 0.994 -0.087 0.069 214 171 165
-2172.1572 3536.3616 -523.6408 0.987 -0.034 -0.158 217 174 168
-2172.4124 3548.5808 -527.8896 0.987 -0.034 -0.158 213 170 164
-2102.6599 3461.6042 -518.6833 0.177 -0.977 -0.122 199 161 154
-2104.2983 3475.7781 -523.1960 -0.124 -0.978 -0.169 184 150 141
-2071.1506 3445.8574 -522.8629 0.963 0.240 -0.121 150 120 110
-2072.1665 3459.0164 -527.2089 0.980 0.182 -0.081 133 105 94
-2059.9438 3450.8298 -528.0943 0.393 -0.711 0.583 109 79 69
-2029.3066 3447.0667 -536.2482 0.365 -0.560 0.744 75 49 40
-2018.2678 3451.9983 -541.4131 0.493 -0.703 0.513 73 49 39
-2011.0186 3451.5684 -543.5056 0.940 -0.001 0.342 73 49 39
-1966.2850 3492.8250 -571.9694 0.211 -0.508 0.835 188 163 156
-1958.2843 3490.8293 -573.7401 0.209 -0.506 0.837 189 162 153
-1943.9796 3489.6370 -577.7473 0.371 -0.469 0.801 207 173 166
-1933.1989 3494.4558 -582.7922 0.338 -0.436 0.834 222 185 179
-1926.8470 3495.1475 -585.0040 0.338 -0.436 0.834 218 183 177
-1920.3845 3495.6130 -587.1701 0.339 -0.445 0.829 218 181 175
-1823.3489 3939.6292 -774.4778 0.972 -0.115 -0.205 32 24 11
-1807.1230 3919.1875 -772.2621 0.782 -0.485 -0.392 34 22 13
-1681.7373 3968.1367 -828.4246 -0.146 -0.976 -0.159 170 132 129
-1670.4220 3956.2913 -827.7330 0.242 -0.969 0.047 172 139 134
-1661.2418 3949.3179 -828.1058 0.935 0.188 0.301 169 142 135
-1550.2058 3958.2681 -865.6580 0.470 -0.389 0.793 226 192 190
-1533.1792 3929.9846 -860.9130 0.903 -0.404 0.149 227 193 191
-2370.7180 1689.8219 185.9685 0.690 -0.260 -0.676 198 177 155
-2285.6611 1754.3872 136.8184 0.958 0.159 -0.237 189 164 125
-2290.0923 1827.8958 112.0456 0.557 -0.152 0.817 75 68 49
-2266.3782 1964.1576 56.2925 -0.039 -0.839 -0.543 58 37 22
-2257.9607 1963.9183 53.7855 -0.065 -0.874 -0.481 70 46 32
-2242.8604 1958.3929 51.1001 0.518 -0.773 -0.367 75 53 39
-2241.6658 1963.7737 48.8190 0.263 -0.940 -0.218 118 97 83
-2234.8889 1964.7432 46.3875 0.293 -0.933 -0.210 125 104 90
-2233.0198 1969.5939 44.0871 0.225 -0.897 -0.382 137 113 99
-2234.1318 1976.8318 41.8560 0.981 0.105 -0.163 146 118 105
-2241.0825 1988.7725 39.7506 0.975 0.212 -0.071 147 104 89
-2241.9329 1995.8680 37.4896 0.712 -0.012 -0.702 154 108 93
-2247.6443 2006.9109 35.3218 0.714 -0.030 -0.700 161 115 100
-2269.7891 2031.3204 33.4619 0.903 0.013 -0.429 166 118 104
-2287.2786 2052.0964 31.4603 0.826 0.075 -0.559 163 115 101
-2290.3311 2061.2148 29.1581 0.836 0.071 -0.544 163 115 101
-2854.8577 2867.5459 -83.7066 -0.358 -0.858 -0.368 177 113 103
-2849.4463 2871.8525 -86.9043 -0.366 -0.869 -0.333 177 113 103
-2164.3826 2282.1221 -88.1745 0.619 0.031 -0.785 176 111 107
-2193.9480 2325.6357 -94.5422 0.725 0.256 -0.639 173 111 106
-1760.6871 1991.8085 -109.2629 0.869 0.245 -0.430 192 140 127
-2550.6272 3105.0449 -261.8393 0.483 -0.415 0.771 198 138 125
-2552.7253 3158.4062 -280.1669 0.357 -0.435 0.827 55 24 18
-2538.3513 3162.0264 -285.8804 0.552 -0.411 0.725 34 17 9
-2533.3867 3166.4380 -288.9778 0.546 -0.408 0.731 16 8 1
-2530.4751 3173.2898 -292.3108 0.361 -0.532 0.766 28 26 12
-2528.0129 3180.6907 -295.7005 0.240 -0.664 0.708 111 90 80
-2510.3420 3169.8572 -297.2900 0.118 -0.706 0.698 191 147 141
-2112.8057 3471.8201 -527.0770 -0.140 -0.977 -0.161 161 123 116
-2107.2444 3474.5681 -529.7667 -0.138 -0.978 -0.156 135 101 92
-2066.4971 3432.5488 -527.3738 0.969 0.214 -0.123 88 60 49
-2062.3364 3437.3274 -530.3541 0.209 -0.607 0.767 70 42 31
-2023.3711 3408.6038 -532.1400 0.286 -0.598 0.749 42 12 2
-2016.8915 3409.4373 -534.4316 0.256 -0.639 0.726 37 9 1
-2001.4469 3418.3477 -542.3559 0.512 -0.597 0.617 34 10 1
-1997.9780 3424.0696 -545.4587 0.990 -0.140 -0.036 34 10 1
-1977.9897 3436.7522 -556.1235 0.976 -0.216 0.023 32 11 1
-1976.0659 3445.0723 -559.6742 0.976 -0.216 0.023 31 11 3
-1949.3713 3481.1506 -580.7230 0.356 -0.456 0.816 151 124 115
-1942.8917 3481.6855 -582.9085 0.371 -0.469 0.801 170 138 131
-1929.8722 3482.5542 -587.2267 0.340 -0.441 0.831 195 160 154
-1907.5129 3490.4263 -596.9111 0.573 -0.240 0.784 223 187 181
-1902.6093 3493.5630 -599.5364 0.573 -0.240 0.784 225 188 182
-1900.6124 3501.8823 -603.1095 0.570 -0.233 0.788 224 187 181
-1794.4535 3749.8142 -723.9572 0.838 0.382 0.389 183 126 106
-1821.0382 3913.4062 -773.9388 0.949 0.308 -0.067 35 24 12
-1828.7767 3943.7275 -782.3372 0.957 0.278 -0.082 32 23 11
-1821.2632 3941.8589 -783.9865 0.939 -0.340 0.049 36 24 15
-1795.4402 3971.3413 -802.4215 0.833 0.181 0.524 110 63 65
-1787.7417 3968.8447 -803.9045 0.907 0.148 0.395 113 63 64
-1685.8369 3969.9333 -835.6724 -0.146 -0.976 -0.159 95 59 55
-1671.5167 3951.1360 -833.3984 0.230 -0.968 0.100 101 72 66
-1656.6769 3930.9351 -830.7854 0.935 0.188 0.301 102 79 71
-1609.4384 3963.9299 -857.0641 0.375 -0.425 0.824 92 60 59
-1567.8496 3994.8025 -880.8484 0.540 -0.811 -0.225 225 191 189
-1547.4657 3958.2410 -874.1253 0.947 -0.297 0.126 227 193 191
-2375.1428 1690.0276 181.3744 0.690 -0.260 -0.676 205 184 160
-2260.9783 1729.3624 132.3722 0.998 0.055 -0.010 195 169 134
-2246.1699 1958.0568 46.2026 0.453 -0.793 -0.408 51 34 18
-2247.3906 1965.3423 43.9759 0.257 -0.941 -0.219 80 63 47
