ply
format ascii 1.0
element vertex 775
property float x
property float y
property float z
property float nx
property float ny
property float nz
property uchar diffuse_red
property uchar diffuse_green
property uchar diffuse_blue
end_header
-3542.0044 4911.7959 3406.3286 0.862 -0.449 -0.236 157 137 122
-3520.1267 4937.2861 3387.4670 0.451 -0.879 0.157 121 100 81
-3600.4663 4431.1118 3426.0818 -0.371 -0.606 -0.704 230 227 220
-3542.3921 4422.0347 3373.5825 0.042 -0.876 -0.481 184 181 174
-3511.6226 4448.1362 3346.7166 0.442 -0.720 -0.535 216 213 206
-3508.2839 4460.4556 3344.0930 0.406 -0.722 -0.561 237 234 227
-3439.3259 4402.0269 3280.2905 0.665 -0.544 -0.511 234 231 224
-3534.0210 4963.5415 3382.6951 0.078 -0.420 -0.904 113 91 72
-3528.4316 4974.6543 3378.0105 0.078 -0.420 -0.904 99 80 60
-3492.0315 4979.1338 3345.4170 -0.263 -0.884 -0.387 121 93 68
-3473.5481 5010.1655 3329.7502 0.650 -0.442 -0.618 134 104 76
-3546.9705 4416.9834 3360.7261 0.383 -0.494 -0.781 191 188 181
-3544.3599 4430.1069 3358.7539 0.491 -0.766 -0.416 156 153 146
-3537.2532 4437.4004 3352.5811 0.474 -0.767 -0.432 132 129 122
-3529.6077 4443.9985 3345.9050 0.427 -0.722 -0.544 140 137 130
-3520.7280 4448.9775 3338.0752 0.442 -0.720 -0.535 217 214 207
-3517.6899 4461.6826 3335.7078 0.406 -0.722 -0.561 237 234 227
-3451.3928 4406.9824 3274.6516 0.676 -0.552 -0.488 234 231 224
-3553.3369 4978.4424 3382.3208 0.203 -0.371 -0.906 109 87 69
-3543.7573 4983.7681 3373.8728 0.201 -0.370 -0.907 133 113 94
-3530.5181 4983.7197 3361.9875 -0.264 -0.885 -0.383 122 99 80
-3518.0867 4984.8159 3350.8601 -0.264 -0.885 -0.383 100 76 52
-3505.6790 4985.9106 3339.7537 -0.264 -0.885 -0.383 108 81 55
-3479.5242 4985.9951 3316.2793 0.726 -0.374 -0.577 125 94 65
-3473.7637 4996.9092 3311.4172 0.709 -0.399 -0.582 138 108 80
-3580.5337 4383.8359 3373.1479 0.216 -0.965 0.151 231 228 221
-3556.5771 4434.9824 3353.0042 0.167 -0.924 -0.343 160 157 150
-3545.8052 4437.5039 3343.4172 0.491 -0.766 -0.416 137 134 127
-3538.1235 4444.0547 3336.7036 0.441 -0.717 -0.540 150 147 140
-3529.8389 4449.8198 3329.4294 0.442 -0.720 -0.535 219 216 209
-3523.1284 4457.6641 3323.6194 -0.237 -0.773 -0.588 236 233 226
-3459.1077 4406.1245 3264.9233 0.676 -0.552 -0.488 234 231 224
-3533.6560 4955.7632 3345.9243 -0.320 -0.908 -0.272 129 110 90
-3536.7412 4979.5151 3349.3027 -0.314 -0.897 -0.311 141 118 99
-3514.9460 4966.8564 3329.4465 -0.307 -0.898 -0.315 138 113 90
-3475.1396 5024.5923 3295.2712 0.797 -0.176 -0.578 141 111 83
-3472.7927 5040.7798 3293.5867 0.797 -0.176 -0.578 159 130 100
-2363.3289 6635.4917 2340.6929 -0.023 -0.691 -0.723 216 197 190
-2241.7551 6605.4565 2230.9836 -0.063 -0.678 0.733 212 192 181
-2199.5549 6780.8765 2197.7046 -0.014 -0.794 -0.607 220 198 187
-3655.3501 4485.0488 3425.6914 -0.326 -0.834 0.444 231 228 221
-3568.4224 4422.8486 3346.4844 0.383 -0.494 -0.781 182 179 172
-3565.0791 4435.0093 3343.7786 0.405 -0.503 -0.764 147 144 137
-3557.4719 4441.6631 3337.1301 0.396 -0.499 -0.771 122 119 112
-3538.5730 4450.1606 3320.4250 -0.233 -0.767 -0.598 224 221 214
-3488.0862 4416.8740 3274.4888 -0.212 -0.790 -0.576 235 232 225
-3464.2610 4401.8706 3252.8274 0.666 -0.562 -0.491 235 232 225
-3519.0286 4921.3193 3313.9712 0.781 -0.612 -0.127 126 108 88
-3525.4875 4969.0317 3320.8650 -0.302 -0.882 -0.363 143 118 95
-3512.5759 4969.3550 3309.3240 -0.302 -0.882 -0.363 144 117 92
-3468.9094 4982.1367 3270.5662 0.017 -0.921 -0.389 126 99 72
-3477.0564 5013.8467 3278.5952 0.667 -0.490 -0.561 143 113 85
-3476.6323 5052.6138 3279.1233 0.817 -0.169 -0.551 151 121 93
-3123.7668 5839.4092 2981.9219 -0.644 -0.649 0.405 199 183 170
-2194.9407 5924.3013 2153.1313 0.992 0.058 -0.111 208 188 177
-2188.5859 6035.4976 2150.0500 0.977 -0.084 -0.195 214 195 188
-2291.3943 6651.1299 2256.4143 0.673 -0.144 0.726 215 195 184
-2253.8308 6763.8916 2225.4553 0.627 -0.179 0.758 221 199 188
-1671.6166 5728.6460 1680.4713 0.998 -0.009 -0.062 220 193 182
-3579.1724 4425.7881 3339.3477 0.383 -0.494 -0.781 213 210 203
-3575.6245 4437.6802 3336.4292 0.405 -0.503 -0.764 189 186 179
-3568.1045 4444.4556 3329.8572 0.396 -0.499 -0.771 170 167 160
-3562.8259 4454.1641 3325.3479 0.413 -0.545 -0.730 202 199 192
-3548.4124 4451.9443 3312.4319 -0.291 -0.766 -0.573 231 228 221
-3551.0723 4472.0991 3315.2295 -0.299 -0.725 -0.620 223 220 213
-3501.6694 4423.7173 3270.1055 -0.212 -0.790 -0.576 233 230 223
-3582.0630 4867.0693 3351.1824 0.305 -0.099 -0.947 229 225 215
-3589.4717 4991.1533 3360.3994 0.755 -0.299 -0.584 109 88 69
-3527.8972 4921.1270 3303.9539 0.786 -0.600 -0.151 128 110 90
-3492.0200 4983.6606 3273.2322 0.126 -0.510 -0.851 64 34 10
-3487.0833 4995.7554 3269.0779 0.021 -0.918 -0.396 109 82 55
-3477.4966 5000.9478 3260.6272 0.104 -0.901 -0.421 149 119 92
-3160.1211 5890.7910 2995.9172 -0.675 -0.649 0.352 199 183 170
-2199.4941 5943.6494 2139.3257 0.972 -0.030 -0.235 216 196 185
-2185.6406 6235.7495 2133.0818 0.681 -0.642 0.353 211 193 182
-2188.9597 6280.3223 2136.9802 0.749 -0.547 0.375 211 193 181
-2226.4395 6427.3730 2173.5278 0.559 -0.671 0.488 211 193 181
-2216.5986 6506.4604 2166.3999 0.822 -0.216 0.528 212 194 182
-2210.5645 6524.8530 2161.3979 0.891 -0.207 0.405 212 194 182
-2198.8416 6563.1030 2151.7332 0.590 -0.200 0.783 211 190 179
-2172.0474 6554.8623 2127.6370 0.591 -0.205 0.780 212 190 179
-2032.9933 6728.2935 2007.1189 0.555 -0.272 0.786 219 192 181
-1993.8225 6716.6509 1971.9009 0.621 -0.199 0.758 219 192 181
-1982.3536 6718.0874 1961.6910 -0.298 -0.770 0.564 219 192 181
-1994.4093 6802.4678 1974.2245 -0.236 -0.764 0.601 219 192 181
-1935.3870 6719.2847 1919.7817 -0.173 -0.699 0.693 220 193 182
-1897.3524 6666.4775 1884.7150 -0.181 -0.701 0.690 220 193 182
-1822.1364 6688.4854 1818.0194 -0.237 -0.911 0.338 222 192 182
-3591.6299 4430.9092 3333.7485 0.409 -0.490 -0.770 224 221 214
-3586.8738 4441.2451 3329.7012 0.409 -0.490 -0.770 225 222 215
-3582.1077 4451.6030 3325.6453 0.409 -0.490 -0.770 226 223 216
-3574.8738 4458.7842 3319.3311 0.408 -0.549 -0.729 229 226 219
-3553.7405 4447.8267 3300.2922 0.113 -0.875 -0.471 237 234 227
-3517.1812 4433.0620 3267.4341 -0.195 -0.792 -0.579 231 228 221
-3587.3999 4974.9961 3340.0654 0.813 -0.553 0.185 116 94 75
-3505.4724 4990.1841 3267.3271 0.126 -0.510 -0.851 49 19 0
-3498.4553 4999.1997 3261.2402 0.021 -0.923 -0.384 97 69 45
-3488.3245 5003.5977 3252.2922 0.104 -0.901 -0.421 152 122 97
-2203.8098 5898.9160 2124.0369 0.868 -0.302 -0.394 204 185 173
-2203.3652 5929.2637 2124.2034 0.954 -0.127 -0.272 211 191 180
-2200.0281 6048.7886 2123.4448 0.963 -0.120 -0.240 40 25 18
-2205.1040 6478.7178 2135.9395 0.890 -0.206 0.407 133 120 108
-2049.9861 6437.4043 1996.9209 0.653 -0.222 0.724 214 195 185
-2006.2474 6370.0752 1956.6897 0.975 -0.005 -0.222 215 196 186
-1999.3925 6385.3960 1950.8641 0.968 0.004 -0.250 215 196 186
-1988.6670 6387.9399 1941.3518 0.755 -0.375 -0.538 215 196 186
-2001.0802 6506.9346 1954.6215 0.318 -0.933 0.170 216 194 183
-2001.5905 6548.0796 1955.8391 0.349 -0.869 0.350 216 194 182
-2002.0026 6629.5278 1957.7163 0.508 -0.254 0.823 216 194 182
-1974.6074 6616.1660 1933.0521 0.619 -0.200 0.760 216 194 182
-1885.0128 6545.5278 1851.8892 0.620 -0.207 0.757 218 195 183
-1844.9587 6442.0308 1814.2714 0.248 -0.503 0.828 218 195 183
-1388.0173 6053.6846 1399.8118 0.706 0.122 -0.697 228 197 187
-3606.4998 4439.1021 3330.3042 0.456 -0.513 -0.727 228 225 220
-3601.6379 4449.3213 3326.1433 0.456 -0.513 -0.727 231 228 223
-3596.7668 4459.5620 3321.9744 0.456 -0.513 -0.727 233 230 225
-3591.8850 4469.8228 3317.7964 0.456 -0.513 -0.727 233 230 225
-3590.5222 4484.7021 3316.8237 0.419 -0.539 -0.731 233 230 225
-3527.0732 4434.9858 3259.5725 -0.136 -0.681 -0.720 232 229 224
-3610.9104 4882.3491 3341.3696 0.535 -0.233 -0.812 230 226 216
-3580.4478 4970.9702 3315.6953 0.672 -0.683 -0.287 121 89 74
-3556.1274 4993.2749 3294.4167 -0.194 -0.904 -0.380 102 70 49
-3526.1497 4987.9658 3267.6602 0.143 -0.510 -0.848 81 51 31
-3520.0762 4998.3701 3262.4243 0.143 -0.510 -0.848 42 11 0
-3510.4783 5003.5884 3253.9692 0.041 -0.928 -0.370 77 46 26
-3501.8274 5010.2090 3246.3792 0.118 -0.898 -0.423 142 112 89
-2210.9634 5893.8921 2112.1418 0.868 -0.302 -0.394 209 192 180
-2224.8083 6401.0015 2132.6299 0.016 -0.734 0.679 22 25 16
-2012.2338 6359.0586 1942.8275 0.972 -0.010 -0.235 96 92 90
-2003.1240 6366.8496 1934.8481 0.969 0.001 -0.248 102 97 96
-1799.4382 6447.0220 1754.9216 0.786 -0.150 -0.600 224 199 200
-1811.9657 6578.1855 1768.1805 0.577 -0.308 0.756 224 199 201
-1791.8389 6544.9780 1749.7388 0.576 -0.309 0.757 225 200 201
-1570.1021 6451.6436 1550.9569 0.192 -0.819 0.540 225 202 193
-1534.7009 6437.7637 1519.2371 0.181 -0.808 0.561 222 197 187
-3593.7949 4461.2510 3302.4980 0.199 -0.638 -0.744 232 229 224
-3620.5320 4883.1934 3332.0188 0.857 -0.403 -0.321 230 226 216
-3564.9941 4992.9370 3284.1968 -0.172 -0.905 -0.390 139 107 86
-3544.6470 4982.5093 3265.9834 0.049 -0.511 -0.858 183 152 131
-3539.6182 4994.4214 3261.6802 0.082 -0.504 -0.860 96 68 46
-3533.3936 5004.6182 3256.2917 0.082 -0.504 -0.860 66 35 16
-3521.4478 5006.3945 3245.7068 0.041 -0.928 -0.370 96 65 45
-3512.6169 5012.7593 3237.9509 0.118 -0.898 -0.423 144 114 91
-2212.0381 5872.1626 2094.6462 0.893 -0.270 -0.359 209 193 180
-2099.7327 6277.8950 2000.4590 0.623 -0.229 0.748 28 23 23
-2004.4518 6303.2656 1916.1855 0.981 -0.047 -0.186 9 12 13
-1937.8328 6423.8003 1858.6697 0.540 -0.250 0.804 42 36 32
-1795.8622 6482.6538 1733.3887 0.726 -0.210 0.654 126 106 111
-1776.2686 6493.2529 1716.1323 0.726 -0.212 0.655 162 141 147
-1767.4027 6502.0859 1708.3793 0.576 -0.306 0.758 162 141 148
-1755.1886 6498.0981 1697.4771 0.576 -0.306 0.758 162 142 148
-1543.4940 6390.7305 1507.9977 0.587 -0.276 0.761 224 204 196
-1363.2100 6430.5601 1348.4293 0.127 -0.539 0.833 219 192 185
-3635.6846 4873.2344 3327.4404 0.527 -0.720 0.451 230 226 217
-3629.6023 4883.2593 3322.1611 0.875 -0.483 0.028 230 226 216
-3633.4712 4907.2871 3325.8618 0.840 -0.541 0.045 232 227 210
-3625.7712 4915.1450 3319.1238 0.841 -0.539 0.035 193 186 166
-3585.7986 4971.5688 3284.3220 0.230 -0.638 -0.735 132 95 80
-3552.6799 5000.2466 3255.2839 0.050 -0.511 -0.858 141 113 91
-3532.4312 5009.2041 3237.4333 0.041 -0.928 -0.370 132 101 80
-3522.0679 5013.3135 3228.2922 0.041 -0.928 -0.370 148 117 94
-2220.3425 5870.4360 2083.9124 0.016 -0.975 -0.221 209 193 180
-2209.8745 5872.7109 2074.6577 0.016 -0.975 -0.221 206 189 179
-2199.3577 5874.8120 2065.3577 0.001 -0.977 -0.214 94 82 72
-2188.3101 5875.3950 2055.5701 -0.029 -0.996 -0.081 28 24 23
-2170.3235 5919.6934 2040.1233 -0.421 -0.654 -0.629 25 24 29
-2264.0886 6460.4678 2129.3428 0.335 -0.933 0.130 17 26 24
-2006.5780 6354.5884 1899.8553 0.968 -0.014 -0.252 18 25 32
-2016.4504 6424.9429 1909.4004 0.957 -0.003 -0.291 16 23 30
-1792.3300 6393.6411 1710.3550 0.845 -0.044 -0.533 17 7 15
-1767.1965 6424.0366 1688.4156 0.673 -0.253 0.695 30 20 30
-1759.6357 6437.3706 1681.8629 0.674 -0.254 0.694 31 20 30
-1749.1632 6439.6768 1672.6045 0.527 -0.350 0.775 32 20 29
-1718.0273 6362.5146 1644.1318 0.528 -0.318 0.788 40 30 31
-1697.5319 6410.2241 1626.4993 0.702 -0.194 0.685 41 31 31
-1650.5233 6396.4878 1584.6693 0.473 -0.300 0.829 61 49 49
-1629.9639 6400.8579 1566.4917 0.427 -0.349 0.834 96 81 79
-1613.4792 6377.4946 1551.6141 0.423 -0.350 0.835 96 80 78
-1603.2826 6379.7183 1542.5994 0.325 -0.389 0.862 98 83 81
-1497.1123 6380.3208 1448.4816 0.749 -0.240 0.618 191 174 169
-3626.7764 4866.7207 3301.6245 0.474 -0.794 0.381 230 226 216
-3645.7402 4911.7871 3318.8054 0.744 -0.663 0.084 235 230 213
-3638.0027 4919.6055 3312.0271 0.744 -0.663 0.084 203 196 176
-3574.6182 4999.7031 3256.6426 0.084 -0.509 -0.857 139 109 85
-3568.3755 5009.8813 3251.2080 0.084 -0.509 -0.857 141 113 89
-3561.4314 5019.0640 3245.1438 0.082 -0.504 -0.860 148 117 96
-3541.1650 5008.6904 3227.1169 0.035 -0.983 -0.179 159 128 107
-3533.0552 5016.1289 3220.0056 0.041 -0.928 -0.370 152 122 98
-2226.6450 5863.2505 2071.3660 0.465 -0.822 -0.329 209 193 180
-2219.1709 5873.7261 2064.8442 -0.010 -0.976 -0.219 206 189 179
-2209.0229 5876.8696 2055.8914 0.001 -0.977 -0.214 94 82 72
-2199.0747 5880.5376 2047.1199 -0.020 -0.997 -0.076 28 24 23
-2022.8983 5951.0576 1891.8329 -0.210 -0.978 -0.002 20 25 33
-2007.5767 5937.7729 1878.1561 -0.200 -0.980 -0.008 20 25 33
-2002.2441 6310.0132 1876.7308 0.959 -0.025 -0.283 8 19 31
-2004.4594 6354.6582 1879.0863 0.961 -0.032 -0.276 5 14 26
-1786.9525 6340.0713 1686.4698 0.870 -0.022 -0.493 20 22 33
-1747.5581 6357.0586 1651.7572 0.540 -0.334 0.773 13 14 25
-1643.7350 6333.0845 1559.6646 0.460 -0.307 0.833 23 16 20
-1605.4520 6351.6553 1525.9495 0.145 -0.545 0.826 30 20 21
-1570.6156 6295.4546 1494.6230 0.878 -0.201 0.434 31 21 22
-1542.6168 6401.3525 1470.7820 0.708 -0.215 0.672 32 20 20
-1532.9552 6405.5386 1462.2687 0.436 -0.342 0.832 35 23 23
-1481.9384 6320.2349 1416.3655 0.755 -0.237 0.611 55 43 43
-1473.1425 6327.4814 1408.6455 0.473 -0.361 0.803 57 45 44
-1461.6227 6369.5469 1398.8230 0.880 -0.253 0.402 77 60 56
-1456.5126 6393.8765 1394.5160 0.881 -0.251 0.401 78 61 56
-3647.7207 4864.9072 3302.2947 0.837 -0.100 -0.538 231 227 218
-3592.8513 4974.6294 3254.5288 0.821 -0.483 -0.303 148 113 94
-3172.4282 5827.7114 2888.6155 -0.309 -0.783 -0.540 194 176 163
-2238.8855 5872.2749 2064.2092 0.270 -0.955 -0.126 208 192 179
-2229.0112 5876.2178 2055.5117 0.270 -0.955 -0.126 205 188 178
-2219.7522 5881.8311 2047.3684 0.272 -0.956 -0.108 93 81 71
-2209.3396 5884.2534 2038.1854 -0.008 -1.000 -0.020 30 27 26
-2032.8895 6022.1426 1883.1964 0.001 -0.977 0.212 23 34 48
-2019.9777 6016.5093 1871.7539 0.221 -0.927 0.303 23 34 48
-2003.5847 6034.3271 1857.3870 0.042 -0.777 0.628 22 34 48
-1790.3217 6279.0449 1670.5647 0.871 0.001 -0.492 20 36 47
-1788.3529 6311.8657 1669.0366 0.873 -0.007 -0.487 20 36 47
-1786.8046 6346.5698 1667.8922 0.918 -0.234 -0.320 19 34 46
-1777.9314 6354.4717 1660.1045 0.906 -0.244 -0.346 19 33 45
-1771.3491 6370.9443 1654.3956 0.905 -0.246 -0.347 19 33 45
-1634.7058 6015.9766 1531.4008 0.695 -0.711 0.109 21 21 31
-1581.8606 6305.3071 1486.5789 0.837 -0.348 0.423 24 21 28
-1572.5024 6310.3848 1478.3445 0.827 -0.352 0.439 25 20 28
-1565.0760 6323.5615 1471.8688 0.400 -0.449 0.799 25 20 27
-1460.8291 6326.0698 1379.7931 0.886 -0.314 0.341 25 15 16
-1449.7581 6370.2539 1370.2971 0.917 -0.285 0.278 25 14 16
-1440.2023 6374.1973 1361.8810 0.972 -0.223 0.068 26 16 16
-1435.0679 6398.6123 1357.5023 0.971 -0.227 0.071 26 16 16
-1426.4489 6407.0244 1349.9424 0.648 -0.620 0.442 28 16 16
-3585.6301 4951.2251 3230.0640 0.747 -0.545 -0.381 149 114 95
-3570.0227 4966.7280 3216.3633 0.743 -0.551 -0.381 149 119 93
-3560.6829 4972.2710 3208.1494 0.800 -0.482 -0.358 147 120 93
-3558.0325 4987.5557 3205.8738 0.752 -0.548 -0.367 152 122 98
-3537.8787 4996.5366 3188.1375 0.698 -0.700 -0.148 155 125 101
-3196.8462 5855.6147 2890.8604 -0.310 -0.788 -0.532 194 176 163
-2239.7214 5881.0542 2046.9379 0.044 -0.761 -0.647 205 188 178
-2228.2397 5880.6108 2036.8112 0.272 -0.956 -0.108 93 81 71
-2225.7021 5904.7153 2034.6704 0.085 -0.764 -0.639 15 11 10
-2196.1975 5885.5654 2008.5753 -0.056 -0.998 -0.026 46 45 50
-2049.5139 6011.6992 1879.7322 0.621 -0.771 -0.142 15 32 50
-2040.2771 6155.7871 1872.1666 0.905 -0.380 -0.189 22 45 63
-1921.6974 5919.9756 1766.6503 -0.301 -0.903 0.308 36 59 79
-1902.1605 5891.7002 1749.3081 -0.281 -0.911 0.302 33 56 77
-1998.5593 6238.2080 1835.7101 -0.170 -0.896 0.411 30 53 74
-1845.5859 6326.3022 1701.1674 0.832 -0.373 -0.411 19 50 76
-1753.4889 6112.9824 1619.0948 0.107 -0.439 -0.892 30 56 71
-1746.6313 6126.8311 1613.1034 0.107 -0.439 -0.892 30 56 71
-1636.1367 6028.1636 1515.2684 0.770 -0.637 0.031 21 27 41
-1627.0302 6073.0020 1507.4185 0.767 -0.037 -0.640 21 25 40
-1621.5239 6132.8662 1502.8037 0.739 -0.066 -0.671 21 25 40
-1586.3884 6287.3794 1472.4418 0.958 -0.084 0.273 20 21 32
-1582.9613 6316.9355 1469.5386 0.958 -0.084 0.273 20 21 32
-3210.5623 5863.1201 2883.4673 -0.341 -0.833 -0.436 193 175 162
-2250.9719 5887.3135 2038.8101 0.044 -0.761 -0.647 205 188 178
-2242.7998 5895.9551 2031.6304 0.034 -0.764 -0.645 93 81 71
-2236.0481 5908.5171 2025.7073 0.031 -0.764 -0.645 40 37 36
-2241.5410 5954.8784 2030.6173 0.294 -0.827 -0.480 34 32 35
-2174.8201 5863.7100 1971.7379 0.222 -0.942 -0.251 30 31 35
-2037.3590 6224.5415 1851.3184 -0.202 -0.975 -0.089 17 46 69
-1810.9174 5912.2744 1651.4845 0.627 0.029 -0.779 23 70 107
-1798.1372 5904.5703 1640.2220 0.679 0.033 -0.733 40 83 117
-1777.1617 6325.0542 1622.4375 0.811 -0.250 0.529 15 50 68
-1673.6617 6138.4072 1531.0282 0.794 -0.607 -0.032 23 36 53
-1714.1371 6334.0469 1566.9734 0.866 -0.291 0.408 24 35 53
-1391.8835 6165.7485 1283.0321 0.522 -0.630 0.575 19 16 23
-3239.3923 5899.0503 2889.2808 -0.289 -0.844 -0.451 194 175 162
-3204.5845 5858.4927 2858.7271 -0.553 -0.720 -0.418 196 174 156
-2264.0173 5898.3687 2032.2152 0.027 -0.768 -0.640 205 188 178
-2257.6687 6037.7651 2026.5267 0.522 -0.696 0.493 27 27 33
-2081.5042 6054.3105 1871.7172 0.092 -0.552 -0.829 11 33 56
-1985.8959 6103.4121 1787.6671 0.017 -0.969 0.245 16 54 83
-1793.2417 6270.8062 1618.2490 -0.421 -0.665 0.617 22 66 87
-1770.6772 6267.9526 1598.4238 0.781 -0.265 0.565 16 56 78
-1734.7958 6255.3516 1566.9045 0.927 -0.235 0.294 19 43 64
-3619.3079 5824.1040 3203.1641 0.902 -0.238 0.361 150 116 89
-3635.4478 5874.6357 3217.1602 0.902 -0.238 0.360 144 110 85
-3261.0784 5921.3403 2888.6357 -0.338 -0.797 -0.500 194 175 164
-2273.3730 5868.8594 2022.4446 0.669 -0.577 -0.468 204 190 181
-2261.1240 5959.0669 2011.4127 0.294 -0.827 -0.480 26 24 22
-2261.8967 6024.2373 2011.8826 0.522 -0.696 0.493 20 25 31
-2071.7886 5998.1069 1845.2140 0.463 -0.783 0.416 16 39 58
-1890.9254 6389.2251 1685.3237 0.997 0.049 0.066 33 75 134
-1818.5148 6289.9590 1622.1257 -0.423 -0.666 0.614 49 112 139
-1740.0229 6241.5459 1553.4316 0.877 -0.307 0.370 5 50 87
-1730.0519 6244.5137 1544.6761 0.816 -0.367 0.447 5 47 84
-2284.7542 5875.3711 2014.3832 0.618 -0.583 -0.526 204 190 181
-2272.6865 5965.9497 2003.3109 0.337 -0.848 -0.410 27 24 21
-2074.0527 5753.0381 1830.5800 -0.205 -0.718 -0.665 8 30 53
-2089.0754 5989.8784 1842.4103 0.534 -0.839 -0.105 14 39 60
-2105.3618 6105.6670 1856.0236 -0.121 -0.956 -0.269 27 53 73
-1897.8658 6381.2905 1672.8036 0.991 -0.011 0.135 32 82 141
-1879.1809 6355.0957 1656.5897 -0.432 -0.660 0.615 31 83 139
-3459.0637 5525.5928 3025.5540 0.846 -0.131 0.517 150 116 89
-3287.8921 5934.5952 2872.6809 -0.548 -0.704 -0.452 194 175 164
-2276.5396 5920.9751 1988.8409 0.590 -0.589 -0.552 30 23 18
-2282.1228 5967.0093 1993.3534 0.337 -0.848 -0.410 27 24 21
-2278.5449 5988.4912 1990.0547 0.348 -0.871 -0.347 24 24 26
-2069.1960 5840.0732 1808.2629 -0.333 -0.650 -0.683 7 35 57
-1990.6517 6138.8252 1737.2286 -0.291 -0.920 0.264 18 94 136
-1939.5474 6080.6797 1693.0261 -0.516 -0.856 -0.038 19 94 136
-1919.3909 6122.3262 1675.0764 -0.565 -0.732 0.381 26 100 145
-1903.9042 6331.5908 1659.8705 0.956 -0.039 -0.291 27 94 150
-1899.1134 6353.6831 1655.5070 0.958 -0.116 -0.263 30 93 148
-1886.4846 6348.6162 1644.5094 -0.432 -0.660 0.615 29 94 146
-1538.2458 6165.9253 1341.5977 0.988 0.098 -0.119 13 24 42
-3715.6401 4945.0908 3236.4673 0.709 -0.010 -0.705 163 152 141
-3307.3101 5952.3457 2869.7634 -0.331 -0.811 -0.483 194 175 164
-2292.1624 5969.6855 1983.8960 0.533 -0.823 -0.197 27 24 21
-2274.0876 5982.9336 1967.9889 0.279 -0.947 -0.158 20 25 31
-2098.6829 5868.6201 1816.1390 -0.109 -0.596 -0.795 40 63 87
-2083.3357 5855.8911 1802.8812 -0.173 -0.673 -0.719 10 41 66
-2134.7935 6139.3584 1844.8363 -0.457 -0.888 -0.044 19 53 79
-2112.5681 6106.8149 1825.7828 -0.203 -0.978 -0.042 8 42 68
-2054.5542 5966.0112 1776.6279 0.067 -0.993 -0.101 29 63 89
-1883.6543 6230.7139 1624.7770 0.896 -0.005 -0.444 21 104 154
-1851.6731 6272.4595 1596.4413 -0.424 -0.670 0.609 4 90 127
-1807.2290 6231.1284 1558.0938 0.040 -0.860 -0.509 16 85 128
-1777.5746 6202.2681 1532.5205 0.092 -0.802 -0.590 26 85 131
-3721.0735 4884.8125 3224.0188 0.766 -0.640 -0.061 231 227 218
-3734.1006 4939.4287 3234.6672 0.749 -0.024 -0.662 231 224 215
-3731.1519 4953.9150 3231.9146 0.746 -0.024 -0.666 186 175 164
-3434.5149 5453.7129 2967.1904 0.846 -0.131 0.517 148 114 87
-2247.0015 6073.4897 1925.0544 0.305 -0.589 -0.748 20 42 65
-2120.2017 5873.6011 1817.1726 -0.101 -0.539 -0.836 52 74 98
-2111.3689 5879.9355 1809.3992 -0.109 -0.596 -0.795 18 42 67
-2101.8716 5884.3442 1801.0715 -0.058 -0.666 -0.744 4 41 70
-1987.2859 6106.1650 1698.4463 -0.007 -0.969 -0.247 22 93 137
-2027.8717 6308.1001 1731.2166 0.921 -0.285 -0.266 34 105 149
-1889.9331 6221.3955 1612.1896 0.896 -0.005 -0.444 32 134 177
-1889.9584 6259.2319 1611.7288 0.896 -0.005 -0.444 44 147 190
-1908.4878 6400.2769 1626.0667 -0.419 -0.665 0.618 26 123 165
-1876.0139 6326.0034 1598.7323 0.046 -0.787 -0.615 21 114 156
-1870.0078 6343.8730 1593.2736 0.169 -0.759 -0.629 17 104 149
-1829.3727 6278.1294 1558.7225 0.343 -0.929 -0.142 18 91 140
-1814.1766 6262.8921 1545.6824 0.286 -0.948 -0.139 23 91 142
-3741.4849 4918.6226 3223.4622 0.777 -0.029 -0.629 233 229 220
-3737.1033 4931.0400 3219.4648 0.772 -0.032 -0.635 232 225 217
-3745.8394 4961.5591 3226.5974 0.783 -0.036 -0.621 187 176 166
-2298.8599 5939.1177 1953.8351 0.090 -0.986 0.138 27 24 21
-2140.7915 5907.3887 1816.8962 0.096 -0.567 -0.818 58 82 106
-2136.5032 5926.9819 1812.8713 0.033 -0.592 -0.805 7 28 54
-2113.8628 5893.6182 1793.6937 -0.058 -0.666 -0.744 6 48 81
-2108.6633 5910.5708 1788.9167 0.749 -0.307 -0.587 17 61 96
-2146.6138 6053.8208 1819.7401 0.794 -0.600 0.102 22 68 104
-1863.3075 6250.1030 1570.4702 -0.179 -0.912 0.370 25 124 169
-1847.0553 6308.8540 1555.4513 0.212 -0.977 0.021 25 103 157
-1836.5890 6310.7705 1546.3232 0.218 -0.976 0.017 27 99 154
-1768.4103 6301.2886 1487.1945 -0.091 -0.181 -0.979 23 70 104
-3750.0422 4936.2827 3212.7017 0.772 -0.018 -0.635 232 225 217
-3751.1941 4974.9312 3213.0239 0.762 -0.035 -0.647 140 124 112
-2322.0879 5855.9258 1957.3776 0.608 -0.558 -0.565 202 188 179
-2304.3933 5899.4282 1941.2596 0.479 -0.869 -0.128 30 22 18
-2252.2163 6069.2310 1893.0035 0.178 -0.674 -0.717 20 42 65
-2154.2124 5920.4507 1810.5613 0.079 -0.589 -0.804 11 35 59
-2169.1704 6093.2549 1820.5135 0.534 -0.675 0.509 11 60 100
-2146.9495 6094.6387 1801.2054 0.544 -0.679 0.493 17 68 108
-2046.9062 6310.0352 1710.6112 0.923 -0.186 -0.338 63 135 177
-1868.2521 6236.0581 1556.8680 -0.153 -0.715 0.683 29 135 182
-1766.8851 6069.0093 1471.8275 0.138 -0.825 0.548 25 99 157
-1751.4329 6051.4683 1458.7251 0.135 -0.846 0.515 20 90 146
-1783.5834 6205.5718 1483.9253 0.068 -0.124 -0.990 19 80 126
-1780.4067 6233.1187 1480.6857 0.068 -0.124 -0.990 22 79 121
-1533.2845 5805.2319 1273.7273 -0.502 -0.761 0.411 15 33 55
-1574.9994 6174.7446 1303.4523 -0.244 -0.791 -0.561 19 30 48
-3756.2639 4932.3301 3200.2620 0.534 -0.041 -0.844 232 225 217
-3755.3516 4968.0508 3198.7605 0.563 -0.040 -0.826 139 124 111
-2338.4631 5875.3257 1953.2905 0.641 -0.650 -0.408 202 188 179
-2331.2822 5886.4482 1946.8484 0.641 -0.650 -0.408 199 185 176
-2324.3181 5898.1929 1940.5818 0.643 -0.656 -0.396 90 76 68
-2315.5894 5905.3296 1932.8784 0.457 -0.881 -0.127 31 22 18
-2312.7800 5928.2090 1929.9894 0.082 -0.987 0.134 28 23 21
-2282.8940 6129.2041 1900.0992 -0.185 -0.959 0.213 20 42 65
-2130.4080 5922.4282 1772.1202 0.756 -0.275 -0.594 1 50 91
-2175.0369 6083.9570 1807.5660 0.553 -0.674 0.490 4 57 98
-2162.0168 6079.0869 1796.3840 0.544 -0.679 0.493 25 81 123
-2037.1278 6285.6855 1684.0841 0.895 -0.411 0.176 16 78 118
-1908.2782 6192.2866 1574.3242 0.772 -0.134 -0.622 46 183 212
-1728.8879 6014.6519 1422.4589 0.055 -0.554 -0.831 24 84 127
-1719.1644 6017.2012 1413.9849 0.064 -0.543 -0.837 29 83 124
-1575.7731 6142.7661 1287.2697 -0.300 -0.861 -0.411 14 25 43
-1558.3021 6155.4849 1271.8818 -0.270 -0.838 -0.474 5 16 34
-3774.2832 4944.4561 3197.6899 0.538 -0.044 -0.842 237 230 223
-3772.5317 4979.0586 3195.4045 0.587 -0.048 -0.808 149 134 123
-2325.3335 5937.6187 1922.6157 0.044 -0.997 0.059 25 20 20
-2176.5857 5839.9175 1796.1659 0.087 -0.995 0.037 14 37 65
-2186.8865 5899.7148 1803.7411 0.499 -0.851 -0.161 39 67 98
-2161.1504 6050.3193 1778.1312 0.812 -0.540 -0.223 8 72 114
-2060.6077 6017.1846 1691.9271 -0.207 -0.978 -0.031 126 201 226
-1891.0260 6214.9819 1540.8784 0.974 -0.226 0.019 44 171 218
-1919.6653 6350.7695 1562.6185 0.893 -0.383 0.236 42 164 216
-1766.6110 6043.7842 1437.1072 0.413 -0.471 0.779 7 107 166
-1852.1770 6549.3550 1499.8353 0.542 -0.640 0.544 39 87 131
-1567.7871 5577.9087 1275.5573 0.677 -0.652 0.340 20 59 97
-1626.9521 6147.3315 1314.0333 -0.548 -0.719 -0.428 21 44 73
-3773.7927 4894.8862 3180.5728 0.745 -0.667 0.029 231 227 218
-3776.2725 4934.7495 3181.7307 0.789 0.007 -0.614 238 231 224
-2359.7380 5883.9976 1935.5988 -0.304 -0.796 -0.523 199 182 172
-2330.5500 5927.6045 1909.3291 -0.317 -0.768 -0.556 24 20 21
-2238.2424 6018.1914 1827.4177 0.885 -0.431 0.176 20 49 81
-2165.8604 6037.9067 1764.4524 0.781 -0.595 0.191 8 75 117
-2152.8186 6032.7393 1753.3223 0.617 -0.786 0.032 105 172 215
-2053.3354 6243.1206 1662.2639 0.896 -0.405 0.180 7 47 67
-1829.9943 6086.6196 1473.3365 0.412 -0.472 0.779 55 175 226
-1794.0154 6224.8452 1438.8728 0.624 -0.250 0.740 20 84 139
-1642.7460 6175.1860 1309.5232 -0.218 -0.974 0.069 21 46 75
-1625.0751 6187.8062 1293.9589 0.943 -0.323 -0.077 23 36 55
-3784.0349 4932.9097 3170.5979 0.722 0.015 -0.692 238 231 224
-3582.8777 4748.1216 3002.2639 0.743 -0.322 -0.587 149 116 91
-2369.8047 5886.8076 1926.2593 -0.306 -0.789 -0.533 199 182 172
-2187.8115 5853.1294 1770.3555 0.815 -0.572 -0.089 13 42 74
-2177.4070 5855.0317 1761.3390 0.799 -0.597 -0.074 12 48 84
-2196.7781 6035.9673 1773.1415 -0.238 -0.966 -0.098 16 83 125
-2182.0144 6026.0859 1760.6874 0.817 -0.512 -0.264 5 71 113
-2041.5055 6177.3682 1635.5311 0.955 -0.235 -0.183 47 82 102
-1834.7164 6418.4150 1450.8395 0.548 -0.527 0.650 24 81 126
-1819.3369 6402.6934 1438.0127 0.539 -0.530 0.655 29 81 122
-1823.1677 6457.2422 1439.8396 0.536 -0.062 -0.842 36 83 120
-1822.0165 6493.9834 1437.8550 0.536 -0.062 -0.842 40 81 116
-1636.2451 6409.1597 1280.0775 0.842 -0.097 0.531 12 25 42
-1483.8051 6342.9409 1150.5172 0.724 -0.295 -0.623 219 197 197
-3801.2812 4943.8940 3167.2544 0.472 -0.070 -0.879 238 231 224
-2377.2812 5882.9468 1914.8683 0.596 -0.583 -0.552 199 182 172
-2371.2646 5897.0400 1909.2793 0.602 -0.559 -0.570 196 179 169
-2314.8967 5990.6494 1858.0464 0.314 -0.896 0.313 15 34 57
-2303.6191 5991.2021 1848.3301 0.314 -0.896 0.313 14 35 59
-2134.8218 5772.9561 1709.5586 0.317 -0.926 0.206 24 71 114
-2200.9241 6022.1812 1759.0908 -0.027 -0.982 -0.186 23 90 132
-2189.1299 6020.7646 1748.9883 0.817 -0.512 -0.264 0 64 106
-2185.8149 6043.5771 1745.4668 0.424 -0.902 -0.081 16 83 126
-2178.4260 6054.8262 1738.7809 0.580 -0.777 -0.246 48 115 160
-2170.0942 6063.3994 1731.3628 0.580 -0.777 -0.246 38 105 150
-2160.3696 6067.9438 1722.8650 0.546 -0.810 -0.215 61 128 171
-2046.1985 6129.0581 1622.8699 -0.271 -0.952 0.141 70 104 124
-2044.2285 6192.6772 1619.3062 0.590 -0.642 0.490 167 188 211
-1822.7955 6075.0732 1432.3053 0.943 -0.331 -0.012 53 179 218
-1849.4839 6438.7266 1444.5751 0.577 -0.532 0.620 44 108 153
-1706.1860 6190.3037 1328.6227 -0.045 -0.960 0.275 21 50 82
-1698.2980 6200.4346 1321.5404 -0.058 -0.959 0.276 17 46 78
-3824.2542 4962.5439 3168.5044 0.445 -0.070 -0.893 229 222 215
-2388.4194 5888.4707 1906.3430 0.588 -0.562 -0.582 196 179 169
-2381.9568 5901.4165 1900.3834 0.588 -0.562 -0.582 193 176 166
-2356.9631 5956.1362 1877.1875 -0.337 -0.823 -0.458 23 23 27
-2303.8066 5936.8442 1832.1613 0.888 -0.448 0.102 10 29 52
-2252.0498 5919.6099 1788.2712 -0.474 -0.533 -0.701 23 41 66
-2220.9270 6053.3052 1757.3062 -0.278 -0.960 -0.024 29 96 138
-2193.3433 6039.3794 1734.0654 0.456 -0.886 -0.085 29 96 139
-2172.3506 6011.5503 1716.9253 0.349 -0.932 0.102 36 103 148
-2178.2078 6060.8188 1720.3900 0.580 -0.777 -0.246 48 115 160
-2123.8464 6133.3120 1671.4155 0.600 -0.208 -0.773 58 167 189
-2053.8640 6194.5073 1609.3881 0.609 -0.624 0.490 194 208 235
-1957.2783 6316.6313 1522.5854 0.207 -0.967 0.148 94 223 249
-1822.8268 6045.1221 1415.7679 0.925 -0.380 0.014 67 193 225
-1776.5789 6340.0225 1366.6993 -0.130 -0.804 0.580 36 67 98
-1762.6582 6328.6094 1355.1097 -0.101 -0.829 0.550 47 76 110
-1753.6256 6417.2974 1344.5393 -0.090 -0.867 -0.491 23 52 84
-1658.9338 6177.2822 1270.8586 -0.238 -0.971 0.019 16 31 52
-3822.7007 4966.4414 3149.1030 0.660 0.062 -0.749 221 212 203
-3823.2961 4985.6650 3148.9578 0.668 0.058 -0.742 158 144 133
-2280.4084 5941.6260 1794.0422 -0.476 -0.532 -0.700 58 74 95
-2158.3518 5820.9487 1693.5503 -0.032 -0.131 -0.991 19 81 125
-2178.5823 6068.5239 1702.4456 0.530 -0.848 0.002 73 140 180
-1906.5378 6190.2373 1465.1423 0.635 -0.582 0.507 94 220 245
-1773.5629 6295.8032 1347.5775 -0.196 -0.858 0.474 20 51 82
-1763.2605 6337.8101 1337.3154 -0.173 -0.883 -0.435 42 71 105
-1761.2161 6370.7539 1334.4398 -0.251 -0.886 -0.390 27 58 89
-1746.3357 6355.5620 1322.2048 -0.133 -0.896 -0.424 22 53 84
-3833.7312 4968.9434 3140.5291 0.667 0.061 -0.743 222 212 204
-3833.6348 4987.2109 3139.7808 0.668 0.058 -0.742 158 144 133
-2412.9504 5905.1021 1890.9109 0.252 -0.438 -0.863 196 179 169
-2308.9512 5963.6284 1799.8049 -0.424 -0.520 -0.741 27 41 61
-2221.1113 6003.1870 1723.2150 0.175 -0.970 0.171 17 82 124
-2199.6516 5974.5459 1705.9003 0.200 -0.963 0.178 17 82 124
-2101.6426 6080.1025 1618.2045 0.370 -0.399 -0.839 84 165 203
-2099.3311 6106.7612 1615.2550 0.370 -0.389 -0.844 7 50 97
-2092.3054 6119.3491 1608.7856 0.166 -0.595 -0.787 52 82 110
-1996.5670 6097.4600 1527.6787 0.752 -0.633 0.185 213 200 223
-1985.4398 6096.9624 1518.1775 0.051 -0.972 -0.231 186 181 201
-1933.7729 6214.8042 1469.6799 0.698 -0.589 0.408 114 240 254
-1795.4846 6303.7153 1348.1317 -0.116 -0.798 0.592 43 82 111
-3844.0671 4970.4980 3131.3782 0.667 0.061 -0.743 222 213 205
-3845.4617 4990.7534 3131.7830 0.667 0.061 -0.743 158 144 133
-2425.7329 5914.6250 1883.5111 0.285 -0.456 -0.843 196 179 169
-2299.4543 6006.1958 1772.1180 -0.361 -0.548 -0.755 31 56 85
-2146.1726 6052.9819 1639.4031 0.109 -0.992 -0.065 170 225 251
-1754.4060 5758.7417 1316.2626 0.009 -0.536 -0.844 85 215 232
-1731.9335 6195.0864 1280.1371 0.127 -0.981 -0.149 26 58 89
-1692.5170 6126.3789 1249.1428 0.218 -0.955 -0.199 16 46 75
-1641.7737 6131.1147 1205.6255 0.194 -0.981 0.002 18 34 52
-3860.7761 4962.2871 3128.0471 0.672 0.062 -0.738 234 229 223
-3861.5027 5018.4199 3126.3562 0.666 0.056 -0.744 142 124 110
-2435.0818 5915.4272 1873.4839 0.440 -0.606 -0.663 194 177 169
-2429.0808 5929.5762 1867.7859 0.469 -0.658 -0.589 191 174 166
-2299.0679 5859.6587 1759.8342 0.990 -0.143 -0.010 4 32 56
-2306.8389 6001.7642 1760.6096 0.844 -0.358 -0.400 15 51 80
-2197.3628 5795.8335 1675.7627 -0.250 -0.968 -0.008 21 57 106
-2208.9009 5857.8320 1683.0465 -0.177 -0.965 0.193 21 57 109
-2244.5576 6018.5229 1706.8282 0.340 -0.937 0.074 26 75 122
-2241.6182 6041.9897 1703.3567 0.392 -0.916 -0.084 37 87 131
-2164.9771 6114.6333 1635.0341 0.945 -0.241 -0.220 139 203 237
-2011.9290 6124.5698 1504.1592 -0.490 -0.812 -0.316 110 119 134
-1771.9951 5860.3193 1310.5037 0.961 -0.159 -0.227 76 194 227
-1741.5575 6198.2617 1270.6479 -0.265 -0.952 0.152 20 60 87
-3868.3843 5015.2354 3114.3232 0.788 0.136 -0.601 142 124 110
-2446.7471 5922.0303 1865.1677 0.424 -0.609 -0.671 194 177 169
-2293.9602 6004.4141 1731.5737 -0.732 -0.666 -0.142 19 53 97
-2262.9329 6044.5088 1703.4275 -0.429 -0.550 -0.717 24 70 118
-2183.2261 6043.3774 1635.6521 0.208 -0.974 -0.094 158 197 221
-2187.6516 6088.5747 1637.4515 0.267 -0.911 -0.315 148 198 224
-2171.7583 6075.2583 1624.5068 0.350 -0.880 -0.319 133 199 230
-1998.0670 6122.2002 1474.6666 -0.396 -0.875 -0.278 175 199 209
-1882.6580 6285.4414 1369.3605 0.831 -0.120 -0.543 63 174 211
-1734.3629 6178.4375 1247.8276 -0.274 -0.958 0.084 26 63 84
-1736.7319 6347.0952 1242.5062 0.107 -0.972 0.211 32 54 68
-1537.1217 6308.7729 1074.3201 0.837 -0.439 -0.328 211 191 190
-3870.3870 4987.1357 3099.3071 0.792 0.129 -0.597 181 169 159
-3874.7078 5029.7969 3101.0215 0.788 0.130 -0.602 144 119 99
-2451.9839 5912.5156 1852.0883 0.770 -0.581 -0.264 194 177 169
-2329.6804 6076.5991 1740.6808 -0.368 -0.910 0.193 12 46 90
-2295.1738 6014.2593 1714.2289 -0.322 -0.905 0.279 10 46 95
-2254.2334 5933.6685 1683.1489 -0.418 -0.895 0.158 9 46 98
-2144.7544 6202.3657 1577.8385 0.924 -0.383 0.007 147 172 185
-2040.1722 6122.5728 1492.6644 -0.131 -0.961 -0.245 183 188 203
-2024.2992 6142.1147 1478.2859 -0.490 -0.812 -0.316 176 192 202
-1937.3077 6404.2646 1392.3766 0.226 -0.672 0.705 68 185 220
-1933.0770 6428.2280 1387.6844 0.217 -0.673 0.707 51 162 199
-1901.9360 6359.1226 1364.4015 0.111 -0.667 0.737 42 148 187
-1819.0699 6377.6489 1293.1655 0.551 -0.606 0.574 33 79 111
-1544.4697 6302.9526 1063.3442 0.837 -0.439 -0.328 211 191 190
-3871.3176 4921.6841 3085.3318 0.804 0.140 -0.578 231 228 223
-2465.1001 5922.6860 1844.7941 0.750 -0.624 -0.220 194 177 169
-2446.8398 5994.1343 1825.8688 0.589 -0.725 -0.357 32 33 38
-2294.2173 6049.3960 1693.8002 -0.250 -0.562 -0.788 31 73 125
-2146.3801 6180.0542 1562.1562 0.922 -0.388 0.004 144 172 186
-2101.1367 6111.7705 1527.0856 0.013 -0.999 0.043 188 197 216
-2081.7131 6120.4609 1510.1980 -0.081 -0.867 -0.491 165 162 184
-2053.9019 6103.2314 1487.4474 0.480 -0.828 -0.289 183 173 197
-2044.7631 6109.1489 1479.4138 0.471 -0.833 -0.291 184 190 204
-2041.8719 6134.5298 1475.7394 0.407 -0.876 -0.257 185 197 209
-1913.1372 6404.9224 1353.5587 0.223 -0.719 0.659 66 166 207
-1794.6102 6179.4775 1263.9253 0.517 -0.734 0.441 21 80 118
-1755.9625 6434.1055 1218.8873 0.425 -0.717 0.552 24 46 60
-1617.0360 6142.0840 1115.1654 0.986 0.039 0.163 13 23 35
-2474.0088 5922.3394 1834.4071 0.679 -0.479 -0.557 192 175 167
-2456.3394 5995.1084 1815.7760 0.047 -0.939 -0.341 21 22 27
-2269.4636 6050.7793 1654.7991 0.503 -0.770 -0.393 153 201 239
-2270.3440 6084.8643 1653.8220 0.259 -0.957 -0.128 169 216 246
-2253.7852 6102.4985 1638.9165 0.920 -0.393 -0.005 163 215 235
-2161.5339 6198.1221 1556.0076 0.970 -0.138 -0.201 139 167 181
-1766.9026 5629.0557 1250.7571 0.804 -0.271 -0.530 119 244 254
-1805.2526 5790.1758 1275.0750 0.690 -0.394 -0.607 114 235 251
-1890.5607 6295.4160 1321.7510 0.712 0.035 -0.701 33 133 174
-1900.6362 6368.4741 1326.5874 0.138 -0.737 0.661 45 136 179
-1787.1002 6159.3491 1241.0603 0.725 -0.496 0.479 37 92 127
-1619.7360 6118.9761 1101.4495 0.717 -0.445 0.536 19 29 41
-2462.9148 5988.7046 1803.5940 0.492 -0.656 -0.573 21 22 27
-2307.5786 6067.7314 1668.1824 0.477 -0.850 -0.223 55 102 148
-2294.3252 6062.8682 1657.2422 0.517 -0.820 -0.247 105 152 194
-2286.6194 6073.1631 1650.1879 0.531 -0.704 -0.471 157 205 241
-2285.9041 6102.8384 1648.0153 0.464 -0.820 -0.334 171 217 248
-2270.3135 6091.3975 1635.4484 0.637 -0.666 -0.388 180 230 253
-2100.9187 6124.4033 1490.5916 -0.161 -0.987 -0.028 56 53 75
-2058.0222 6061.3960 1457.6809 0.033 -0.879 -0.476 121 113 137
-2051.9468 6076.5010 1451.7496 0.074 -0.860 -0.505 122 128 145
-2032.4264 6118.3828 1433.0444 0.132 -0.906 -0.402 188 211 215
-1985.9523 6110.2202 1394.2124 0.185 -0.271 -0.945 215 255 255
-1981.3848 6201.4600 1385.5312 0.251 0.007 -0.968 170 253 255
-1773.2089 6154.2378 1212.1510 0.223 -0.694 0.684 19 61 87
-1593.0538 6309.6860 1051.7319 0.792 -0.599 -0.118 95 88 82
-3975.9736 5134.3125 3108.7031 0.735 0.117 -0.667 147 118 94
-2474.8213 5995.7246 1795.2015 0.486 -0.664 -0.568 21 22 27
-2313.7351 5997.9980 1659.2275 0.628 -0.766 -0.140 26 60 113
-2310.0991 6018.9712 1655.0038 0.516 -0.835 -0.193 28 71 120
-2314.5217 6061.9644 1656.3610 0.496 -0.838 -0.229 82 129 174
-2299.5930 6052.5488 1644.2908 0.378 -0.891 -0.251 138 186 227
-2297.1768 6077.2773 1640.8884 0.530 -0.711 -0.463 162 210 246
-2301.6956 6121.3018 1642.2698 0.396 -0.865 -0.309 172 219 249
-2271.8145 6070.4556 1619.8761 0.706 -0.691 -0.153 176 227 251
-2130.2354 6118.3965 1497.8328 0.011 -0.709 -0.705 113 122 141
-2114.0493 6136.9590 1483.1583 -0.160 -0.987 -0.015 129 126 148
-2063.6086 6085.0635 1443.4841 -0.016 -0.865 -0.502 49 56 73
-2061.8799 6113.6421 1440.4490 0.040 -0.895 -0.445 118 131 142
-2051.4814 6149.9678 1429.6752 0.051 -0.863 -0.502 213 236 240
-2059.5737 6209.8726 1433.1937 -0.241 -0.752 -0.614 224 253 255
-2051.3137 6218.9829 1425.7252 -0.240 -0.765 -0.597 220 255 255
-1996.9283 6187.1875 1381.6150 0.255 0.015 -0.967 196 250 254
-1898.1757 6297.5562 1292.2434 0.952 -0.239 0.190 45 136 179
-3897.7900 4962.4697 3034.4465 0.674 0.095 -0.733 204 193 183
-3911.1484 5035.0352 3041.5186 0.656 0.089 -0.749 147 118 94
-2406.7170 6007.0068 1719.1656 0.200 -0.817 -0.540 0 34 54
-2327.2908 6010.2246 1652.1183 0.842 -0.510 -0.178 8 43 91
-2332.4194 6054.7773 1653.8734 0.719 -0.687 0.103 20 63 107
-2313.2888 6065.2036 1637.1694 0.814 -0.580 -0.027 164 209 248
-2326.9846 6165.6772 1642.9204 0.775 -0.571 -0.270 175 220 250
-2277.3386 6092.3623 1605.3440 0.896 -0.439 -0.072 136 192 213
-2173.4253 6152.9033 1514.3864 0.236 -0.827 0.511 26 48 63
-2140.9639 6123.6104 1488.7445 0.122 -0.685 -0.719 165 172 190
-2123.5933 6138.6562 1473.2563 -0.160 -0.987 -0.015 171 169 191
-2071.8726 6083.2007 1432.9064 0.034 -0.886 -0.462 114 123 139
-2081.9866 6147.9292 1437.6979 0.311 -0.910 0.275 96 111 123
-2076.3840 6234.1284 1428.0242 -0.283 -0.925 -0.253 224 254 254
-2028.8789 6155.1514 1392.5756 0.399 -0.400 -0.825 217 255 255
-3668.1777 3123.0652 2933.7798 -0.664 -0.609 -0.434 223 219 210
-3691.1929 3165.1062 2950.6040 0.697 -0.538 -0.474 222 219 210
-3911.9458 4969.0464 3028.1672 0.661 0.101 -0.744 221 211 202
-3933.3706 5052.3149 3041.1885 0.647 0.133 -0.751 146 119 96
-2487.3889 5838.3081 1779.0939 0.779 -0.475 -0.408 189 175 166
-2490.7192 5989.8794 1772.8234 0.805 -0.548 -0.227 19 21 25
-2524.1714 6255.1016 1785.0641 -0.533 -0.289 -0.795 0 28 57
-2302.7632 5861.0957 1622.5885 0.207 -0.951 -0.229 27 64 93
-2319.0317 6118.8374 1620.8373 0.933 -0.334 -0.135 174 209 240
-2255.7273 6102.4204 1568.6245 -0.376 -0.702 -0.605 56 184 223
-2254.8330 6132.0039 1566.1029 -0.412 -0.617 -0.671 68 191 232
-2133.1440 6140.3550 1463.3475 -0.160 -0.987 -0.015 111 114 127
-2067.9753 6145.6938 1408.2665 0.079 -0.853 -0.516 225 254 255
-2087.3228 6239.9766 1418.8828 -0.283 -0.925 -0.253 226 255 255
-2034.6431 6145.2651 1380.2828 0.254 -0.328 -0.910 226 255 255
-1934.8135 6176.6372 1294.5184 0.924 -0.036 -0.381 91 214 246
-1937.2598 6331.8647 1287.2861 0.980 -0.128 -0.151 68 167 211
-1828.4639 6144.4575 1207.0776 -0.173 -0.985 0.023 25 81 121
-3584.6072 2980.6982 2859.3872 -0.686 -0.693 -0.223 222 218 209
-3692.2170 3170.3801 2937.8604 -0.663 -0.530 -0.529 225 222 213
-3703.6287 3202.2859 2945.4492 0.601 -0.396 -0.694 223 220 211
-3706.4028 3215.6594 2946.9453 0.671 -0.308 -0.674 220 217 208
-3573.0967 3103.8154 2842.0801 -0.289 -0.339 -0.895 220 217 208
-2520.7268 5897.4590 1785.7205 0.734 -0.374 -0.567 189 175 166
-2553.1350 6304.9526 1787.5770 -0.528 -0.286 -0.800 0 28 57
-2307.2070 6061.8218 1596.4049 0.793 -0.608 -0.035 163 196 227
-2264.3687 6101.2920 1558.0190 -0.293 -0.835 -0.466 31 156 196
-2191.2129 6086.6802 1497.5645 -0.241 -0.774 -0.586 21 59 90
-2102.6084 6088.9546 1423.1022 -0.177 -0.972 -0.155 146 157 169
-2095.6963 6101.5342 1416.5223 -0.121 -0.974 -0.190 76 103 113
-2081.2161 6158.8975 1400.8110 0.072 -0.855 -0.514 214 249 250
-2093.5215 6265.9595 1404.4785 -0.316 -0.923 -0.221 219 252 255
-1993.0219 6339.3047 1315.6211 -0.309 -0.865 0.397 71 196 229
-1984.3911 6347.6899 1307.8605 -0.532 -0.733 0.424 70 189 227
-1979.4429 6368.3789 1302.4241 -0.476 -0.786 0.396 68 179 220
-1962.8896 6350.3228 1289.6614 0.399 -0.845 0.357 68 174 216
-1952.1411 6351.5649 1280.5684 0.399 -0.845 0.357 80 180 225
-1917.2848 6270.9814 1256.3397 0.406 -0.843 0.354 57 150 197
-1827.7898 6148.7822 1188.8668 -0.162 -0.986 0.036 56 106 145
-3709.5767 3013.3430 2949.2493 0.798 -0.546 -0.255 221 217 205
-3752.8813 3102.2410 2979.7764 -0.649 -0.734 -0.201 221 217 205
-3708.8147 3200.6011 2936.5386 -0.584 -0.539 -0.607 216 213 204
-3727.5535 3228.5752 2950.4248 -0.149 -0.364 -0.919 220 217 208
-2524.3479 5912.6816 1769.9468 0.731 -0.383 -0.565 189 175 166
-2352.5603 6097.6748 1614.1843 -0.609 -0.693 -0.386 165 196 215
-2205.0623 6100.6802 1490.4919 -0.286 -0.720 -0.632 12 41 69
-2109.1025 6081.7759 1411.3647 -0.168 -0.985 -0.042 61 70 84
-2110.6096 6119.5996 1410.1881 -0.202 -0.969 -0.143 70 100 110
-2158.6499 6584.7222 1420.4247 -0.750 -0.551 -0.365 165 249 254
-3140.1533 2475.2954 2496.3518 0.526 -0.485 -0.699 221 217 206
-3961.3965 3234.9270 3132.0024 -0.044 -0.754 0.655 220 216 204
-3731.3894 3098.0789 2948.9055 -0.668 -0.703 -0.243 209 205 196
-3925.4214 3279.7454 3098.9421 0.121 -0.617 -0.778 208 204 195
-3924.1721 3289.6372 3097.2373 0.134 -0.613 -0.779 209 205 196
-3912.9187 3290.6763 3087.7622 0.175 -0.553 -0.814 199 195 186
-3888.7944 3291.2390 3067.5620 -0.206 -0.485 -0.850 189 185 176
-3885.4131 3299.2634 3064.2002 -0.595 -0.677 -0.433 189 185 176
-3913.5266 4899.3647 2980.8347 0.573 0.072 -0.817 228 227 222
-3984.1440 5082.6064 3027.6179 0.634 0.128 -0.763 145 120 96
-2543.7742 5909.4614 1768.5577 0.678 -0.432 -0.595 189 175 166
-2218.2126 6112.5659 1482.8942 -0.286 -0.720 -0.632 25 55 79
-2161.3867 6111.1323 1435.4955 0.014 -0.883 -0.469 31 33 46
-2111.4270 6162.3389 1390.3202 -0.402 -0.916 0.000 195 242 247
-2099.2429 6159.2378 1380.3440 0.055 -0.883 -0.466 202 254 255
-2084.7874 6217.6431 1364.3618 0.153 -0.883 -0.443 183 253 255
-1879.4973 5742.3779 1224.5239 0.767 -0.626 -0.143 127 240 254
-1837.1157 5639.7383 1195.9568 -0.304 -0.413 -0.858 107 228 247
-1932.3752 6081.8408 1246.0475 0.601 -0.684 0.412 73 199 234
-1968.7156 6309.3691 1261.2247 -0.494 -0.789 0.365 69 176 218
-1954.6254 6299.2637 1250.1233 -0.483 -0.814 0.323 67 167 211
-1915.3376 6240.9585 1221.1812 -0.364 -0.897 0.249 30 116 163
-1923.9309 6307.1743 1223.9410 -0.303 -0.943 0.140 33 112 159
-3040.4495 2338.2209 2411.8433 0.362 -0.702 0.613 220 218 205
-3962.9690 3219.2446 3120.6099 -0.002 -0.747 0.665 214 210 198
-3748.1919 3106.7454 2949.1982 -0.583 -0.812 0.007 196 192 183
-3935.2854 3304.0266 3091.6558 0.141 -0.337 -0.931 189 185 176
-3902.3391 3296.8223 3064.6670 -0.203 -0.489 -0.848 183 179 170
-2413.2378 6148.4121 1625.3051 0.312 -0.526 -0.791 152 201 210
-2329.9497 6050.0610 1562.6149 0.423 -0.867 0.263 168 197 231
-2300.1670 6093.6226 1534.7577 0.294 -0.895 0.335 49 142 178
-2234.1951 6132.4038 1477.0389 -0.141 -0.989 0.053 4 32 53
-2222.0457 6130.1348 1467.0597 -0.141 -0.989 0.053 95 104 119
-2194.7515 6116.6865 1445.2179 -0.112 -0.993 -0.038 167 171 183
-2183.5916 6116.9854 1435.8868 -0.108 -0.993 -0.050 156 160 172
-2171.8994 6115.6709 1426.2230 -0.094 -0.994 -0.060 145 149 161
-2028.8959 6085.2534 1309.0195 0.192 -0.854 -0.484 131 240 246
-1895.6094 5799.8364 1217.5420 -0.197 -0.979 -0.058 101 225 245
-1937.4624 6069.9902 1233.7928 0.601 -0.684 0.412 75 200 236
-1955.2007 6308.0054 1232.1458 0.737 -0.634 -0.236 19 112 159
-1696.7736 6564.1768 998.8444 0.714 0.107 -0.692 206 184 183
-2987.2073 2297.3643 2360.1030 -0.198 -0.884 0.424 214 212 199
-3509.9072 2749.8796 2763.0869 -0.108 -0.994 0.002 212 208 197
-3919.6731 3305.7581 3064.6406 -0.204 -0.484 -0.851 206 202 193
-3913.5950 3333.6599 3057.5867 -0.667 -0.619 -0.415 206 203 194
-2543.6406 5922.0244 1731.8975 0.625 -0.302 -0.720 181 167 158
-2505.6899 6060.0278 1690.4388 0.604 -0.588 -0.538 1 26 53
-2455.3347 6111.6909 1644.8151 -0.371 -0.928 -0.024 11 46 74
-2399.1836 6026.6577 1604.1251 0.713 -0.562 -0.420 79 116 143
-2422.7939 6118.5986 1617.2225 0.472 -0.439 -0.764 150 189 212
-2248.6301 6115.5269 1472.4015 0.028 -0.924 -0.382 12 35 57
-2173.9749 6095.6450 1411.6497 -0.146 -0.988 -0.059 177 181 193
-2117.8704 6094.5791 1365.0029 -0.118 -0.984 -0.137 70 125 144
-2119.6858 6166.8398 1361.3552 0.856 -0.465 0.226 167 242 252
-1899.0718 5850.2896 1200.2346 0.842 -0.439 -0.312 82 210 249
-1942.5312 6058.1826 1221.5826 0.601 -0.684 0.412 64 188 225
-1708.1433 6573.3164 989.6068 0.720 0.106 -0.686 206 184 183
-2980.3723 2287.2383 2345.0374 -0.218 -0.884 0.414 208 206 193
-3913.9456 3228.7993 3051.7002 -0.599 -0.801 -0.010 206 202 191
-3931.0583 3298.3293 3060.8010 0.173 -0.236 -0.956 217 213 204
-3922.0681 3301.3792 3053.1028 0.119 -0.367 -0.923 217 213 204
-3952.5149 3361.9956 3073.9446 -0.653 -0.600 -0.462 214 211 202
-3871.5452 3311.4414 3010.3621 -0.561 -0.495 -0.663 213 210 201
-3848.5593 3312.8235 2991.1523 -0.337 -0.488 -0.805 216 213 204
-3856.7717 3331.4453 2996.6069 -0.310 -0.499 -0.809 216 213 204
-2558.8035 5936.7104 1725.6010 0.645 -0.307 -0.700 181 167 158
-2399.9937 6126.7192 1579.5801 -0.093 -0.947 0.307 163 194 215
-2339.0146 6026.0757 1536.3075 0.453 -0.781 0.430 154 185 216
-2315.5945 6149.2456 1507.7600 0.686 -0.663 0.300 14 60 92
-2196.0051 6101.0278 1411.9016 0.683 -0.644 0.343 174 178 190
-2169.5532 6089.3638 1390.7723 -0.381 -0.825 -0.416 163 169 183
-2039.7056 6064.2407 1284.6840 0.552 -0.730 -0.404 101 236 247
-1941.5858 6312.9458 1184.7872 0.175 -0.932 0.317 20 82 125
-1922.7357 6286.3228 1171.0800 0.635 -0.746 0.202 26 80 120
-2819.2388 2091.8979 2216.0952 0.223 -0.439 -0.870 215 211 199
-2982.9597 2284.9460 2337.2754 -0.150 -0.864 0.481 203 200 188
-3946.8394 3305.8137 3059.4939 0.070 -0.383 -0.921 213 209 200
-3985.6465 3385.0381 3085.6738 -0.557 -0.707 -0.436 217 214 205
-2570.3801 5914.5806 1719.0380 0.658 -0.307 -0.688 184 170 161
-2564.7136 5957.3887 1711.0824 0.645 -0.307 -0.700 70 59 51
-2564.3308 5984.9307 1708.6713 0.709 -0.395 -0.584 19 18 19
-2499.0391 5968.8677 1655.7140 0.387 -0.888 -0.249 1 27 48
-2490.8704 6006.6597 1646.0632 0.654 -0.446 -0.611 0 30 57
-2497.8740 6083.2031 1646.0566 0.409 -0.304 -0.860 0 35 62
-2456.5491 6008.3569 1617.4550 -0.271 -0.880 -0.390 0 34 63
-2468.4763 6068.3096 1622.7950 0.784 -0.620 -0.036 0 35 62
-2435.1116 6133.4194 1590.1605 0.709 -0.662 -0.245 156 199 211
-2429.1812 6148.5903 1584.0863 0.118 -0.985 0.122 159 197 211
-2347.4893 6024.6992 1525.7164 0.463 -0.771 0.437 176 207 236
-2343.2461 6043.9028 1520.7360 0.372 -0.806 -0.461 174 215 233
-2324.9363 6149.8750 1497.4879 0.679 -0.672 0.296 9 50 84
-2290.3105 6117.7827 1471.1953 0.065 -0.887 -0.458 14 50 75
-2267.0413 6116.5396 1451.9812 -0.146 -0.984 0.099 19 32 56
-2046.4226 6057.8936 1273.3726 0.475 -0.763 -0.438 95 232 247
-2048.1609 6199.6938 1264.0369 -0.358 -0.929 0.097 70 201 236
-2025.1322 6196.7334 1245.1531 0.589 -0.569 -0.574 68 195 240
-2018.1996 6209.7451 1238.4114 0.647 -0.623 -0.439 66 190 237
-1909.0206 6283.6157 1142.2014 0.326 -0.770 0.548 34 75 108
-1793.2000 5923.3931 1073.4751 0.813 -0.202 -0.546 24 62 90
-1830.5892 6087.9614 1091.9916 0.404 -0.909 0.099 22 54 79
-1806.3663 6150.7681 1067.1180 -0.560 -0.811 -0.167 7 25 39
-2981.1245 2279.0073 2326.1521 -0.141 -0.858 0.495 199 193 181
-4037.7407 5073.1562 2982.5361 0.538 0.037 -0.842 141 124 106
-4018.3552 5084.4624 2965.5940 0.867 0.003 -0.498 148 120 96
-2585.1619 5928.1860 1712.4230 0.451 -0.385 -0.805 180 163 153
-2577.8589 5967.0913 1703.3274 0.650 -0.323 -0.688 64 52 46
-2569.8772 5976.3008 1695.9951 0.732 -0.406 -0.547 17 18 20
-2515.7129 5958.8672 1652.4963 0.497 -0.357 -0.791 189 226 236
-2514.5515 6102.0288 1640.3240 0.404 -0.313 -0.859 77 124 150
-2464.2327 6004.8701 1606.2535 0.207 -0.792 -0.574 27 66 94
-2480.2878 6075.0781 1614.0541 0.724 -0.689 0.015 13 52 77
-2452.1250 6153.7490 1584.5665 0.667 -0.511 -0.541 159 192 212
-2379.6409 6055.5439 1532.2188 0.495 -0.840 -0.221 164 189 211
-2352.6094 6014.4434 1513.0472 0.463 -0.771 0.437 173 199 223
-2193.4553 6106.8433 1373.9857 0.735 -0.675 0.071 151 166 183
-2057.6870 6065.5000 1264.7676 0.463 -0.780 -0.420 70 192 219
-2046.8928 6065.8735 1255.7976 0.514 -0.845 0.150 76 208 235
-2027.0576 6038.2456 1241.5316 0.477 -0.859 0.187 55 189 219
-2053.8311 6259.2144 1246.4044 -0.312 -0.948 0.060 43 170 207
-2026.6802 6208.3320 1227.9001 0.647 -0.623 -0.439 56 175 217
-2006.4005 6249.4028 1207.8865 0.455 -0.864 -0.215 39 126 178
-1847.1129 6151.6641 1083.6035 0.807 -0.162 -0.568 20 36 62
-1845.9972 6184.7207 1080.0909 0.629 -0.610 -0.482 17 31 56
