ply
format ascii 1.0
element vertex 797
property float x
property float y
property float z
property float nx
property float ny
property float nz
property uchar diffuse_red
property uchar diffuse_green
property uchar diffuse_blue
end_header
-3587.9387 2906.7830 965.8290 0.248 -0.559 0.792 147 108 79
-3568.0347 2898.1943 956.7582 0.046 -0.648 0.761 148 109 80
-3551.2385 2900.9805 944.9495 0.675 -0.494 0.548 160 119 91
-3477.7874 2977.4021 866.7134 0.577 -0.528 -0.623 86 70 73
-3481.3679 3026.4048 848.6967 0.205 -0.903 -0.377 30 40 34
-3168.5425 2828.8074 732.0563 0.860 -0.209 -0.466 17 20 1
-3371.0449 3080.0769 756.4887 -0.535 -0.844 -0.044 68 37 28
-3344.9919 3102.0881 730.8481 0.626 -0.141 -0.767 75 25 20
-3248.2288 3052.8494 689.8495 0.631 -0.756 0.172 53 17 5
-3303.4016 3118.2141 697.7876 0.254 -0.914 0.316 49 10 0
-3255.6931 3197.1338 634.8477 0.570 -0.799 -0.193 94 46 32
-3251.9187 3203.2007 629.9415 0.607 -0.728 0.321 105 57 43
-3251.7021 3213.0513 625.7258 0.635 -0.709 0.307 106 58 44
-2452.4744 2783.9446 296.3719 0.639 -0.435 -0.635 151 91 65
-2333.8328 3196.6450 50.2412 0.915 -0.386 -0.114 18 17 15
-2466.6455 3714.9160 -80.0806 0.260 -0.935 0.242 207 164 165
-2554.7903 3929.8254 -113.1406 0.655 -0.744 0.131 112 74 65
-2450.9065 3843.1213 -143.1448 0.464 -0.587 0.664 153 111 102
-2450.1628 3856.2915 -149.0693 -0.159 -0.789 0.593 147 104 95
-2308.5425 3918.8474 -264.8098 -0.043 -0.985 0.168 230 187 180
-2364.8093 4117.5747 -311.3927 0.861 -0.507 -0.036 236 193 184
-1125.4922 4634.4595 -1311.5912 0.799 -0.589 -0.120 229 146 132
-4377.4326 2603.4436 1581.0573 0.898 -0.037 -0.438 54 40 20
-4332.9932 2612.9153 1548.9796 0.954 0.073 -0.290 135 106 72
-4439.4102 2705.2471 1577.9298 0.968 -0.058 -0.246 118 96 66
-4204.1372 2581.8293 1480.3348 0.981 0.104 -0.165 111 96 76
-4209.2759 2592.7756 1479.0330 0.982 0.102 -0.162 97 83 63
-4221.9966 2608.7896 1480.4221 0.982 0.088 -0.166 87 71 47
-3857.4692 2909.1418 1124.6366 0.989 -0.107 -0.100 101 59 29
-3947.7603 2990.8975 1147.7783 0.896 -0.315 -0.312 116 72 40
-3943.0579 2995.9685 1142.6909 0.897 -0.334 -0.291 116 70 38
-3977.0579 3032.5618 1148.9883 0.772 -0.354 -0.529 108 61 30
-3555.3230 2880.9617 945.0684 0.031 -0.659 0.751 128 88 59
-3545.7449 2889.9824 935.2502 0.662 -0.502 0.557 148 107 80
-3534.3879 2923.8115 913.9814 0.549 -0.675 0.493 152 110 84
-3515.7639 2916.0771 905.4089 0.513 -0.527 0.678 150 111 86
-3298.9526 3097.1292 692.7939 0.498 -0.690 0.525 46 16 4
-3309.9954 3117.9153 691.1349 0.293 -0.907 0.302 43 8 0
-3299.2100 3126.3904 680.7795 0.817 -0.554 0.161 40 11 2
-3259.6511 3194.0583 627.5731 0.461 -0.818 -0.345 93 46 33
-3255.0710 3199.2673 622.5055 0.564 -0.799 -0.208 89 42 28
-3254.7935 3209.0337 618.2655 0.641 -0.685 -0.346 87 43 27
-3246.5359 3210.3777 612.4780 0.666 -0.588 0.459 86 42 26
-3250.8018 3307.4658 574.7745 0.995 -0.098 0.033 90 45 28
-3309.6230 3425.4070 562.9332 0.972 -0.231 0.046 83 36 16
-2442.8352 2756.1221 292.6802 0.851 -0.158 -0.500 150 90 64
-2335.3279 3391.3569 -39.7452 0.569 -0.261 -0.780 39 35 36
-2382.8286 3996.2776 -261.4158 0.278 -0.951 -0.136 230 187 180
-2371.9875 4007.6282 -273.0031 0.299 -0.948 -0.110 230 187 180
-2366.7781 4013.7097 -278.8325 0.197 -0.971 -0.132 230 187 180
-2365.9998 4027.9355 -285.2454 0.702 -0.708 -0.082 230 187 180
-2332.7651 3998.0896 -293.8663 -0.115 -0.792 0.600 228 185 179
-2321.3967 3992.6887 -298.8162 -0.115 -0.792 0.600 228 185 178
-944.6530 4090.8940 -1211.3336 0.358 -0.247 -0.900 211 107 90
-1023.3090 4660.7720 -1398.6957 -0.003 -0.959 -0.282 214 29 40
-4187.8286 2434.5593 1520.7020 0.869 -0.032 0.494 51 35 19
-4181.6489 2437.8003 1515.4415 0.864 -0.040 0.502 57 44 26
-3542.4731 2060.8008 1269.2660 0.410 -0.408 0.815 88 73 55
-4360.6504 2595.1179 1562.7410 0.987 0.086 -0.134 118 93 61
-4355.7769 2599.5710 1557.7987 0.985 0.092 -0.146 132 101 64
-4350.8096 2603.9688 1552.8206 0.989 0.084 -0.122 145 113 75
-4334.3994 2601.0071 1543.6904 0.968 0.069 -0.239 153 120 82
-4336.4824 2609.9424 1541.2689 0.941 0.073 -0.331 148 114 77
-4416.1411 2676.8911 1563.5980 0.912 -0.012 -0.410 134 103 67
-3649.0146 2702.7822 1068.0455 0.298 -0.787 -0.541 83 35 8
-3756.1372 2796.4043 1096.5707 0.976 -0.165 -0.141 89 41 11
-3798.2371 2855.3511 1098.5149 0.993 -0.075 -0.093 115 65 34
-3952.7300 2988.6792 1140.3629 0.893 -0.326 -0.311 114 65 33
-3946.2646 2992.3181 1134.7554 0.898 -0.319 -0.302 115 65 32
-3644.1545 2899.2632 982.7867 0.453 -0.756 0.472 117 73 44
-3538.7163 2877.6814 925.1913 0.579 -0.694 0.429 134 92 68
-3534.9604 2883.0730 920.5629 0.801 -0.478 -0.361 133 91 68
-3535.7227 2892.4431 917.1250 0.755 -0.541 -0.371 133 91 68
-3537.8120 2903.0161 914.0225 0.521 -0.724 0.452 140 98 75
-3529.4214 2913.1516 904.4811 0.578 -0.663 0.477 144 102 78
-3510.8967 2976.7053 866.1914 0.237 -0.744 -0.625 70 50 37
-3346.7778 3148.0435 690.8195 0.358 -0.777 0.518 41 19 5
-3276.6606 3194.6489 627.0196 0.300 -0.954 0.013 98 58 47
-3264.8694 3192.3091 620.5479 0.552 -0.780 -0.293 90 49 37
-3260.2354 3197.4583 615.4658 0.564 -0.799 -0.208 83 42 29
-3254.4487 3201.4016 610.1599 0.643 -0.707 0.294 82 41 27
-2720.2993 3523.7026 137.8298 0.920 0.101 0.379 20 1 1
-2415.8247 3483.1877 -37.6104 0.531 -0.165 -0.831 25 20 24
-2469.5981 3699.2788 -94.0234 0.308 -0.892 0.330 200 156 159
-2416.6785 3820.9370 -178.3512 0.644 -0.621 0.447 114 78 71
-2389.3628 3846.3547 -206.2433 0.141 -0.656 0.742 139 98 91
-2340.6765 3939.0652 -275.7873 0.072 -0.877 -0.476 211 167 164
-2334.2188 3942.6155 -281.3529 0.072 -0.877 -0.476 211 167 164
-2328.7908 3948.0479 -287.0550 0.078 -0.876 -0.475 211 167 164
-2321.1997 3980.5002 -305.4263 -0.064 -0.779 0.624 194 150 148
-1030.4607 4668.7764 -1408.9081 0.008 -0.981 -0.194 198 31 36
-4185.0840 2427.9854 1511.1442 0.866 -0.024 0.499 65 49 32
-4179.0928 2431.3315 1505.9591 0.864 -0.034 0.503 70 56 37
-3592.7080 2076.2026 1285.4871 0.667 -0.156 0.729 115 100 84
-3588.6814 2079.7805 1281.4435 0.336 -0.459 0.822 118 105 89
-3565.7427 2071.3828 1270.5088 0.218 -0.507 0.834 127 112 94
-3549.0891 2066.9141 1261.8857 0.221 -0.508 0.833 136 116 91
-3525.7190 2058.1257 1250.8431 0.280 -0.537 0.796 138 114 82
-4364.4336 2638.0522 1535.9244 0.923 -0.022 -0.385 137 110 76
-4327.4180 2621.7063 1519.4542 0.975 -0.063 -0.215 126 105 77
-3622.7700 2668.3464 1055.4854 0.725 -0.665 0.179 88 40 16
-3601.4790 2659.3584 1045.8379 0.810 -0.585 0.018 100 50 22
-3589.3293 2657.5881 1038.9204 0.217 -0.973 -0.074 104 53 22
-3782.8926 2828.6492 1089.0635 0.980 0.056 -0.193 115 64 33
-3805.1689 2854.9712 1092.0443 0.993 -0.075 -0.094 116 65 34
-3891.8394 2933.3513 1113.7458 0.971 -0.232 -0.064 114 65 33
-3746.4592 2936.0251 1020.9432 0.944 -0.046 0.326 114 67 37
-3539.9807 2872.6492 917.3809 0.747 -0.551 -0.372 129 85 60
-3540.5234 2890.4753 910.2283 0.755 -0.541 -0.371 127 85 61
-3539.1003 2897.9465 906.1897 0.605 -0.307 -0.734 134 92 68
-3521.8491 2891.4893 898.0258 0.332 -0.754 0.566 138 96 72
-3400.6619 2940.9473 800.8096 0.336 -0.596 0.729 28 33 20
-3265.2593 3195.5015 608.3990 0.366 -0.930 0.018 92 54 41
-3266.2063 3319.5325 556.8489 0.988 -0.044 0.151 70 33 11
-3249.8704 3312.2224 549.6207 0.965 -0.254 -0.067 60 23 2
-2465.7217 2779.9866 278.8985 0.786 -0.494 -0.371 145 83 60
-2596.2388 3240.8018 167.4604 0.930 0.181 0.321 114 71 62
-2649.5037 3392.9365 137.0868 0.921 0.096 0.377 65 32 32
-2677.7825 3443.7844 133.5414 0.952 0.086 0.294 38 12 13
-2420.0845 3357.8115 7.1801 0.974 0.202 -0.100 26 24 29
-2469.9714 3457.2847 -3.1828 0.994 -0.084 -0.074 27 25 30
-2473.4536 3695.3381 -101.0735 0.308 -0.892 0.330 202 158 161
-2374.6597 3943.1353 -267.5573 0.321 -0.876 0.360 168 124 121
-2366.6006 3943.8765 -272.9510 0.321 -0.876 0.360 167 123 120
-2352.3469 3948.6655 -283.9531 0.397 -0.917 0.042 166 122 119
-2343.4980 3947.9167 -289.2184 0.078 -0.876 -0.475 166 122 119
-2332.6599 3958.8721 -300.6591 0.117 -0.882 -0.457 159 115 114
-1037.7897 4677.5713 -1419.3884 -0.024 -0.997 -0.067 190 28 31
-1031.1469 4679.6416 -1424.4478 0.913 -0.364 -0.183 195 26 31
-1013.5397 4624.5259 -1412.3783 0.414 -0.895 0.167 197 24 30
-4182.0498 2421.2490 1501.5121 0.867 -0.024 0.497 76 61 43
-4176.7905 2425.0391 1496.6005 0.866 -0.024 0.499 81 68 49
-3558.2732 2062.4851 1260.5376 0.218 -0.507 0.834 128 114 95
-3533.2065 2052.6763 1248.9066 0.223 -0.508 0.832 135 117 94
-4334.2773 2613.2861 1516.1680 0.929 -0.006 -0.369 123 100 70
-4299.3467 2598.2664 1500.5310 0.938 -0.060 -0.341 112 94 69
-4047.5037 2499.9224 1383.5891 0.985 -0.111 -0.135 38 34 22
-3833.9270 2739.2954 1148.0201 0.807 -0.537 0.244 44 26 12
-3607.4902 2658.5862 1039.6160 0.841 -0.541 -0.005 95 46 17
-3646.7385 2705.7510 1044.3865 0.855 -0.418 -0.307 108 57 28
-3554.1689 2896.2434 905.6300 0.524 -0.444 -0.727 123 78 55
-3546.5068 2898.2563 899.9573 0.605 -0.307 -0.734 130 85 62
-3529.6655 2900.9177 888.2334 0.574 -0.655 0.491 133 90 65
-3555.0381 3003.8635 860.6996 0.144 -0.875 -0.461 43 22 11
-3152.2896 2788.4990 698.2341 0.157 -0.344 -0.926 45 22 8
-3304.1194 3178.9250 628.8055 0.763 -0.573 0.300 90 56 44
-3237.9575 3179.5742 586.8917 0.451 -0.796 0.404 104 67 51
-3210.5784 3180.5706 569.2394 0.442 -0.795 0.416 78 41 25
-3206.7627 3186.5244 564.3221 0.358 -0.807 0.470 66 29 13
-3211.3542 3201.4819 560.8911 0.726 -0.478 0.494 58 22 5
-3246.8232 3301.3206 541.0245 0.880 -0.187 0.436 52 18 1
-2593.3701 3228.7966 160.4153 0.901 0.073 0.427 114 71 62
-2568.7590 3206.5964 154.3074 0.794 0.048 0.606 114 71 62
-2645.1094 3378.2769 129.8114 0.346 -0.610 -0.712 67 34 34
-2469.0627 3678.1638 -107.7093 0.230 -0.835 0.499 206 162 165
-2380.5017 3942.1248 -274.9890 0.334 -0.879 0.339 138 94 91
-2372.5464 3943.0642 -280.3927 0.334 -0.879 0.339 138 94 91
-2364.6023 3944.0029 -285.7890 0.334 -0.879 0.339 143 99 96
-2358.4517 3948.1565 -291.4152 0.391 -0.920 0.028 143 99 96
-1011.9113 4623.3130 -1424.1747 0.416 -0.898 0.141 190 20 23
-998.9595 4628.1597 -1434.3740 0.566 -0.756 0.330 208 30 37
-4174.5747 2411.7676 1490.2972 0.992 -0.098 0.084 79 64 46
-4173.6538 2418.2429 1486.9685 0.992 -0.098 0.084 80 67 48
-4315.5776 2603.5723 1497.4005 0.951 -0.067 -0.302 83 69 45
-4213.5459 2544.9688 1458.2035 -0.158 -0.496 -0.854 54 43 24
-4135.4390 2545.7888 1408.7958 -0.269 -0.468 -0.842 39 32 18
-3829.4875 2730.2478 1138.2850 0.912 -0.411 -0.002 41 24 8
-3847.7581 2760.4797 1136.9210 0.522 -0.686 -0.507 59 31 20
-3849.9312 2770.3203 1134.1066 0.496 -0.720 -0.485 70 34 20
-3608.6414 2646.0940 1035.3115 0.817 -0.548 -0.179 86 39 13
-3593.6741 2649.9690 1024.2648 0.776 -0.422 -0.468 97 46 15
-3590.9189 2844.2668 940.0142 0.446 -0.894 0.032 114 70 43
-3571.9368 2845.1301 927.7247 0.360 -0.921 0.151 117 73 46
-3489.9668 2947.5149 832.7552 0.864 -0.426 -0.271 23 12 4
-3517.6655 2999.7688 827.9602 0.229 -0.727 -0.647 17 13 7
-3462.9814 2985.8425 799.5275 -0.157 -0.693 -0.704 34 28 20
-3452.3984 2985.1226 793.1861 -0.105 -0.685 -0.721 34 20 12
-3299.6980 2852.1531 753.7476 0.513 -0.730 0.450 37 18 9
-3234.1846 2816.9099 727.5666 0.043 -0.968 -0.248 37 18 11
-3305.4133 3173.1240 621.0180 0.763 -0.573 0.300 87 51 39
-3268.9912 3184.9912 593.1011 0.907 -0.367 0.205 109 73 57
-3250.5574 3175.6614 585.4852 0.938 -0.286 0.196 112 75 59
-3234.3916 3178.5879 574.0886 0.256 -0.805 -0.535 111 74 56
-3229.5935 3183.5044 568.9866 0.256 -0.805 -0.535 104 67 51
-3228.8223 3192.6997 564.5969 0.254 -0.790 -0.558 90 53 37
-3224.1599 3197.7903 559.5065 0.254 -0.790 -0.558 74 38 22
-3255.5356 3324.1951 525.5284 0.323 -0.350 0.879 71 44 30
-2651.9868 3379.1624 123.0917 0.318 -0.617 -0.720 67 34 33
-2684.2690 3447.0745 114.5254 0.740 -0.497 -0.454 21 1 2
-2377.6982 3219.1992 18.7479 0.899 -0.412 -0.148 11 10 8
-2467.6667 3484.9011 -37.5886 0.978 -0.027 -0.207 26 24 29
-2509.8687 3760.8796 -128.2923 0.838 -0.429 0.336 206 154 159
-2424.9221 3774.3279 -187.3591 -0.280 -0.925 0.259 54 24 16
-2414.5718 3771.0178 -192.4544 -0.279 -0.926 0.252 53 23 15
-2356.7170 3800.3374 -241.2455 -0.089 -0.988 0.123 144 103 99
-2350.9333 3804.7068 -246.7340 -0.114 -0.986 0.121 142 101 97
-2374.6113 3860.7371 -255.6584 0.898 -0.179 -0.402 139 98 94
-2387.6697 3973.8918 -295.5144 0.505 -0.859 0.088 151 107 104
-2381.0027 3977.2351 -301.1217 0.505 -0.859 0.088 151 107 104
-2350.0085 3998.1929 -329.4903 0.607 -0.790 0.083 133 89 88
-2332.3103 3981.2278 -333.4014 0.004 -0.727 0.686 129 85 84
-2226.6614 3846.6392 -342.5988 0.554 -0.767 0.324 127 85 83
-1140.4099 4671.1099 -1375.0383 0.450 -0.211 -0.868 218 123 106
-1028.3527 4643.5786 -1433.7292 0.504 -0.852 0.144 190 30 32
-1020.5619 4639.4009 -1436.8484 0.491 -0.847 0.202 189 21 26
-1009.4340 4617.6519 -1434.6010 0.442 -0.867 0.231 192 17 24
-4174.3364 2406.8103 1481.7515 0.992 -0.098 0.084 78 64 47
-4173.4160 2413.2717 1478.4165 0.992 -0.098 0.084 77 64 45
-3831.0408 2717.7771 1133.8218 0.792 -0.537 0.291 31 21 4
-3839.6582 2732.3892 1132.9866 0.935 -0.354 0.005 38 21 7
-3871.3982 2781.1396 1132.0739 0.290 -0.696 -0.657 67 32 18
-3611.3948 2642.7603 1028.1570 0.724 -0.562 -0.401 85 38 11
-3751.5591 2913.0894 1000.6306 0.839 -0.287 0.462 95 48 18
-3538.1313 3002.8579 828.5261 0.110 -0.856 -0.505 19 10 7
-3421.9734 2959.4805 774.2280 0.235 -0.817 -0.527 30 13 3
-3271.4177 2845.6401 728.4440 0.089 -0.996 -0.031 34 15 8
-3232.6418 3179.5125 561.6257 0.288 -0.762 -0.580 122 83 68
-3228.3403 3184.9536 556.6068 0.288 -0.762 -0.580 109 72 56
-3224.0337 3190.4009 551.5822 0.288 -0.762 -0.580 94 59 43
-3214.7712 3200.6360 541.4072 0.289 -0.768 -0.572 47 22 14
-3200.9578 3216.1460 526.1279 0.779 -0.358 0.515 45 24 17
-3225.1663 3273.0898 516.9968 0.854 -0.174 0.491 61 39 32
-3214.1118 3302.6401 497.4539 0.597 -0.428 0.679 73 47 38
-3186.5608 3282.7156 488.6880 0.834 -0.435 0.339 75 49 40
-2737.8589 3500.2329 114.5730 0.573 -0.652 -0.497 38 12 11
-2475.3169 3654.7302 -115.9480 0.759 0.112 -0.641 209 171 171
-2475.5417 3668.4382 -121.6582 0.231 -0.945 0.233 212 168 171
-2512.1428 3754.2373 -135.3376 0.832 -0.437 0.342 217 166 170
-2408.9629 3765.0618 -204.6365 -0.331 -0.913 -0.238 61 28 21
-2393.6025 3767.2888 -215.2157 0.006 -0.990 -0.141 62 29 22
-2392.4932 3808.1387 -233.3477 0.454 -0.814 -0.362 106 67 62
-2387.2673 3813.5349 -238.9269 0.454 -0.814 -0.362 122 83 78
-2366.9368 3821.6953 -255.1543 -0.086 -0.985 0.151 141 100 96
-2335.5452 3929.3792 -320.7964 0.569 -0.798 0.199 135 91 90
-2335.4490 3944.4690 -327.2977 0.569 -0.801 0.189 135 91 90
-2314.5247 3921.5613 -330.6361 0.717 -0.526 -0.458 135 91 90
-2234.5427 3865.0520 -356.6521 0.622 -0.707 -0.336 137 96 94
-1069.3037 4610.1709 -1405.1328 0.987 -0.146 -0.070 210 94 81
-1064.4023 4620.5679 -1412.6432 0.984 -0.138 -0.112 214 90 80
-4173.1216 2401.2595 1472.8751 0.990 -0.108 0.093 78 64 47
-4167.8047 2404.9714 1467.9567 0.918 -0.111 0.380 77 64 46
-3492.2168 1990.8402 1222.9639 0.368 -0.231 0.901 76 64 49
-3883.5911 2768.4031 1134.2489 -0.284 -0.933 -0.222 44 25 11
-3901.7153 2790.4734 1136.1196 0.304 -0.653 -0.694 56 29 19
-3885.2771 2794.3057 1124.1920 0.325 -0.587 -0.742 77 33 14
-3763.2207 2789.5293 1049.8827 -0.095 -0.993 -0.075 112 59 28
-3613.2488 2859.7104 925.9543 0.181 -0.952 -0.249 102 58 31
-3340.8589 2895.5032 740.1936 0.411 -0.808 0.423 29 13 3
-3181.9277 2824.1853 671.3605 0.179 -0.924 -0.338 38 17 0
-3167.1008 2818.6448 664.4615 0.167 -0.814 -0.556 38 17 0
-3302.7881 3031.6479 657.9733 0.952 -0.270 -0.147 108 69 56
-3248.0378 3168.6201 564.9637 0.932 -0.273 0.238 116 77 62
-3243.4954 3173.7874 559.9053 0.925 -0.287 0.251 116 78 62
-3234.8459 3174.6411 554.1279 0.669 -0.743 -0.013 110 73 57
-3233.1477 3182.8179 549.5579 0.320 -0.803 -0.502 103 67 51
-3228.4707 3187.8677 544.4657 0.320 -0.803 -0.502 94 59 45
-3222.8005 3191.8716 539.2008 0.503 -0.775 -0.383 67 43 36
-3209.8826 3188.1562 532.7132 0.840 -0.479 0.254 48 29 23
-3235.7627 3256.4854 519.5920 0.759 -0.147 0.635 44 29 24
-3196.9951 3286.6624 482.3938 0.611 -0.449 0.652 74 52 47
-2669.0493 3385.4146 109.7495 0.569 -0.739 -0.360 67 34 32
-2746.2175 3502.8469 107.6499 0.582 -0.643 -0.498 39 13 11
-2476.3691 3646.4548 -122.7714 0.652 0.085 -0.754 209 171 171
-2547.3672 3814.4087 -150.4037 0.365 -0.927 0.085 203 159 153
-2454.3564 3774.2388 -191.3592 0.655 -0.609 0.447 167 133 126
-2393.4534 3813.3374 -246.2324 0.454 -0.814 -0.362 81 40 36
-2396.7407 3833.4292 -252.7947 0.858 -0.363 -0.364 86 45 41
-2394.6565 3844.3438 -258.7809 0.858 -0.363 -0.364 119 78 74
-2364.4480 3820.9309 -267.6355 0.415 -0.665 0.621 134 93 89
-2309.7214 3811.9248 -298.0090 0.509 -0.582 0.634 144 100 97
-2300.6729 3810.4189 -303.0237 0.448 -0.620 0.644 144 100 97
-2249.8044 3882.0146 -365.5598 0.322 -0.908 0.269 138 98 96
-2236.0181 3871.5015 -369.6747 0.693 -0.627 -0.356 159 119 117
-2319.8394 4108.8281 -419.0443 0.770 -0.637 -0.034 227 187 185
-1828.2328 4022.2429 -689.4492 -0.439 -0.807 0.395 240 200 192
-1817.5455 4014.7378 -692.9155 -0.439 -0.807 0.395 243 203 195
-1807.8235 4009.4741 -696.7396 -0.444 -0.806 0.392 243 202 196
-1111.9464 4425.9941 -1310.7568 0.806 0.003 -0.592 226 135 117
-4171.5586 2395.5076 1463.8995 0.934 -0.014 0.357 78 64 48
-4164.6743 2398.2354 1458.4254 0.918 -0.111 0.380 77 64 47
-3916.3083 2787.6677 1135.4703 0.789 -0.323 -0.523 43 25 13
-3927.9336 2804.7886 1135.3475 0.770 -0.439 -0.464 52 31 19
-3943.9744 2825.3743 1136.4878 0.833 -0.366 -0.415 64 34 20
-3942.7134 2832.7419 1132.5242 0.833 -0.366 -0.415 74 34 16
-3731.9458 2901.8647 971.1328 0.660 -0.559 0.502 94 45 15
-3721.9280 2902.1575 964.7521 0.663 -0.556 0.501 92 45 15
-3715.8994 2914.4580 955.6852 0.296 -0.706 0.643 96 48 18
-3612.7771 2870.3989 910.2957 0.419 -0.904 -0.085 105 59 33
-3483.4736 2905.0698 814.6186 0.866 -0.468 -0.178 49 19 4
-3257.8782 2829.2590 706.4521 0.292 -0.902 0.319 37 15 4
-3246.1304 2826.8931 700.1374 0.033 -0.947 0.319 34 17 4
-3277.1128 2864.7012 703.1816 -0.087 -0.960 0.266 37 15 2
-3230.4651 2846.8303 681.7617 0.560 -0.693 -0.454 43 13 2
-3329.1860 3060.3298 651.3554 0.937 -0.290 -0.193 115 73 61
-3235.9053 3168.5803 546.4480 0.909 -0.262 0.325 77 42 25
-3233.2900 3195.7537 533.1005 0.855 0.034 0.518 60 38 32
-3216.1287 3187.5603 525.9180 0.915 -0.257 0.313 52 34 32
-3143.0588 3159.2632 492.4966 0.944 -0.243 -0.223 46 36 34
-2578.3025 2666.6086 352.2827 0.104 -0.888 0.449 48 37 38
-2674.6099 3384.4539 102.9402 0.569 -0.739 -0.360 66 34 32
-2759.6267 3512.3484 100.8832 0.142 -0.608 -0.781 39 13 11
-2711.6790 3458.5613 94.1355 0.365 -0.422 -0.830 21 2 0
-2461.2605 3447.4558 -57.4244 0.988 0.151 0.025 36 34 39
-2538.2764 3831.2224 -174.7862 0.625 -0.683 0.378 209 166 157
-2398.1101 3824.8994 -259.5724 0.859 -0.366 -0.357 94 53 49
-2395.9897 3835.7078 -265.5559 0.859 -0.366 -0.357 101 60 56
-2360.7666 3818.0803 -279.9479 -0.133 -0.981 0.138 117 76 72
-2349.1145 3812.2192 -284.6961 0.282 -0.926 -0.252 135 91 88
-2321.2725 3792.2778 -293.4821 0.531 -0.736 0.420 135 91 88
-2306.7563 3810.2217 -310.2810 0.566 -0.549 0.615 144 100 97
-2299.4663 3811.8481 -315.5336 0.566 -0.549 0.615 144 100 97
-2293.5217 3815.8782 -320.9825 0.703 -0.495 0.511 144 100 97
-2276.5408 3859.4150 -350.3539 0.993 0.070 -0.099 143 99 98
-2264.3997 3897.6287 -374.4084 0.400 -0.851 0.341 167 127 125
-2241.2664 3869.7739 -376.8431 0.693 -0.627 -0.356 186 146 144
-2237.9929 3894.2185 -389.4250 0.657 -0.285 -0.698 230 190 188
-1810.3234 4001.4773 -702.6792 -0.448 -0.832 0.327 242 203 196
-1777.6967 4050.6926 -744.2668 0.090 -0.984 0.154 244 201 195
-4165.9795 2387.2903 1453.5225 0.933 -0.017 0.359 74 60 44
-4159.5488 2390.2825 1448.2192 0.914 -0.115 0.389 73 61 44
-3925.3923 2788.8521 1129.6398 0.872 -0.419 -0.254 38 23 12
-3638.0239 2647.1860 1011.9585 0.111 -0.495 -0.862 84 36 14
-3606.7214 2630.4502 999.7047 0.142 -0.483 -0.864 93 42 18
-3741.6023 2802.0464 1009.4050 0.894 -0.330 0.303 124 68 43
-3743.7515 2812.1047 1006.3865 0.903 -0.294 0.313 120 63 37
-3729.9062 2928.7966 947.2036 0.345 -0.835 0.430 96 45 18
-3696.1284 2909.0564 934.7091 0.394 -0.822 0.411 96 47 19
-3635.1338 2874.7397 911.5712 0.193 -0.954 -0.230 97 48 20
-3624.0137 2873.8901 905.0104 0.354 -0.931 -0.095 98 49 22
-3472.6074 2871.7378 811.6027 0.249 -0.909 0.335 57 21 4
-3253.2200 2818.7517 697.8597 0.195 -0.926 0.325 43 16 7
-3243.9478 2818.6899 692.1091 0.195 -0.926 0.325 45 22 9
-3287.9055 2868.5908 697.8796 0.071 -0.959 0.274 49 22 11
-3279.2402 2869.2075 692.2131 0.043 -0.951 0.307 53 20 11
-3240.7500 2841.6377 680.1746 0.574 -0.690 -0.440 53 17 9
-3221.8669 2841.1489 668.6204 0.514 -0.858 0.011 45 14 3
-3334.1675 3049.0647 648.5157 0.984 -0.095 0.148 114 76 65
-3231.4453 3127.2837 550.6224 0.856 -0.364 -0.367 67 31 18
-3229.2607 3174.2861 528.8976 0.709 -0.531 0.463 45 19 5
-3223.1509 3177.7937 523.5710 0.709 -0.531 0.463 49 29 24
-3145.3481 3134.6968 493.7641 0.587 -0.100 0.803 43 36 39
-3145.8542 3155.0659 485.2547 0.944 -0.243 -0.223 41 36 37
-2736.7498 2811.3218 379.2695 0.433 -0.381 -0.817 43 40 44
-2696.5374 2775.4148 369.7698 0.245 -0.969 -0.031 44 41 45
-2680.1741 3383.4937 96.1274 0.569 -0.739 -0.360 66 33 31
-2715.1843 3454.6240 87.1252 0.332 -0.341 -0.879 21 1 0
-2399.7026 3816.7888 -266.3549 0.854 -0.374 -0.361 155 113 106
-2366.9299 3817.8931 -287.2538 -0.133 -0.981 0.138 131 87 82
-2358.0850 3816.9680 -292.3643 0.130 -0.983 -0.128 140 96 92
-2331.5522 3784.9990 -295.0464 0.533 -0.739 0.411 140 96 92
-2324.1074 3786.3555 -300.2728 0.531 -0.736 0.420 140 96 92
-2320.4397 3794.3660 -306.0287 0.476 -0.676 0.563 141 97 93
-2304.0359 3808.9495 -322.5679 0.553 -0.548 0.628 151 107 103
-2297.5557 3812.0144 -327.9336 0.807 -0.465 0.365 151 107 104
-2268.7820 3863.8794 -368.3325 0.975 -0.167 -0.145 173 129 127
-2277.6389 3910.6277 -383.0672 0.598 -0.801 -0.012 205 165 160
-2281.7224 3933.5847 -390.4688 0.274 -0.941 0.199 212 172 167
-1200.6278 2429.4951 -412.4539 0.642 -0.612 -0.462 241 201 193
-1807.2482 3980.1025 -706.2642 0.200 -0.848 0.491 239 203 195
-1770.7972 4000.6208 -737.8660 0.340 -0.900 -0.272 247 204 198
-1764.9927 4004.7090 -743.2539 0.305 -0.922 -0.237 250 205 199
-1756.0665 4001.0156 -747.2156 0.488 -0.870 -0.066 248 205 198
-1631.5208 4020.5464 -833.2809 -0.492 -0.700 0.518 242 199 196
-1618.4495 4004.6570 -834.5416 -0.539 -0.697 0.473 238 195 192
-1559.2357 3939.5239 -843.2188 -0.438 -0.892 -0.110 244 196 194
-1277.5493 3612.5706 -877.0850 -0.517 -0.563 -0.645 37 15 7
-1044.0223 4645.1626 -1469.9585 0.388 -0.391 -0.835 215 78 69
-1050.1840 4712.3755 -1495.2389 0.417 -0.362 -0.834 225 75 72
-4165.6265 2375.3789 1448.0564 0.932 -0.015 0.361 68 59 49
-4162.4004 2380.3298 1443.8949 0.933 -0.017 0.359 71 60 44
-4156.3613 2383.5505 1438.7374 0.914 -0.115 0.389 69 60 46
-3923.9104 2790.1953 1117.1464 0.832 -0.378 -0.406 38 29 19
-3756.6855 2808.3086 1005.2729 0.821 -0.223 0.526 134 74 54
-3695.8289 2911.3545 922.5660 0.394 -0.715 0.578 99 44 14
-3645.2915 2885.8862 902.2280 0.299 -0.948 0.112 100 43 15
-3588.5710 2906.5835 857.9457 -0.266 -0.809 -0.524 110 56 25
-3375.9988 2900.3970 728.4529 0.552 -0.799 0.238 39 6 2
-3287.7737 2862.2200 690.2120 0.192 -0.978 0.080 70 30 21
-3223.3262 2836.3184 661.4128 0.465 -0.885 -0.026 51 12 5
-3137.0393 3138.4026 476.2359 0.302 -0.350 -0.887 27 38 39
-3190.6516 3246.8567 462.3561 0.752 -0.427 0.502 26 37 48
-2688.7329 3386.5928 89.4042 0.340 -0.825 -0.452 68 35 32
-2490.7034 3473.5337 -71.5908 0.816 -0.506 0.278 28 26 29
-2475.9363 3463.6018 -76.4495 0.776 -0.538 0.330 32 30 33
-2499.4260 3524.1375 -88.1983 -0.138 -0.974 -0.182 32 30 33
-2447.3079 3482.0439 -102.2810 -0.482 -0.875 -0.055 37 32 36
-2543.0276 3762.6025 -164.9070 0.930 0.138 -0.341 226 185 189
-2425.2646 3778.3030 -244.9724 0.007 -0.988 -0.152 223 178 168
-2409.0139 3793.3218 -261.6166 0.846 -0.511 -0.151 223 177 170
-2401.9749 3824.2424 -279.4559 0.854 -0.374 -0.361 209 163 155
-2373.0989 3817.7056 -294.5662 -0.133 -0.981 0.138 209 163 156
-2372.8784 3831.8228 -300.8496 0.102 -0.990 -0.098 196 152 146
-2336.5393 3782.8699 -302.1339 0.608 -0.677 0.415 197 154 147
-2329.8689 3785.5906 -307.4664 0.608 -0.677 0.415 197 154 147
-2354.7893 3843.9451 -317.3759 0.661 -0.612 0.434 197 154 147
-2352.0427 3853.7954 -323.3725 0.708 -0.559 0.433 210 167 160
-2348.0364 3861.4565 -329.1992 0.255 -0.849 0.464 210 167 160
-2342.5103 3866.4404 -334.8054 0.289 -0.832 0.473 210 167 160
-2336.2861 3870.1863 -340.3067 0.723 -0.552 0.416 210 167 160
-2282.7268 3893.2344 -383.6467 0.969 -0.204 -0.139 219 176 169
-2454.7231 4243.0400 -428.9891 -0.039 -0.989 0.142 230 186 178
-1811.6818 3976.8730 -712.9766 0.176 -0.868 0.465 191 170 157
-1769.5725 4001.7988 -750.0140 0.555 -0.829 -0.072 247 203 197
-1760.9227 3998.8127 -754.0928 0.488 -0.870 -0.066 248 202 194
-1763.9457 4024.9131 -763.5764 0.166 -0.980 0.109 245 199 190
-1648.1991 3953.6775 -804.5383 0.597 -0.529 -0.603 230 201 190
-1629.2933 3999.3484 -836.1786 -0.602 -0.691 0.400 237 196 197
-1617.0535 3985.6943 -837.8452 -0.605 -0.694 0.390 234 194 195
-1300.1818 3629.4006 -879.7679 -0.258 -0.482 -0.837 40 23 16
-3926.1448 2794.3730 1105.7219 0.967 -0.124 -0.224 47 34 19
-3915.5864 2802.7771 1095.4926 0.961 -0.117 -0.252 73 30 12
-3853.2322 2763.0764 1074.1654 0.254 -0.935 0.248 73 31 9
-3741.3984 2741.0911 1014.3811 0.303 -0.644 -0.703 83 32 13
-3762.0825 2790.2051 1005.7297 -0.284 -0.907 0.310 102 48 30
-3746.1313 2785.7505 997.7796 -0.279 -0.918 0.283 111 56 36
-3750.7310 2797.6995 995.4062 0.820 -0.223 0.527 125 68 49
-3746.6077 2819.3682 983.3672 0.823 -0.228 0.520 123 66 46
-3708.0508 2813.1924 962.1411 -0.309 -0.737 0.601 114 57 35
-3661.4534 2783.5166 946.2064 0.124 -0.559 0.820 110 55 30
-3623.5374 2878.5256 881.1091 0.393 -0.373 -0.841 99 44 13
-3603.4890 2913.3452 853.4335 -0.271 -0.804 -0.529 104 49 19
-3544.9316 2905.9109 820.3458 0.251 -0.719 -0.648 82 32 9
-3479.2515 2856.7224 801.1055 0.838 -0.492 -0.234 82 32 9
-3483.2402 2868.8733 798.2649 0.299 -0.903 0.307 77 27 4
-3387.7695 2896.1548 727.0807 0.731 -0.599 -0.327 41 6 2
-3375.0959 2893.2869 720.4704 0.557 -0.798 0.232 43 6 0
-3283.5237 2834.6785 689.2830 0.685 -0.637 0.353 55 21 9
-3292.8032 2860.6946 683.6595 0.192 -0.978 0.080 70 31 20
-3224.1372 2830.8875 654.0869 0.481 -0.875 -0.062 51 12 5
-3224.4985 3276.2769 459.4506 0.107 -0.796 0.596 22 39 51
-3181.1265 3239.2847 448.7185 -0.186 -0.687 0.702 24 40 51
-2681.7239 3357.1536 87.2253 0.488 -0.815 -0.312 88 46 36
-2396.0967 3252.3801 -44.1934 0.111 -0.740 -0.663 17 15 18
-2486.3394 3457.7917 -78.0584 0.787 -0.527 0.319 28 26 29
-2477.8110 3457.2495 -83.1138 0.781 -0.534 0.323 27 25 28
-2507.1863 3526.5479 -95.2023 -0.138 -0.974 -0.182 26 24 27
-2496.4124 3522.7463 -100.2252 -0.133 -0.975 -0.180 26 24 27
-2403.6506 3418.0347 -111.9803 -0.457 -0.876 0.151 30 28 31
-2500.0483 3849.8975 -241.0993 0.685 -0.682 0.255 224 177 167
-2423.7524 3779.2600 -257.5437 0.525 -0.656 0.542 224 177 167
-2401.5691 3812.7236 -285.9509 -0.128 -0.979 0.160 228 181 173
-2379.4590 3817.8396 -301.9105 -0.123 -0.982 0.143 227 181 173
-2379.2195 3831.9023 -308.2117 0.102 -0.990 -0.098 228 184 178
-2375.0647 3839.2158 -313.9898 0.097 -0.991 -0.092 228 185 178
-2377.0698 3857.3354 -320.6728 0.099 -0.990 0.102 228 185 178
-2365.3528 3851.4600 -325.3739 0.630 -0.513 0.583 228 185 178
-2359.0791 3855.1101 -330.8643 0.617 -0.515 0.595 227 184 177
-2302.6138 3933.5962 -400.2442 0.405 -0.909 -0.092 230 186 177
-2295.3794 3935.5972 -405.6093 0.376 -0.925 0.064 230 186 177
-1812.8997 3965.9639 -718.3176 0.168 -0.861 0.480 99 83 68
-1782.2240 3982.1047 -744.4163 0.260 -0.782 0.567 130 88 82
-1778.3866 3990.9658 -750.6746 0.447 -0.893 -0.052 177 132 126
-1763.0149 3989.7659 -759.6891 0.542 -0.838 -0.061 215 167 159
-1769.0787 4023.3218 -770.6069 0.204 -0.977 0.064 229 180 171
-1763.5671 4028.2168 -776.1690 0.263 -0.892 -0.367 242 194 184
-1635.2670 3980.9973 -835.1321 0.679 -0.361 -0.640 236 197 198
-1322.3262 3624.6511 -873.4368 0.268 -0.410 -0.872 204 174 170
-1323.9686 3649.0916 -883.1104 0.215 -0.470 -0.856 96 70 67
-1313.4078 3675.1633 -901.0709 -0.345 -0.564 -0.750 37 24 16
-1259.0775 3542.9136 -876.9277 0.592 -0.503 0.630 43 26 19
-1191.3085 3537.8403 -916.7651 0.745 -0.349 0.568 247 211 207
-4156.5195 2360.3582 1428.2202 0.933 -0.012 0.360 69 59 50
-4155.0811 2366.3689 1424.6868 0.933 -0.012 0.360 70 60 44
-3692.1338 2696.7207 992.7302 -0.073 -0.842 -0.534 75 28 10
-3772.1392 2775.9224 1007.4608 -0.245 -0.958 0.150 75 28 8
-3777.7612 2788.6001 1005.3692 -0.355 -0.893 0.276 81 34 14
-3748.4097 2773.5505 993.8070 -0.356 -0.895 0.271 87 40 20
-3601.3772 2914.0618 840.9701 -0.316 -0.827 -0.465 99 44 14
-3553.7771 2907.4822 814.3819 0.302 -0.677 -0.671 83 33 10
-3474.4202 2846.3699 792.1001 0.815 -0.579 0.021 82 32 9
-3395.2153 2887.9485 724.7658 0.722 -0.609 -0.329 42 7 1
-3392.4282 2894.1685 720.3051 0.731 -0.599 -0.327 43 6 3
-3257.3511 2812.8040 672.4171 0.312 -0.891 0.329 64 28 16
-3296.0952 2857.5469 676.7422 0.164 -0.983 0.082 69 31 20
-2687.6719 3356.7451 80.4556 0.496 -0.810 -0.313 74 32 21
-2420.4563 3256.6257 -41.0259 -0.584 -0.790 -0.189 10 9 7
-2496.1138 3463.3030 -85.0308 0.937 -0.284 0.203 28 26 29
-2448.1724 3477.2190 -120.8410 -0.518 -0.850 -0.092 23 21 24
-2420.1184 3804.9775 -282.3103 0.936 -0.351 -0.032 224 177 169
-2421.4207 3821.4736 -288.7559 0.835 -0.543 -0.084 224 177 169
-2393.8552 3860.9265 -323.1733 0.416 -0.710 0.568 222 179 172
-2386.7800 3863.2476 -328.5756 0.430 -0.696 0.575 223 180 173
-2323.0405 3838.9734 -357.3803 0.760 -0.530 0.376 231 188 181
-2239.5439 3791.2524 -388.1133 0.803 -0.474 0.362 230 187 180
-1790.2201 3969.4380 -744.7347 0.345 -0.721 0.601 93 57 49
-1782.2787 3968.2288 -749.1215 0.339 -0.719 0.607 121 79 73
-1779.8103 3980.3674 -755.9869 0.478 -0.875 -0.080 151 105 99
-1776.1270 3989.5974 -762.3260 0.455 -0.889 -0.054 169 121 115
-1779.1001 4015.3103 -771.7889 0.352 -0.933 -0.082 182 128 121
-1774.2355 4021.7871 -777.6492 0.204 -0.977 0.064 195 140 133
-1769.8489 4029.4814 -783.7487 0.263 -0.892 -0.367 211 156 148
-1758.2031 4019.0505 -786.3756 0.210 -0.972 -0.110 226 171 164
-1728.4265 4000.0828 -796.4785 0.511 -0.773 -0.375 242 186 181
-1714.0234 4019.8254 -814.0786 0.292 -0.679 -0.674 249 194 193
-1695.2965 3990.4939 -812.7817 -0.526 -0.810 -0.258 246 197 193
-1657.4993 3967.7432 -826.1890 0.633 -0.360 -0.686 228 201 190
-1639.2878 3957.6768 -833.0425 0.553 -0.166 -0.817 233 199 197
-1525.3068 3896.5034 -876.7418 0.634 -0.767 -0.100 238 199 199
-4145.4761 2355.7739 1413.0696 0.934 -0.011 0.356 65 55 39
-3908.9111 2769.8081 1083.9452 0.957 -0.144 -0.252 36 23 9
-3898.1958 2786.1609 1070.0981 0.829 -0.284 -0.482 70 29 9
-3781.2498 2777.3501 1001.7070 -0.245 -0.958 0.150 78 40 15
-3781.6660 2785.9041 998.1855 -0.383 -0.890 0.246 78 38 13
-3749.8706 2768.9514 986.0221 -0.389 -0.889 0.242 75 36 14
-3659.7471 2745.9331 940.4861 0.217 -0.641 0.736 93 49 25
-3469.7649 2836.2068 783.1802 0.844 -0.536 0.007 86 38 15
-3468.0027 2843.2053 778.9993 0.333 -0.864 0.376 85 37 14
-3397.0417 2883.3850 717.3890 0.780 -0.559 -0.282 39 4 0
-3412.2554 2914.8906 712.8744 -0.473 -0.681 -0.559 43 8 1
-3261.6904 2810.7244 665.8286 0.301 -0.886 0.352 65 31 21
-2431.7883 2655.5051 221.4435 0.112 -0.991 0.067 107 42 20
-2680.5676 3020.6841 213.8890 0.682 -0.281 -0.675 133 73 62
-2556.3088 3139.8359 84.4485 0.032 -0.987 -0.155 134 88 75
-2696.3113 3359.9431 73.7474 0.518 -0.803 -0.295 65 23 12
-2809.2148 3547.4646 60.6918 0.039 -0.554 -0.832 25 1 1
-2468.1047 3498.4475 -128.4913 -0.485 -0.842 -0.235 18 18 20
-2289.5364 3811.9736 -377.3676 0.786 -0.476 0.394 221 178 171
-1813.9045 3958.7053 -736.1722 -0.059 -0.944 0.324 42 25 10
-1804.1039 3971.0515 -747.6840 0.142 -0.725 0.674 67 38 27
-1803.5564 3987.7795 -755.4122 0.351 -0.776 0.523 88 53 45
-1779.3932 4020.2527 -784.6928 0.204 -0.977 0.064 170 109 103
-1774.1404 4025.7839 -790.3831 0.210 -0.975 0.067 176 113 109
-1762.8615 4016.3083 -793.1685 0.203 -0.972 -0.119 199 136 132
-1754.1946 4013.2571 -797.1774 0.189 -0.969 -0.158 226 163 159
-1747.2360 4033.1953 -810.2865 0.421 -0.701 -0.576 230 169 166
-1671.3588 3989.4019 -837.8392 -0.429 -0.805 -0.411 213 188 176
-1649.9967 3990.4373 -851.5002 0.629 -0.775 0.058 211 184 181
-1523.7908 3877.0793 -879.4296 0.660 -0.751 0.030 234 202 199
-1363.0096 3738.4890 -917.5827 0.942 -0.005 -0.335 73 48 44
-1193.5087 4638.7983 -1420.0742 0.780 -0.017 -0.626 224 138 123
-4148.2432 2345.9302 1408.8236 0.862 -0.145 0.487 62 53 43
-4141.9517 2348.9321 1403.6104 0.934 -0.011 0.356 63 53 37
-4135.8198 2352.0298 1398.4529 0.918 -0.132 0.375 62 53 40
-3911.4868 2766.0747 1076.2837 0.957 -0.144 -0.252 32 17 4
-3910.8301 2790.0930 1065.2170 0.835 -0.340 -0.432 69 28 8
-3756.2725 2751.9487 986.8113 -0.053 -0.991 -0.126 95 63 36
-3785.4272 2783.0979 990.9684 -0.368 -0.910 0.188 90 58 30
-3759.0085 2770.4370 980.2922 -0.384 -0.890 0.247 83 51 24
-3622.4529 2742.5898 908.4201 0.426 -0.749 0.506 97 48 19
-3617.9192 2747.0542 903.6418 0.429 -0.738 0.521 101 47 19
-3622.3755 2758.8833 901.1397 0.850 -0.367 0.377 100 46 20
-3480.9026 2848.4829 774.1009 0.627 -0.738 -0.250 90 42 19
-3429.3386 2837.1367 747.3305 0.814 -0.138 0.564 82 38 20
-3425.4580 2868.1201 731.1834 0.979 0.061 0.196 69 27 15
-3264.3335 2807.0742 658.8928 0.301 -0.886 0.352 66 33 23
-2435.8479 2653.9871 215.8024 0.028 -0.986 -0.166 107 42 20
-2701.8010 3358.8982 66.9490 0.518 -0.803 -0.295 61 19 8
-2452.1145 3285.6089 -54.5356 -0.070 -0.396 -0.916 8 7 5
-1792.5203 3676.3577 -634.8512 0.374 -0.831 -0.411 243 195 183
-1798.4728 3943.7271 -749.8627 0.094 -0.816 0.571 57 28 17
-1734.7516 3808.1357 -728.9807 -0.235 -0.912 -0.336 89 54 45
-1780.9755 3991.5640 -781.8901 0.300 -0.953 0.039 156 90 88
-1786.4873 4023.4844 -792.6594 0.290 -0.951 0.104 164 95 93
-1771.5333 4023.5442 -801.9102 0.293 -0.949 -0.116 177 108 105
-1759.9280 4013.2227 -804.4873 0.192 -0.973 -0.125 181 112 109
-1752.4835 4013.2083 -809.0728 0.267 -0.938 -0.220 187 118 116
-1752.0610 4030.8455 -817.1625 0.460 -0.741 -0.489 192 125 123
-1673.5980 3999.5779 -851.6824 0.585 -0.234 -0.777 118 99 89
-1664.7123 3995.3350 -855.2801 0.626 -0.344 -0.700 121 102 96
-1657.4750 3995.3862 -859.7671 0.586 -0.798 -0.140 114 95 89
-1512.0341 3906.7981 -910.1576 0.669 -0.698 0.254 242 191 188
-4143.9902 2338.6772 1399.1401 0.862 -0.145 0.487 62 52 43
-3318.9875 2054.2251 1018.1453 0.568 -0.447 0.691 44 41 32
-3752.8369 2617.1069 1034.1639 0.595 -0.734 0.327 27 19 7
-3867.6863 2711.2566 1062.8717 0.813 -0.451 -0.368 27 20 6
-3909.8862 2775.4622 1060.2129 0.841 -0.321 -0.436 69 28 10
-3717.5664 2699.8552 975.5443 -0.041 -0.839 -0.543 62 34 8
-3785.1538 2777.1187 982.6896 -0.361 -0.907 0.217 100 72 46
-3729.2734 2749.3369 960.6813 -0.444 -0.872 0.207 87 58 30
-3666.8574 2748.3521 922.6976 -0.005 -0.840 0.543 80 46 18
-3637.5278 2749.1062 904.3063 -0.113 -0.922 0.370 93 41 11
-3627.0808 2748.7749 898.0229 0.448 -0.761 0.470 95 40 10
-3623.7314 2754.2207 893.5322 0.531 -0.691 0.490 94 40 11
-3610.5361 2792.8743 868.1689 0.941 -0.098 0.323 104 50 18
-3598.4966 2799.5110 857.7974 0.961 -0.096 0.259 105 49 17
-3459.1443 2857.5276 746.1365 0.938 -0.273 -0.213 84 36 20
-3420.9272 2840.6873 730.1215 0.988 0.095 0.124 83 35 21
-3409.6130 2873.6843 708.4391 0.954 -0.134 -0.269 58 15 5
-3337.5886 2868.7212 666.3151 -0.511 -0.642 -0.572 67 33 22
-3278.7598 2831.5117 646.6966 0.627 -0.655 -0.420 78 30 22
-3304.3623 2961.9226 604.2916 0.659 -0.032 -0.751 131 97 88
-3315.1526 2981.4426 602.2277 0.978 -0.073 0.194 131 97 88
-3146.9971 3084.3252 452.8247 0.823 -0.568 0.025 29 51 47
-3144.2537 3091.1091 448.1102 0.826 -0.563 -0.022 16 44 40
-2544.3877 2696.4163 254.8774 -0.264 -0.963 -0.049 92 38 10
-2519.3557 2693.6157 240.7169 -0.124 -0.981 -0.147 96 38 14
-2524.3296 2708.2009 237.2735 -0.223 -0.840 -0.495 97 39 15
-2440.4849 2653.1545 210.2110 0.045 -0.982 -0.182 113 48 26
-2776.0503 3091.6040 221.2259 0.437 -0.438 -0.786 153 88 66
-2873.3950 3272.2251 200.5903 0.605 -0.711 0.359 136 76 65
-2865.7427 3273.5767 195.2766 0.602 -0.710 0.366 135 75 64
-2710.9373 3362.7219 60.2190 0.385 -0.868 -0.313 62 20 9
-2816.9700 3540.1790 46.3429 -0.352 -0.932 -0.090 31 8 8
-2880.6946 3638.4854 41.7247 0.008 -0.860 -0.510 18 1 0
-2537.8037 3498.0000 -106.6973 0.817 -0.398 0.417 35 33 36
-2528.9080 3497.1125 -111.7777 0.979 -0.199 -0.049 36 34 37
-2003.1198 4013.4192 -665.7319 0.326 -0.794 0.514 238 191 181
-1989.2201 4000.2161 -668.3997 0.139 -0.866 0.480 238 191 181
-1808.5502 3700.0178 -645.7247 0.334 -0.920 -0.207 237 188 177
-1768.8345 3984.1899 -796.9196 0.320 -0.866 0.383 165 90 90
-1763.8646 4027.2917 -819.2032 0.037 -0.959 -0.280 151 79 77
-1760.4272 4037.3857 -825.8214 0.475 -0.766 -0.433 152 80 80
-1717.9108 4004.8440 -837.4800 -0.472 -0.877 -0.084 187 141 136
-1662.2247 3993.0850 -866.5152 0.586 -0.798 -0.140 55 41 34
-1210.1658 3403.9485 -882.0334 0.787 -0.393 0.475 52 22 19
-1175.3378 3582.2961 -983.0198 0.971 0.004 -0.237 240 189 185
-1178.4280 3613.7947 -995.1664 0.971 0.004 -0.237 241 190 186
-1192.9340 4586.6709 -1420.1580 0.759 -0.033 -0.650 223 137 122
-4138.7002 2330.8147 1389.1384 0.867 -0.142 0.478 62 52 43
-4126.9092 2337.2388 1379.0157 0.920 -0.130 0.371 62 53 40
-3324.5835 1982.4281 1045.1178 0.714 -0.055 0.698 70 64 52
-3166.3445 1987.6908 945.5460 0.235 -0.724 0.649 35 33 21
-3139.9241 1975.3341 934.8523 0.211 -0.727 0.654 35 33 21
-3759.1172 2608.7559 1031.3854 0.589 -0.727 0.352 31 18 9
-3918.3726 2768.0620 1057.8309 0.296 -0.949 -0.106 61 28 10
-3732.0740 2705.5757 971.3823 -0.024 -0.842 -0.538 60 35 10
-3779.7908 2758.9961 976.7568 0.055 -0.997 -0.060 98 72 48
-3811.4885 2792.0642 981.4108 -0.121 -0.991 -0.055 93 67 44
-3605.9133 2791.4822 855.3776 0.922 -0.268 0.280 104 50 20
-3599.6233 2794.5667 850.1310 0.928 -0.132 0.349 104 49 20
-3598.0872 2801.6257 846.0239 0.842 -0.182 0.508 103 47 19
-3395.0984 2906.7415 674.2117 -0.524 -0.674 -0.521 70 33 18
-3193.9243 2780.3535 607.2615 0.597 -0.746 -0.293 44 12 1
-3311.9746 2980.9658 589.8817 0.979 -0.076 0.191 128 94 85
-3311.4360 2989.6011 585.6808 0.871 -0.252 0.422 131 94 83
-3147.2148 3077.5869 445.3620 0.825 -0.564 0.014 19 46 42
-3144.5120 3084.3914 440.6522 0.793 -0.608 -0.029 11 41 38
-2623.9229 2710.9099 288.2047 0.723 -0.610 0.325 52 45 37
-2617.1589 2712.0061 283.5582 0.692 -0.668 0.275 66 39 31
-2551.9336 2698.7561 249.4252 -0.264 -0.963 -0.049 98 44 16
-2523.7085 2692.3062 234.9757 -0.117 -0.981 -0.155 102 44 20
-2533.4792 2712.4600 231.9465 -0.218 -0.837 -0.502 103 45 21
-2786.4634 3096.7263 215.1589 0.409 -0.442 -0.798 161 94 75
-2862.3572 3219.1223 206.9328 0.809 -0.317 -0.495 147 87 76
-2869.0117 3248.3616 197.9175 0.278 -0.959 -0.062 147 87 77
-2874.2566 3265.4314 193.4899 0.602 -0.710 0.366 138 78 68
-2867.7876 3268.2236 188.2645 0.602 -0.710 0.366 135 75 66
-2868.4961 3279.8406 183.4936 0.584 -0.748 0.316 135 75 66
-2834.2815 3269.8728 166.9410 0.142 -0.839 0.526 129 72 63
-2717.0371 3362.4709 53.4150 0.385 -0.868 -0.313 61 19 9
-2884.9319 3635.1060 34.3803 -0.179 -0.767 -0.616 18 0 0
-2538.4304 3489.7498 -113.3504 0.817 -0.398 0.417 35 33 36
-2006.5479 4007.7837 -672.2642 0.326 -0.794 0.514 238 191 181
-1995.3555 4017.6448 -683.5593 0.315 -0.685 0.657 236 189 179
-1816.7090 3705.9319 -653.6172 0.287 -0.943 -0.170 233 181 170
-1821.9370 3750.0913 -670.1953 0.336 -0.873 -0.353 233 182 171
-1821.8787 3766.3638 -677.5235 0.408 -0.846 -0.344 227 177 166
-1807.8698 3921.1375 -755.4910 -0.081 -0.743 0.664 48 22 11
-1790.1345 3896.5564 -755.3705 -0.096 -0.963 0.253 52 23 12
-1785.2203 4047.3845 -825.9825 0.010 -0.983 -0.185 134 57 57
-1774.3823 4039.1155 -828.9351 0.029 -0.950 -0.311 127 51 53
-1769.3331 4045.2173 -834.7715 0.435 -0.746 -0.505 121 47 48
-1180.5410 3625.6248 -1008.4545 0.999 0.001 -0.054 241 190 187
-3185.5227 1990.9164 947.5462 0.231 -0.680 0.696 42 36 26
-3826.3442 2669.1655 1035.0366 0.943 -0.333 -0.014 40 24 10
-3735.2732 2694.5088 967.7900 0.253 -0.679 -0.690 51 29 6
-3739.0999 2705.4485 965.2101 0.511 -0.681 -0.524 54 31 9
-3768.9927 2736.7576 969.4398 0.531 -0.583 -0.615 63 36 16
-3832.6814 2802.9106 978.7004 -0.049 -0.964 -0.261 78 53 32
-3826.9526 2806.6895 973.4867 -0.092 -0.982 -0.166 74 51 30
-3789.8594 2785.7332 960.1809 -0.385 -0.886 0.260 74 49 28
-3671.5503 2756.9827 900.5915 -0.017 -0.824 -0.566 70 40 17
-3658.6782 2754.7573 893.7015 -0.048 -0.829 -0.557 69 33 10
-3652.4648 2757.9026 888.4760 -0.048 -0.829 -0.557 71 32 9
-3646.6523 2761.3726 883.3500 -0.041 -0.827 -0.561 69 32 11
-3637.0679 2778.2275 869.8845 0.032 -0.810 -0.585 73 31 9
-3655.4387 2809.9622 866.8583 0.820 -0.260 -0.510 80 34 13
-3624.2012 2792.4783 855.5793 0.788 -0.603 -0.123 90 40 19
-3620.7412 2797.9314 851.0025 0.788 -0.603 -0.123 91 40 17
-3621.6348 2807.0200 847.4580 0.693 -0.257 0.674 93 40 17
-3602.3760 2816.0601 831.5801 0.593 -0.288 0.752 101 47 26
-3435.8096 2964.6978 662.5316 -0.511 -0.639 -0.575 71 25 14
-3222.9731 2792.9878 609.3579 0.811 -0.576 -0.106 56 20 11
-3200.7925 2780.7351 601.2762 0.493 -0.806 -0.328 41 9 0
-3309.9146 2981.5674 577.7498 0.871 -0.252 0.422 86 52 37
-3298.6504 2979.7935 571.6425 -0.037 -0.734 0.678 90 54 37
-2614.4548 2685.3552 284.7409 0.569 -0.779 0.263 27 50 47
-2623.7839 2704.4417 281.8665 0.692 -0.668 0.275 47 46 37
-2615.8293 2704.1877 277.1039 0.481 -0.844 0.237 64 41 33
-2552.4885 2701.7708 239.3582 -0.508 -0.825 0.248 102 45 19
-2533.1213 2688.1365 233.6232 -0.508 -0.825 0.248 104 45 21
-2530.6580 2694.0078 229.4693 -0.117 -0.981 -0.155 105 47 23
-2844.6833 3159.0295 212.6118 0.462 -0.351 -0.815 165 97 82
-2865.7217 3194.5952 209.4962 0.600 -0.303 -0.740 165 97 83
-2804.7080 3246.6838 148.6350 0.115 -0.649 0.752 128 74 69
-2832.8296 3543.8098 32.0892 -0.398 -0.916 -0.047 31 9 7
-2206.3787 2916.5176 -69.5351 0.529 -0.773 0.351 21 18 21
-2537.0579 3478.5747 -119.8743 0.840 -0.378 0.389 34 31 35
-1909.9670 3851.1719 -672.1113 0.426 -0.700 0.573 232 174 163
-1901.8435 3849.8274 -676.4864 0.417 -0.702 0.577 232 174 163
-1877.1088 3811.6099 -674.4430 0.269 -0.833 0.483 233 174 164
-1778.3555 3872.5059 -762.4080 -0.260 -0.667 -0.698 62 36 25
-1776.8894 3975.8232 -809.8277 -0.306 -0.946 -0.109 144 64 65
-1762.7117 3977.4346 -819.2455 -0.032 -0.996 -0.085 124 45 48
-1758.6857 3985.8032 -825.4820 0.381 -0.923 -0.059 118 40 43
-1722.3864 3987.2773 -848.4008 -0.570 -0.816 -0.093 65 17 15
-1688.4196 4032.2407 -889.4714 -0.456 -0.796 0.398 54 44 35
-1529.2926 3758.0051 -863.5515 0.746 -0.486 0.456 43 29 22
-1224.3810 3476.3845 -923.6865 0.894 -0.238 0.379 42 18 12
-1206.4574 3456.7058 -925.8147 0.721 -0.605 0.337 43 17 12
-1175.0864 3611.1267 -1014.5793 0.972 0.041 0.230 233 186 185
-521.7727 2763.5894 -1033.5032 -0.032 -0.431 -0.902 254 43 70
-4129.2886 2315.8657 1369.6512 0.866 -0.144 0.479 59 49 39
-3168.5332 1981.0793 933.2687 0.321 -0.764 0.560 49 42 30
-3159.7263 1980.8876 927.9670 0.321 -0.764 0.560 48 41 31
-3143.9382 1981.7185 917.9312 -0.014 -0.796 0.606 36 34 22
-3125.6067 1974.8739 909.8113 0.006 -0.870 0.493 34 33 24
-3109.7573 1969.7031 902.4533 0.355 -0.681 0.641 34 34 24
-3080.2900 1954.9883 891.0806 0.345 -0.706 0.619 35 35 25
-3813.7402 2607.9053 1044.4658 0.903 -0.428 -0.027 28 19 10
-3975.1624 2791.3699 1060.2335 0.254 -0.961 0.111 60 35 16
-3722.6448 2671.2832 960.0574 -0.368 -0.847 -0.383 54 27 10
-3748.6096 2699.2686 963.2834 0.249 -0.686 -0.683 52 28 13
-3741.3591 2701.6157 957.7854 0.508 -0.696 -0.508 51 28 12
-3842.1040 2812.7791 969.1364 -0.078 -0.785 -0.615 74 48 32
-3690.2610 2774.5178 893.5405 0.039 -0.849 -0.527 61 33 15
-3678.1763 2772.9707 886.8463 0.090 -0.802 -0.591 62 32 15
-3692.7568 2793.0488 886.6843 0.639 -0.729 0.245 62 32 13
-3686.8184 2796.5112 881.4844 0.639 -0.729 0.245 61 31 12
-3668.4600 2806.4529 865.7543 0.814 -0.255 -0.521 61 29 9
-3627.8462 2789.6372 848.5120 0.763 -0.620 -0.185 79 33 18
-3634.5110 2811.8269 842.5514 0.795 -0.238 0.557 81 32 16
-3627.7812 2814.6042 837.1774 0.469 -0.335 0.817 85 37 21
-3616.7529 2813.7861 830.7998 0.472 -0.330 0.818 92 44 27
-3604.0881 2811.5723 824.0524 0.524 -0.300 0.797 92 44 27
-3594.7205 2812.0964 818.0837 0.524 -0.300 0.797 94 44 27
-3589.0769 2815.7422 812.9813 0.472 -0.330 0.818 97 45 22
-3574.4854 2811.8271 805.8247 0.564 -0.249 0.788 101 44 16
-3274.0425 2958.4817 555.6530 -0.236 -0.769 0.595 63 29 4
-3230.4080 2952.1831 531.8046 0.698 -0.438 -0.566 60 25 3
-3237.8264 2968.6033 528.9152 0.520 -0.526 -0.673 60 26 1
-3151.9512 3068.6748 431.1005 0.733 -0.671 0.115 21 43 42
-2616.7305 2681.6523 278.7127 0.569 -0.779 0.263 21 49 51
-2621.4131 2695.4978 275.3141 0.484 -0.858 0.174 36 47 47
-2616.8228 2699.0042 270.9194 0.461 -0.869 0.179 60 46 45
-2597.1335 2694.1606 261.0636 0.046 -0.867 -0.497 95 44 33
-2869.1130 3180.6941 207.3692 0.563 -0.473 -0.678 173 98 95
-2883.0154 3207.7124 203.6523 0.539 -0.263 -0.800 174 96 98
-2896.1582 3233.9668 199.8164 0.746 -0.289 -0.600 166 96 103
-2846.5195 3247.8435 163.1673 0.272 -0.758 0.593 151 92 96
-2817.8376 3244.4631 147.1475 0.222 -0.684 0.695 133 82 85
-2784.1770 3234.5869 131.0202 0.306 -0.817 0.488 128 78 81
-2683.3984 3312.3030 34.2004 -0.284 -0.957 -0.063 47 24 17
-2564.7913 3449.3960 -100.3895 -0.052 -0.415 -0.908 26 19 23
-2585.9583 3762.4756 -229.0739 0.925 0.181 -0.333 219 171 163
-1979.8844 3991.7861 -703.6392 0.818 -0.576 0.014 238 163 159
-1955.4963 3955.2517 -702.0331 0.822 -0.557 -0.119 237 163 157
-1873.5215 3823.9858 -692.8054 0.239 -0.961 -0.137 231 155 150
-1874.1239 3841.9402 -700.5593 0.486 -0.732 -0.479 216 144 138
-1870.8774 3851.3662 -706.8099 0.435 -0.753 -0.493 212 143 136
-1847.2491 3814.8381 -704.7417 0.158 -0.980 -0.121 216 157 145
-1790.2932 3958.3474 -804.5131 0.539 -0.207 -0.817 132 61 64
-1785.6731 3965.1570 -810.4205 0.476 -0.337 -0.812 128 52 56
-1788.1753 3989.3728 -819.8447 -0.033 -0.992 -0.123 124 46 50
-1782.0717 3992.6829 -825.0766 -0.064 -0.992 -0.106 114 37 41
-1209.4026 3451.3181 -930.5535 0.788 -0.256 -0.560 35 20 12
-4125.2217 2308.8096 1360.1793 0.866 -0.144 0.479 58 49 38
-3267.1938 2020.6024 967.2601 0.810 -0.278 0.516 66 57 48
-3164.2661 1985.8218 920.2205 0.001 -0.872 0.489 50 44 33
-3148.5667 1980.8624 912.8884 0.021 -0.870 0.493 43 39 30
-3126.7576 1971.6301 903.7679 0.004 -0.880 0.475 42 39 30
-3703.9124 2485.1746 1022.7653 0.982 -0.162 0.094 36 29 21
-3826.4302 2611.8989 1039.9766 0.143 -0.615 -0.775 29 17 9
-3818.9536 2614.0686 1034.4252 0.904 -0.426 -0.046 28 10 2
-3782.2407 2594.6443 1020.8370 0.213 -0.886 0.411 34 12 1
-3761.6389 2587.0210 1011.7224 0.165 -0.896 0.411 44 21 6
-3748.0562 2584.5474 1004.5529 0.172 -0.902 0.397 51 28 12
-3918.9146 2735.3826 1040.3224 0.852 -0.298 -0.430 87 64 47
-3977.2964 2787.2622 1052.3903 0.714 -0.698 0.055 81 55 35
-3639.8252 2777.1145 850.9414 0.141 -0.803 -0.579 60 28 9
-3631.7083 2786.9795 841.5015 0.763 -0.620 -0.185 71 27 12
-3628.3372 2792.4929 836.9372 0.763 -0.620 -0.185 72 26 10
-3630.1763 2802.3379 833.5854 0.147 -0.983 0.110 72 27 10
-3395.5884 2827.9250 678.7154 0.761 -0.213 0.613 87 36 9
-3408.6165 2874.1174 665.6752 0.327 -0.393 0.859 81 29 5
-3337.0864 2949.2710 587.8400 0.939 -0.051 -0.339 55 22 8
-3302.8750 2961.7263 561.2892 0.906 -0.210 0.368 70 33 15
-3169.3059 3079.8853 426.0261 0.807 -0.550 -0.213 20 43 46
-2625.1633 2684.8113 273.3392 0.577 -0.807 0.122 20 50 53
-2616.3035 2683.5295 268.5118 0.532 -0.816 0.227 34 47 49
-2612.4568 2687.8354 264.2060 0.497 -0.834 0.241 59 47 46
-2605.1064 2696.8582 255.6168 0.046 -0.867 -0.497 95 44 34
-2872.9744 3177.7485 200.6044 0.527 -0.543 -0.654 178 107 104
-2853.7390 3175.4290 189.9136 0.584 -0.356 -0.730 169 105 113
-2888.4038 3269.8958 168.1432 0.829 -0.322 -0.457 157 95 104
-2832.2087 3233.1035 150.5530 0.127 -0.865 0.485 145 93 99
-2817.1226 3235.7590 140.1342 0.159 -0.825 0.542 143 93 97
-2805.7896 3232.3635 134.7577 0.159 -0.821 0.548 142 93 97
-2796.3755 3231.3132 129.4867 0.324 -0.826 0.462 139 90 94
-2727.8386 3198.4763 102.5629 -0.425 -0.540 -0.726 137 82 85
-2689.5894 3312.2827 27.4806 -0.248 -0.961 0.122 46 23 16
-2551.0305 3645.1677 -208.4261 0.983 0.054 -0.177 202 154 154
-1869.7909 3819.5234 -703.6411 0.334 -0.942 -0.019 209 141 130
-1853.8767 3817.0168 -712.2191 0.389 -0.899 -0.201 210 150 139
-1822.7815 3968.7815 -800.1857 0.238 -0.214 -0.947 40 25 12
-966.5530 4006.1179 -1339.9718 0.784 -0.472 -0.403 234 70 72
-4121.1724 2301.7842 1350.7484 0.866 -0.144 0.479 59 49 39
