ply
format ascii 1.0
element vertex 802
property float x
property float y
property float z
property float nx
property float ny
property float nz
property uchar diffuse_red
property uchar diffuse_green
property uchar diffuse_blue
end_header
-2071.5742 2074.3423 -59.8226 0.438 -0.892 0.113 158 96 92
-2055.8596 2062.9463 -63.3391 -0.051 -0.946 0.320 160 101 96
-1880.9794 1930.1871 -98.9712 0.275 -0.660 -0.699 73 53 44
-2452.3682 3009.3247 -363.0412 0.644 -0.442 0.624 209 144 128
-2446.4082 3011.0759 -367.9554 0.644 -0.442 0.624 208 145 128
-1610.1173 2105.1113 -378.5187 0.259 -0.933 0.249 173 109 83
-1800.1104 2552.2839 -518.4119 -0.262 -0.318 0.911 81 63 49
-1538.1947 2425.6777 -614.3594 -0.274 -0.577 0.770 112 41 11
-1092.1820 2793.9927 -1122.0032 0.489 -0.722 0.489 46 18 5
-1091.2900 2806.2278 -1129.7976 0.599 -0.650 0.468 52 22 10
-1026.7933 3212.2361 -1411.1755 0.618 -0.197 -0.761 34 11 4
-984.4044 3502.1748 -1609.7233 -0.314 -0.592 0.742 171 11 31
-978.4890 3501.7019 -1613.2972 -0.457 -0.768 0.450 174 10 32
-913.8864 3446.4109 -1622.7762 -0.484 -0.727 0.486 164 7 26
-882.2059 3455.6638 -1648.8657 -0.023 -0.982 -0.187 168 11 27
-737.9683 3741.0835 -1911.0850 0.371 -0.381 -0.847 152 81 56
-2637.2783 2018.1387 333.8140 0.134 -0.981 0.138 44 33 23
-2488.1228 1949.5034 277.4551 0.856 -0.256 0.449 86 67 35
-2337.0583 1895.3447 211.2853 -0.035 -0.812 -0.582 124 94 59
-2330.2722 1894.5178 207.3622 -0.027 -0.830 -0.557 117 87 54
-2800.2676 2811.6086 -29.8991 0.226 -0.950 0.216 86 35 21
-2776.9211 2802.6089 -39.7527 0.156 -0.988 0.008 93 40 27
-2063.9800 2060.5386 -64.0695 0.452 -0.892 0.020 159 95 100
-1949.2478 1937.5543 -65.8729 0.249 -0.934 -0.257 160 105 106
-1944.8478 1938.5500 -69.3234 0.405 -0.868 -0.288 158 111 108
-1939.9160 1938.9391 -72.7606 0.312 -0.913 -0.263 141 100 94
-2386.9006 3111.4497 -476.1809 0.463 -0.318 0.827 190 129 101
-2377.5120 3108.4409 -480.5048 0.051 -0.479 0.876 190 129 101
-1552.6119 2434.2163 -617.7838 -0.298 -0.535 0.791 117 44 12
-1402.0568 2481.6113 -743.7373 -0.134 -0.983 0.130 30 17 10
-1395.1948 2478.0393 -746.0848 0.038 -0.965 0.260 32 19 11
-1364.6312 2446.7476 -747.4355 0.038 -0.539 0.841 43 26 19
-1057.5591 2597.7083 -1036.4692 0.815 -0.058 0.576 28 15 3
-1047.4203 2582.3970 -1033.9985 0.806 -0.024 0.591 29 14 2
-1108.7388 2815.0728 -1131.8594 -0.276 -0.937 0.217 37 14 2
-1089.4829 2818.3076 -1146.2953 0.493 -0.599 0.631 60 39 27
-1140.3031 3621.3845 -1588.6327 0.428 -0.410 0.806 40 10 4
-1058.2217 3587.6069 -1622.0111 0.878 -0.230 0.419 153 6 25
-987.4586 3518.4133 -1627.0652 -0.268 -0.817 0.510 161 10 30
-947.4058 3472.1802 -1625.7416 0.573 -0.815 -0.085 158 7 29
-924.8497 3473.2910 -1641.0662 -0.578 -0.693 0.432 140 11 23
-902.7679 3451.0898 -1642.2827 -0.392 -0.626 0.674 143 14 27
-2577.2190 2011.9347 290.5595 0.005 -0.914 0.406 52 34 11
-2523.1792 1970.2367 280.2607 0.615 -0.644 0.455 66 49 20
-2355.1826 1891.2596 218.1409 0.487 -0.863 -0.137 169 139 103
-2350.0801 1891.9939 214.3921 0.504 -0.859 -0.092 165 135 99
-2342.6189 1895.9498 207.1973 0.685 -0.592 -0.424 151 121 85
-2341.3306 1900.1638 203.8564 -0.009 -0.831 -0.556 146 114 79
-1943.5568 1938.0906 -76.9086 -0.094 -0.953 -0.290 114 76 73
-1776.7214 1760.3667 -79.5860 0.183 -0.703 0.688 68 48 44
-2389.3044 3106.2388 -481.8128 0.466 -0.314 0.827 196 135 106
-2377.5513 3099.8701 -485.6575 0.052 -0.479 0.877 196 135 106
-2317.7612 3086.4026 -516.4674 0.196 -0.384 0.903 179 118 90
-2282.2581 3065.6946 -527.2074 0.017 -0.439 0.899 159 98 70
-2128.6931 2939.2170 -551.7276 0.215 -0.919 -0.330 49 19 4
-2053.5308 2894.9092 -574.1873 -0.079 -0.552 0.830 25 12 2
-1465.1232 2456.4673 -695.5839 0.027 -0.554 0.832 35 7 7
-1358.0558 2465.7146 -770.5851 0.195 -0.728 0.657 33 16 9
-1092.8788 2815.7783 -1150.7860 0.425 -0.519 0.742 60 37 29
-992.0519 3001.8110 -1326.8058 0.015 -0.998 0.055 46 34 29
-1016.6238 3105.8838 -1372.7084 0.335 -0.356 -0.872 42 27 21
-1143.8453 3615.6309 -1593.0802 0.425 -0.411 0.807 39 10 4
-951.6264 3469.7812 -1631.1799 0.573 -0.815 -0.085 126 11 22
-921.5989 3463.2275 -1646.7778 -0.477 -0.668 0.571 112 15 17
-915.4401 3461.1025 -1649.5129 -0.458 -0.669 0.585 114 15 16
-2694.8928 2080.8125 317.8498 0.351 -0.864 -0.360 48 32 27
-2626.1133 2032.8850 301.8729 0.806 -0.448 0.387 53 29 28
-2617.1682 2030.7799 297.3317 0.803 -0.435 0.408 53 30 25
-2389.7122 1859.4807 252.1349 0.969 -0.140 0.206 124 105 68
-2390.4224 1865.3362 249.1011 0.970 -0.136 0.202 164 140 103
-2367.1301 2003.1058 151.7958 0.681 -0.359 0.639 101 67 52
-2363.1277 2005.0470 148.0435 0.632 -0.320 0.706 102 67 50
-2297.5623 1982.2272 119.1676 0.108 -0.541 0.834 102 69 50
-2826.1882 2876.7781 -72.0245 -0.048 -0.992 0.117 152 99 94
-1720.9001 1708.4231 -91.1831 0.656 -0.683 0.322 66 56 55
-1799.0498 1890.4166 -149.1332 0.416 -0.301 -0.858 190 142 122
-1801.5842 1899.4563 -152.8847 0.203 -0.478 -0.855 186 138 118
-2231.8818 3076.3013 -576.2532 -0.375 -0.927 -0.006 55 23 8
-1374.1053 2408.9475 -733.9559 -0.234 -0.882 -0.410 31 18 10
-1360.6799 2462.4990 -774.6120 0.076 -0.689 0.721 33 16 9
-1123.4619 2832.8452 -1149.3450 -0.245 -0.965 0.089 37 14 3
-1077.4791 2772.7839 -1143.3068 0.195 -0.978 -0.079 59 37 28
-1073.5953 2776.1018 -1147.8037 0.129 -0.977 -0.172 57 37 28
-1064.3809 2763.5459 -1146.2833 0.470 -0.676 0.568 60 36 30
-1034.2268 3006.3352 -1310.7026 0.377 -0.673 -0.636 18 10 7
-1027.4927 3018.9114 -1322.5715 0.421 -0.655 -0.627 29 20 15
-1023.9846 3024.7925 -1328.3545 0.320 -0.685 -0.655 37 26 20
-972.5133 3488.7383 -1638.5576 0.290 -0.882 0.372 100 21 22
-966.8083 3488.9949 -1642.4081 0.290 -0.882 0.372 98 20 20
-958.4178 3478.0679 -1641.3257 0.249 -0.888 0.387 97 20 17
-1045.8378 5169.2817 -2593.8459 0.207 -0.420 -0.884 126 16 14
-2403.9636 1852.0009 258.5284 0.777 -0.060 0.627 69 51 29
-2396.1699 1860.8079 248.2094 0.788 -0.068 0.613 161 142 105
-2397.5068 1872.4630 242.0917 0.730 -0.468 0.498 175 147 108
-2408.8215 1887.7234 240.2702 0.276 -0.665 -0.694 176 148 111
-2408.8123 1909.0752 227.4723 -0.150 -0.790 -0.594 176 148 111
-2360.4048 1887.0906 209.3224 0.513 -0.853 -0.094 181 148 113
-2329.3352 1996.6742 123.5680 0.411 -0.414 0.812 105 74 54
-2321.6926 1995.0602 119.5900 0.451 -0.453 0.769 107 76 56
-2315.4067 1994.7410 115.7141 0.451 -0.453 0.769 107 75 56
-2863.5002 2736.7769 25.7912 0.180 -0.980 -0.087 90 52 33
-2844.0286 2732.3215 15.8616 0.149 -0.982 -0.116 78 40 21
-2837.8809 2733.8323 10.9788 0.149 -0.982 -0.116 78 40 21
-1731.2656 1726.5743 -101.5819 0.526 -0.820 0.226 61 51 49
-1799.7402 1886.2692 -152.9502 0.913 -0.341 0.226 184 136 116
-1805.8702 1899.5922 -156.9658 0.108 -0.772 -0.626 183 136 116
-2235.6990 3031.4727 -556.9651 0.237 -0.462 0.854 66 34 19
-2241.2029 3081.5212 -583.3881 -0.369 -0.929 0.015 58 25 10
-2147.6379 2950.9294 -565.6894 0.336 -0.933 -0.127 60 31 15
-1524.6982 2389.3796 -632.3232 0.157 -0.839 0.521 119 48 16
-1463.4948 2343.4255 -644.3923 0.243 -0.914 -0.324 110 41 8
-1373.8525 2410.0715 -742.3207 -0.094 -0.906 -0.413 35 22 14
-1369.9360 2412.1609 -746.1067 -0.432 -0.837 -0.335 42 27 20
-1353.7090 2409.3760 -754.9376 -0.094 -0.955 -0.282 41 24 17
-1124.6560 2809.2761 -1142.7211 0.801 -0.382 -0.461 33 13 2
-1080.8009 2785.0012 -1156.5535 0.257 -0.960 -0.114 53 35 25
-1073.0482 2776.8979 -1156.7150 0.596 -0.803 0.020 50 30 21
-1068.7910 2779.1194 -1160.8003 0.353 -0.778 0.519 47 27 20
-1007.0132 2987.7551 -1325.7657 0.363 -0.921 -0.143 33 22 18
-1008.3866 3010.2061 -1338.3276 0.189 -0.943 0.273 32 23 18
-978.5851 3493.7668 -1647.3113 0.506 -0.758 0.411 74 24 13
-973.3557 3496.0317 -1652.0516 0.494 -0.761 0.421 72 24 12
-967.0341 3493.7832 -1654.7949 0.462 -0.793 0.397 71 24 11
-943.3269 3466.6882 -1653.9015 -0.463 -0.680 0.569 72 23 9
-2413.8638 1835.6562 267.4483 0.509 -0.525 0.683 46 28 21
-2401.7871 1845.8105 253.5397 0.665 -0.149 0.732 85 69 44
-2311.8960 1992.3126 107.3559 0.402 -0.444 0.801 103 70 49
-2867.6482 2750.4404 10.3452 0.005 -0.786 0.618 74 38 16
-2186.4165 2990.5378 -574.1132 -0.399 -0.916 0.051 62 29 12
-2140.1772 2931.2393 -568.3144 0.341 -0.935 -0.098 61 29 14
-1866.0094 2590.0225 -540.1780 -0.379 -0.556 0.740 84 50 39
-1469.8612 2338.2983 -644.6635 0.088 -0.983 0.163 103 35 0
-1382.1877 2388.9392 -731.7560 0.796 -0.408 -0.447 26 13 5
-1393.6434 2421.2886 -743.8138 -0.174 -0.959 -0.223 31 18 10
-1375.8219 2415.6294 -751.9218 -0.167 -0.956 -0.242 49 34 27
-1371.5864 2417.1006 -755.5425 -0.177 -0.958 -0.226 55 38 31
-1091.6217 2789.6162 -1160.4485 0.316 -0.943 -0.107 55 35 24
-1083.8381 2781.5559 -1160.6281 0.584 -0.811 0.009 50 33 21
-1076.3225 2774.1860 -1161.0500 0.593 -0.805 0.014 44 24 15
-1071.9840 2776.1589 -1165.0392 0.375 -0.768 0.519 40 17 9
-1036.0026 2727.5872 -1159.0664 0.207 -0.747 0.631 26 10 2
-1041.6692 3001.8921 -1320.3958 0.907 -0.136 0.398 14 6 3
-1021.1422 3003.2476 -1334.4703 0.296 -0.772 0.562 26 13 7
-1012.8367 2992.7751 -1333.5364 0.280 -0.911 0.304 29 18 14
-1011.1136 3004.6091 -1341.7673 0.288 -0.911 0.296 29 18 16
-988.8432 3515.7026 -1663.5669 0.003 -0.795 0.606 63 30 10
-828.9991 3307.5833 -1641.6385 -0.115 -0.677 0.727 170 12 27
-2414.5742 1832.0155 262.8277 0.534 -0.538 0.652 44 25 21
-2348.6843 1883.6469 189.1583 0.862 -0.456 0.222 178 148 112
-1771.0381 1746.6667 -100.6368 -0.397 -0.898 0.189 81 70 68
-1762.2045 1742.0706 -103.5580 0.088 -0.750 0.656 81 70 68
-1751.5989 1735.4208 -106.3817 0.510 -0.525 0.681 75 65 63
-1804.3812 1846.7115 -139.5480 0.977 0.064 0.203 58 35 30
-1805.7920 1877.6404 -157.3150 0.995 0.065 0.078 186 139 120
-2353.5464 3062.2944 -519.4505 0.807 -0.576 0.129 198 137 108
-2341.0112 3054.6472 -522.9162 0.568 -0.581 0.584 198 137 108
-1915.4794 2649.3647 -552.5974 -0.307 -0.494 0.813 83 44 35
-1387.4999 2420.6565 -754.9718 -0.307 -0.892 0.333 43 30 22
-1380.9307 2417.5210 -757.3147 -0.307 -0.892 0.333 48 33 26
-1368.8025 2413.1594 -762.5022 -0.272 -0.913 0.303 44 27 20
-1097.0111 2793.0071 -1167.1517 0.409 -0.910 -0.077 51 28 18
-1087.2025 2779.0837 -1165.0693 0.584 -0.811 0.009 43 25 14
-1081.2977 2776.4893 -1167.3104 0.492 -0.793 -0.359 40 16 9
-1077.2948 2779.4744 -1171.6945 0.265 -0.883 0.388 35 11 4
-1071.1865 2776.2107 -1173.6628 0.389 -0.775 0.498 29 9 1
-1064.8621 2772.2488 -1175.3488 0.448 -0.727 0.520 30 8 0
-1122.7646 3533.0903 -1597.4543 0.386 -0.714 0.584 90 34 39
-824.8597 3292.3601 -1644.1986 -0.104 -0.658 0.746 173 9 22
-2422.0149 1829.0353 262.1555 0.642 -0.546 0.538 41 26 18
-2411.2356 1830.0192 254.6194 0.474 -0.561 0.679 59 36 26
-2340.5598 1909.4468 160.9650 0.457 -0.869 -0.189 164 134 112
-2753.7002 2536.1523 47.0091 0.842 -0.528 0.113 103 66 50
-2755.9824 2545.8018 42.6285 0.831 -0.547 0.104 102 66 50
-1792.8185 1761.3026 -101.8627 -0.173 -0.772 0.612 85 76 70
-1775.2205 1746.8827 -104.4505 -0.398 -0.908 0.133 89 76 75
-1764.4529 1740.1134 -107.2788 0.090 -0.753 0.651 87 76 74
-1596.4187 2382.9167 -605.1583 0.958 -0.189 -0.216 108 48 14
-1544.4366 2365.2354 -627.9054 0.550 -0.647 0.528 111 42 11
-1537.1213 2361.4758 -630.3358 0.568 -0.620 0.541 111 42 11
-1391.7264 2420.7556 -759.8803 -0.285 -0.907 0.309 43 30 22
-1380.4388 2418.1736 -765.5819 -0.287 -0.911 0.296 41 26 19
-1461.4607 2600.5979 -824.0139 -0.365 -0.929 0.057 30 13 6
-1104.8514 2788.7896 -1167.6921 0.355 -0.927 0.124 35 17 9
-1100.8955 2791.9895 -1172.1790 0.411 -0.910 -0.051 41 24 16
-1096.0728 2792.6741 -1175.6989 0.141 -0.988 -0.069 36 20 12
-1085.6521 2776.9402 -1172.8691 0.501 -0.791 -0.351 31 12 5
-1082.9043 2783.6279 -1178.6926 0.271 -0.888 0.371 27 7 1
-1076.6879 2780.0957 -1180.5533 0.262 -0.888 0.377 26 9 3
-1073.7955 2786.3970 -1186.2356 0.795 -0.461 0.394 28 10 3
-1009.8598 3006.1069 -1360.5964 0.952 -0.153 0.265 29 18 11
-1131.9594 3547.7561 -1610.3612 0.455 -0.655 0.604 81 30 34
-898.2226 3405.8438 -1674.8087 0.129 -0.829 0.544 36 16 0
-856.0037 3315.9941 -1647.5184 -0.483 -0.766 0.423 77 10 1
-1178.1490 5883.1987 -2996.4802 -0.191 -0.492 -0.849 146 68 53
-2460.0779 1846.9144 268.4684 0.429 -0.463 0.776 42 30 17
-2404.0315 1824.7050 245.9628 0.560 -0.688 0.462 102 79 49
-2399.4746 1825.8882 242.3138 0.566 -0.702 0.432 143 121 87
-2395.0771 1827.2059 238.6853 0.566 -0.702 0.432 170 148 113
-2393.1526 1830.6588 235.3468 0.816 -0.564 -0.129 172 150 113
-2392.2690 1835.0227 232.1230 0.815 -0.562 -0.141 172 151 115
-2325.8647 1864.7892 171.3259 0.234 -0.718 -0.655 168 145 105
-2313.8882 1896.6127 144.2594 0.614 -0.712 -0.342 52 35 20
-2326.2051 1952.1304 118.3862 0.314 -0.939 0.143 42 31 14
-2283.4512 2019.7074 49.7774 0.641 -0.420 0.642 96 61 48
-2290.0295 2032.1509 46.4321 0.129 -0.584 0.802 105 70 57
-2854.1809 2708.6641 -2.7146 0.798 -0.562 0.219 121 77 65
-2863.0652 2725.7830 -7.4233 -0.061 -0.933 0.353 123 79 67
-4468.9355 4751.5708 -208.2302 -0.245 -0.923 0.295 94 89 79
-1781.8715 1749.8752 -108.3770 -0.399 -0.909 0.121 94 80 78
-1877.6290 2576.1572 -549.7301 -0.329 -0.504 0.798 96 49 35
-1862.9431 2562.6807 -550.9670 -0.323 -0.504 0.801 106 57 41
-1406.1240 2421.1196 -758.4219 0.584 -0.743 -0.328 31 19 10
-1127.2002 2754.1104 -1140.3639 0.973 -0.163 0.162 20 11 3
-1108.4009 2786.8066 -1172.3467 0.355 -0.927 0.124 18 11 3
-1103.9841 2788.6680 -1176.3184 0.377 -0.924 -0.064 20 12 6
-1100.2297 2792.4517 -1181.0344 0.141 -0.988 -0.069 20 11 3
-1086.6788 2782.3521 -1183.5970 0.227 -0.864 0.448 18 7 2
-1081.1294 2780.8101 -1186.2255 0.266 -0.891 0.368 17 8 2
-840.1890 3297.0527 -1655.2866 -0.009 -0.843 0.538 103 20 24
-2454.2417 1837.7279 262.9836 0.568 -0.397 0.721 42 29 17
-2448.6648 1838.1144 259.1689 0.573 -0.393 0.719 42 30 12
-2404.7175 1821.0676 241.3855 0.603 -0.564 0.564 125 101 65
-2397.9312 1830.5330 231.2475 0.632 -0.453 -0.629 173 151 109
-2315.7246 1893.8184 139.8306 0.629 -0.691 -0.357 39 27 16
-2310.8123 1900.0952 132.8434 0.632 -0.728 -0.265 36 30 15
-2331.4504 1935.7434 124.3046 0.503 -0.707 -0.498 34 28 13
-2276.3401 2013.6320 41.3515 0.327 -0.581 0.745 104 75 64
-2270.3647 2013.5549 37.5645 0.350 -0.618 0.704 105 75 64
-2268.8425 2017.9165 33.9228 0.683 -0.484 0.547 106 75 65
-2839.0847 2710.0315 -23.0654 0.036 -0.868 0.495 140 93 85
-1728.3911 1722.3986 -132.2989 0.281 -0.642 0.713 72 59 41
-1786.3251 1845.8176 -170.5355 -0.223 -0.889 -0.399 192 138 115
-1988.4658 2709.1345 -568.3264 0.855 -0.241 0.459 56 18 2
-1692.3735 2377.4871 -555.6769 0.213 -0.352 0.912 103 41 9
-1592.1404 2335.0833 -594.0833 -0.030 -0.399 0.917 97 41 8
-1107.3877 2815.6516 -1198.7632 0.963 -0.243 0.118 13 8 5
-1092.8368 2788.0344 -1191.2256 0.366 -0.846 0.388 13 8 5
-843.3037 3173.1104 -1586.6272 -0.063 -0.997 0.042 51 13 5
-872.3170 3348.1775 -1674.9785 -0.411 -0.768 0.491 50 13 8
-2401.9248 1819.5370 233.3035 0.632 -0.451 -0.630 168 143 111
-2401.6091 1824.3519 230.1479 0.634 -0.456 -0.625 173 149 115
-2401.2727 1829.1646 226.9804 0.634 -0.456 -0.625 174 150 115
-2313.9292 1882.3191 138.4245 0.867 -0.397 0.303 38 22 13
-2319.8992 1893.1823 135.5853 0.293 -0.759 -0.582 38 26 16
-2251.6248 1995.8639 28.8654 0.889 -0.043 0.455 89 62 51
-2250.9363 2018.6427 14.4520 0.709 -0.403 0.578 112 77 68
-2241.6536 2051.0286 -11.3598 0.763 -0.556 0.330 133 92 82
-2815.7830 2710.6392 -48.1803 0.224 -0.930 0.291 147 102 90
-2803.3450 2705.4412 -52.9596 0.325 -0.916 0.235 148 105 92
-4116.7881 4260.3896 -165.3790 -0.198 -0.760 -0.619 89 78 76
-4257.1675 4453.0923 -193.6564 -0.430 -0.808 -0.403 97 89 86
-1803.4373 1770.5421 -120.0274 0.261 -0.629 0.732 96 83 75
-1768.1869 1741.6517 -124.8871 0.420 -0.498 0.759 90 77 69
-1736.5386 1721.8606 -133.0208 0.237 -0.595 0.768 82 70 53
-1968.7369 2644.1455 -550.0013 0.697 -0.468 0.544 48 22 14
-1965.2408 2648.0459 -554.6333 0.702 -0.461 0.543 49 20 11
-1884.6476 2571.8616 -559.5294 -0.317 -0.507 0.801 96 42 13
-1531.1221 2346.5781 -647.8061 0.011 -0.940 0.341 93 38 7
-1503.8617 2352.3896 -668.8337 0.495 -0.867 -0.047 106 39 21
-988.4091 2941.3176 -1360.2714 0.817 -0.283 0.502 30 14 6
-1122.1439 3502.2214 -1618.6572 0.590 -0.386 0.709 55 16 12
-860.2536 3227.9341 -1618.1750 -0.173 -0.962 0.213 45 14 4
-861.7258 3305.0076 -1664.5083 0.473 -0.545 0.693 43 13 7
-835.6871 3236.1943 -1638.9788 0.685 -0.593 0.423 67 19 14
-474.2620 1906.9377 -1055.1456 -0.550 -0.573 -0.607 121 37 27
-2453.8313 1823.8641 256.6091 0.575 -0.389 0.720 42 30 14
-2448.6562 1824.5750 252.8620 0.575 -0.389 0.720 43 30 15
-2478.4258 1854.7618 253.3116 0.816 -0.413 0.404 43 30 16
-2361.4863 1878.3953 163.9742 -0.068 -0.735 -0.675 176 153 111
-2324.2700 1881.9886 137.9611 0.914 -0.276 0.298 39 21 7
-2285.9558 1944.6805 74.8544 -0.232 -0.971 0.062 41 29 17
-2247.7239 1952.7528 45.4338 0.685 -0.600 0.414 52 32 21
-2029.0587 1929.3674 -80.0059 0.761 -0.561 0.325 48 22 23
-1787.3151 1808.7479 -160.3300 0.116 -0.992 -0.054 146 100 90
-1784.3807 1811.0089 -163.5989 0.115 -0.991 -0.065 178 129 116
-2049.2834 2746.7959 -570.4246 0.242 -0.636 0.733 57 29 19
-1971.8025 2641.1240 -554.9046 0.706 -0.455 0.543 48 22 15
-1966.0861 2641.7063 -558.9188 0.702 -0.461 0.543 49 20 11
-1955.1896 2634.5334 -561.4705 0.467 -0.419 0.779 53 20 7
-1893.7633 2569.2634 -560.5618 -0.316 -0.521 0.793 84 36 8
-1658.6079 2326.9165 -561.7159 0.208 -0.214 0.954 102 42 8
-1528.7391 2343.9089 -655.2325 0.011 -0.940 0.341 86 33 1
-1492.5275 2342.7490 -677.6761 -0.037 -0.997 -0.074 98 36 15
-880.1359 3318.3843 -1670.0826 0.364 -0.583 0.726 43 15 7
-874.5795 3317.8420 -1673.3022 0.364 -0.583 0.726 30 5 0
-864.9325 3299.1750 -1667.9769 0.468 -0.550 0.692 35 9 2
-858.0505 3292.5295 -1668.2859 0.457 -0.559 0.692 43 16 7
-840.6926 3238.7969 -1646.2992 0.474 -0.835 0.280 54 17 9
-2456.6399 1816.9817 255.3661 0.590 -0.413 0.694 39 30 17
-2445.7764 1812.9232 250.9392 0.677 -0.727 -0.113 31 22 8
-2446.5195 1818.5817 247.9157 0.575 -0.389 0.720 36 24 10
-2441.3630 1819.2932 244.1837 0.575 -0.389 0.720 63 52 37
-2431.0239 1820.6782 236.7267 0.492 -0.233 0.839 149 129 96
-2423.6846 1819.5219 232.7558 0.495 -0.231 0.838 163 140 100
-2359.5740 1877.5762 155.9382 0.002 -0.941 -0.339 174 153 112
-2342.4648 1878.0958 144.6937 0.801 -0.548 0.241 142 125 96
-2338.9744 1880.2593 141.1279 0.807 -0.528 0.267 88 70 47
-2257.8235 1940.9657 51.7915 0.108 -0.793 0.600 38 26 14
-2202.1721 1983.0649 -9.7626 0.798 -0.069 0.598 74 54 40
-2200.2112 1986.9098 -13.3914 0.797 -0.069 0.600 78 55 41
-2255.3528 2116.5935 -58.3515 0.926 -0.027 0.377 151 104 96
-2255.3125 2122.8394 -62.2382 0.925 -0.028 0.379 149 105 96
-2051.4180 1936.8605 -77.4489 0.524 -0.784 -0.332 64 33 32
-1910.5518 1835.9095 -104.9802 -0.407 -0.869 0.283 106 95 93
-1784.7996 1756.8250 -136.3790 -0.175 -0.609 0.774 89 76 68
-1978.3507 2634.2188 -555.1755 0.714 -0.427 0.556 48 20 11
-1486.9626 2334.3298 -683.5199 0.266 -0.946 0.185 81 30 9
-1013.5551 3033.3025 -1417.8389 0.998 -0.028 0.054 37 9 5
-1014.4626 3072.8364 -1441.6976 0.992 -0.033 0.124 53 18 15
-1102.6700 3419.6697 -1599.7799 0.731 -0.298 0.614 48 15 5
-1082.0591 3367.5386 -1580.7136 0.848 -0.383 0.367 48 14 5
-1051.6113 3299.8633 -1558.3186 0.702 -0.428 0.569 53 20 11
-877.7273 3311.7073 -1676.6550 0.364 -0.583 0.726 30 10 1
-868.6365 3295.5757 -1672.4872 0.465 -0.549 0.694 31 10 1
-862.0229 3290.1562 -1673.3595 0.430 -0.574 0.697 30 10 0
-844.6321 3236.5977 -1651.3549 0.470 -0.817 0.335 35 8 0
-798.4952 3452.4321 -1814.2303 -0.219 -0.954 -0.204 114 2 2
-478.3244 1933.7538 -1079.8582 -0.553 -0.569 -0.609 133 63 48
-2475.7017 1823.6501 256.1004 0.686 -0.701 0.198 41 29 17
-2460.9658 1816.4150 251.1980 0.892 -0.405 -0.199 40 29 19
-2450.5120 1812.7133 246.8320 0.666 -0.730 -0.154 41 31 20
-2435.8999 1810.5155 238.8826 0.653 -0.669 0.355 89 78 65
-2432.1135 1812.3591 235.3251 0.655 -0.667 0.356 122 107 86
-2336.2622 1841.8572 155.9277 0.165 -0.961 -0.222 185 158 115
-2368.4880 1875.8578 155.3689 0.325 -0.927 -0.188 182 159 113
-2351.3032 1876.3438 144.1142 0.151 -0.978 -0.143 144 128 92
-2343.5237 1874.6372 140.2148 0.398 -0.918 -0.007 104 87 57
-2339.5718 1876.3767 136.6164 0.398 -0.918 -0.007 65 44 22
-2242.9382 1933.0781 39.8397 0.427 -0.763 0.484 36 28 12
-2214.9102 1928.1212 25.0514 0.741 -0.542 0.396 38 31 13
-2222.3533 1952.4170 14.7190 0.729 -0.524 0.441 38 34 15
-2191.1208 2037.9912 -58.2899 0.970 -0.048 -0.239 148 104 93
-2205.9331 2065.7034 -66.0454 0.925 -0.003 0.381 149 105 96
-2125.6753 1999.1643 -75.9092 0.386 -0.339 0.858 81 42 36
-2054.3030 1940.9215 -85.2579 0.350 -0.894 -0.279 38 19 15
-1932.1602 1849.2321 -106.2110 -0.189 -0.918 0.348 88 78 76
-2242.4041 2935.2512 -582.3888 0.422 -0.466 0.777 60 39 32
-2235.1572 2934.6880 -586.6582 0.422 -0.466 0.777 56 29 19
-1495.5419 2333.1465 -684.7865 0.261 -0.942 0.211 76 30 5
-1490.1815 2332.5798 -687.8513 0.266 -0.946 0.185 69 25 4
-1469.0073 2330.6218 -700.1321 -0.592 -0.736 0.329 31 10 3
-1013.1353 2999.0808 -1405.4965 0.939 -0.071 0.337 27 9 0
-1009.5444 3004.5806 -1411.1979 0.861 -0.188 0.472 36 9 4
-1052.1807 3245.5867 -1533.5767 0.491 -0.868 0.071 56 19 11
-1061.7223 3298.9668 -1560.6196 0.293 -0.873 0.391 53 19 10
-1050.6841 3299.8169 -1568.1825 0.295 -0.869 0.397 60 26 17
-869.4180 3279.2227 -1670.9365 0.407 -0.604 0.686 27 13 0
-864.0125 3279.0640 -1674.2833 0.407 -0.604 0.686 24 13 0
-848.3041 3233.2178 -1655.8461 0.461 -0.803 0.379 29 11 0
-778.2808 3125.9968 -1633.9419 0.426 -0.475 -0.770 135 2 12
-803.6855 3455.3047 -1822.0983 -0.219 -0.954 -0.204 116 2 2
-2451.3254 1809.2268 242.2615 0.674 -0.724 -0.147 55 43 28
-2433.8054 1809.6072 230.8766 0.652 -0.653 0.384 147 130 110
-2414.2354 1803.1541 222.4440 0.490 -0.232 0.840 167 144 109
-2324.0432 1852.6852 134.2010 0.799 -0.486 0.355 69 53 21
-2219.9558 1956.7017 3.1764 0.746 -0.550 -0.376 43 36 18
-2060.1965 1930.7405 -82.3061 0.751 -0.658 -0.050 47 20 16
-2080.9907 1958.6478 -86.4589 0.896 -0.443 -0.046 40 23 18
-1969.3328 1856.6541 -93.9725 0.878 -0.135 0.460 46 44 33
-1892.0085 1823.0233 -122.2243 -0.110 -0.684 0.721 96 86 84
-1787.5757 1811.8953 -181.7427 -0.579 -0.795 -0.180 193 141 120
-2233.0720 2874.9954 -560.5024 0.959 -0.266 -0.100 47 13 0
-2227.5334 2876.7449 -565.1164 0.961 -0.269 -0.067 48 21 4
-2222.5918 2928.0598 -600.2260 0.331 -0.605 0.724 57 29 18
-1845.1674 2474.2961 -557.7210 0.837 -0.350 0.421 93 45 17
-1830.4625 2460.8008 -558.6710 0.745 -0.449 0.494 97 44 14
-1498.7106 2331.3037 -689.0974 0.261 -0.942 0.211 66 28 2
-1018.3672 3019.7437 -1423.5822 0.910 -0.114 0.398 37 8 4
-1018.4036 3037.7612 -1434.7827 0.992 -0.065 0.110 46 12 11
-1015.2540 3081.5725 -1464.0776 0.989 -0.078 0.123 63 25 18
-1050.9166 3244.3191 -1542.7640 0.735 -0.610 0.295 61 27 18
-1047.8114 3252.9983 -1550.1462 0.638 -0.737 0.223 60 26 17
-2415.2600 1784.9264 227.2947 0.166 -0.416 0.894 155 139 115
-2389.7354 1875.4049 154.5043 0.285 -0.948 -0.146 181 157 121
-2228.3660 1954.5894 2.4843 0.689 -0.554 -0.466 36 35 17
-2225.0505 1957.0088 -1.1347 0.625 -0.780 0.010 41 37 20
-2183.9116 2032.4825 -74.4610 0.829 -0.031 0.559 87 48 39
-2061.5488 1927.3640 -86.4580 0.609 -0.779 -0.146 34 15 9
-1948.3108 1857.4180 -114.6520 -0.138 -0.741 0.657 75 67 64
-2234.8181 2869.4849 -565.5040 0.960 -0.264 -0.091 52 23 6
-1933.9503 2564.2307 -565.7462 0.388 -0.326 0.862 41 12 4
-1878.8809 2500.1887 -560.6821 -0.235 -0.385 0.893 71 34 16
-1838.2004 2456.7524 -559.3625 0.790 -0.437 0.431 93 45 17
-1511.2443 2345.9214 -697.7500 0.175 -0.963 0.204 58 22 0
-2402.6487 1877.1530 154.2524 0.605 -0.273 0.748 177 157 120
-2243.2178 1964.5078 -1.6821 0.823 -0.526 0.213 36 34 17
-2225.9385 1953.1484 -5.5098 0.697 -0.717 -0.012 44 41 24
-1950.0817 1854.6515 -118.6198 0.373 -0.702 0.607 69 62 60
-1945.5935 2565.2402 -567.4916 0.249 -0.333 0.910 32 7 2
-1935.0734 2558.5630 -569.9717 0.388 -0.319 0.865 43 15 6
-1527.5748 2331.5332 -685.8845 -0.507 -0.824 0.255 80 37 12
-816.6828 3149.8052 -1650.3145 0.258 -0.613 -0.747 64 5 4
-813.7632 3159.8779 -1658.4884 0.250 -0.617 -0.746 80 4 9
-810.2873 3167.5195 -1665.4893 0.247 -0.617 -0.748 94 7 16
-809.6348 3188.2412 -1678.9097 0.366 -0.517 -0.773 105 8 17
-2408.4226 1756.3646 226.6511 0.888 -0.341 -0.310 106 83 55
-2342.5229 1740.1874 195.1241 0.472 -0.206 0.857 178 151 108
-2376.7075 1844.7906 150.8587 0.863 -0.425 -0.273 174 157 113
-1820.9875 1785.7245 -163.7403 -0.170 -0.368 -0.914 86 56 41
-1976.4043 2576.5396 -563.6150 -0.209 -0.570 0.794 27 7 1
-1953.8485 2561.2576 -568.2658 0.544 -0.251 0.801 28 7 0
-1032.2812 3004.6628 -1431.0654 0.467 -0.471 0.748 17 8 1
-998.7653 2961.6167 -1425.1616 -0.160 -0.857 0.491 48 28 19
-496.4077 1974.6740 -1121.3545 -0.579 -0.591 -0.562 135 76 55
-2393.1101 1715.8027 235.5472 -0.435 -0.893 0.118 38 31 18
-2422.4417 1759.0266 226.7479 0.855 -0.421 0.303 106 78 61
-2418.5627 1760.6978 223.2395 0.924 -0.351 0.151 143 117 93
-2383.3945 1846.3438 146.8464 0.841 -0.447 -0.306 174 157 113
-1811.0414 1753.6992 -156.2916 -0.480 -0.647 0.593 91 70 65
-2487.2441 3105.9971 -584.1846 -0.523 -0.713 -0.467 174 111 74
-1953.5457 2553.5522 -572.0930 0.377 -0.361 0.853 27 7 0
-1904.9885 2500.0051 -568.9156 0.217 -0.484 0.848 48 21 8
-1893.2599 2491.3677 -570.8655 0.139 -0.508 0.850 65 34 16
-1540.4240 2338.9924 -697.4906 -0.455 -0.824 0.338 87 34 14
-832.5268 3158.9177 -1663.4458 -0.290 -0.656 -0.697 40 7 1
-2427.8530 1744.9249 232.0136 -0.418 -0.903 0.100 41 30 16
-2416.0046 1754.5525 218.4262 0.866 -0.477 0.150 166 140 116
-2372.3997 1728.2073 207.6390 0.772 -0.445 0.455 182 159 120
-2354.6003 1723.0220 199.7006 0.722 -0.576 0.384 181 159 112
-2327.9629 1705.6073 193.9495 0.695 -0.709 0.121 186 162 116
-2325.0337 1707.9133 190.6374 0.695 -0.709 0.121 188 161 118
-2390.6838 1843.2373 146.1507 0.989 -0.025 -0.149 173 159 110
-2267.7029 1801.1427 95.2809 0.250 -0.372 0.894 32 24 11
-2266.8469 1967.7448 -11.0231 0.079 -0.267 0.960 37 31 17
-1971.6913 1858.2825 -127.7568 0.342 -0.816 0.466 41 40 38
-2015.4725 2514.9846 -517.0272 -0.429 -0.736 0.524 52 24 10
-2049.3000 2649.0525 -580.7946 -0.715 -0.697 -0.062 26 7 0
-1942.4056 2538.7991 -578.2457 0.253 -0.340 0.906 36 14 2
-1906.6021 2495.2427 -573.1846 0.208 -0.489 0.847 49 22 9
-1893.4680 2484.5674 -574.6942 0.137 -0.510 0.849 65 34 16
-1538.7155 2320.0356 -694.0702 0.933 -0.356 -0.049 91 41 15
-1535.1182 2322.5876 -697.9598 0.925 -0.367 -0.101 84 35 14
-1541.1946 2341.7693 -706.3032 -0.117 -0.941 0.317 75 29 15
-1534.3154 2338.7302 -708.7141 -0.111 -0.938 0.327 63 25 14
-1054.7887 3234.7427 -1580.0781 0.334 -0.552 0.764 62 32 22
-823.5123 3215.6660 -1713.8878 0.117 -0.774 -0.622 96 10 11
-2445.6804 1740.9902 238.6767 -0.430 -0.888 -0.162 30 27 12
-2435.5046 1737.5541 234.4570 -0.433 -0.892 0.127 34 31 16
-2417.1262 1751.4503 214.0264 0.864 -0.455 0.213 176 151 123
-2331.6790 1704.7627 189.9562 0.730 -0.682 -0.046 187 163 119
-2211.5461 1920.2274 -23.0070 0.099 -0.280 0.955 37 31 19
-2180.8555 1957.6827 -66.2048 0.990 0.087 -0.113 18 14 5
-2206.6545 1989.6332 -70.3140 0.988 0.067 -0.141 18 14 5
-1890.6581 1799.4810 -148.1811 0.518 -0.714 0.471 70 65 63
-2503.6064 3071.3337 -572.5460 0.507 -0.765 0.396 192 129 94
-2052.4661 2542.2930 -519.5917 -0.426 -0.883 -0.196 51 23 15
-2030.0339 2519.7925 -519.3834 -0.370 -0.797 0.478 57 31 18
-2165.9917 2789.4355 -605.5682 -0.413 -0.906 0.089 33 15 5
-2135.8523 2755.9026 -603.1843 -0.485 -0.774 0.406 29 11 1
-1973.1804 2550.1550 -574.5404 0.355 -0.362 0.862 27 8 1
-1966.5834 2549.2986 -578.1500 0.363 -0.363 0.858 28 8 0
-1957.3884 2544.6685 -580.9911 0.342 -0.372 0.863 28 8 0
-1581.3326 2290.2881 -655.7604 0.295 -0.608 0.737 90 41 11
-1537.0759 2318.6726 -701.7229 0.943 -0.306 -0.129 76 34 9
-1535.6647 2324.9648 -706.6212 0.936 -0.340 -0.088 66 28 9
-1537.9089 2337.5742 -713.2425 -0.111 -0.938 0.327 55 23 9
-860.6869 3518.6553 -1892.3951 -0.166 -0.976 -0.140 92 9 5
-2444.4866 1740.8400 230.9400 -0.430 -0.894 0.125 41 37 25
-2425.3677 1730.1599 225.7492 -0.434 -0.895 0.103 53 48 37
-2407.8518 1720.7185 220.7740 -0.427 -0.894 -0.137 65 53 42
-2400.8044 1719.7391 216.9691 -0.386 -0.900 -0.204 106 89 74
-2393.8486 1718.8209 213.1825 -0.348 -0.899 -0.267 141 119 103
-2380.3875 1712.5696 208.7166 -0.241 -0.964 -0.111 167 141 121
-2362.3831 1712.0150 197.7504 0.693 -0.576 0.433 183 162 119
-2342.9180 1700.6891 192.7550 0.810 -0.567 -0.147 184 161 116
-2005.0082 1878.8533 -133.6711 0.991 -0.132 -0.007 41 40 38
-1906.7429 1806.8740 -149.4218 0.725 -0.688 0.015 67 63 62
-2352.4609 2861.5161 -543.6993 -0.235 -0.900 0.367 188 123 87
-2343.1670 2858.3652 -547.5280 -0.233 -0.905 0.357 188 123 88
-2165.0493 2780.3420 -609.6234 -0.357 -0.930 0.085 27 9 0
-1924.2804 2481.3137 -569.7603 0.491 -0.456 0.742 29 9 0
-1914.0601 2475.0120 -572.1561 0.515 -0.448 0.731 29 9 0
-1569.6028 2247.6682 -643.3399 0.541 -0.285 0.791 83 32 3
-1538.0327 2339.2400 -721.7593 -0.216 -0.829 0.517 28 10 0
-848.1378 3216.0120 -1716.3331 -0.102 -0.672 -0.733 37 19 7
-2380.3674 1722.8679 195.1486 0.848 -0.520 -0.101 182 161 121
-2323.8557 1797.6772 111.6497 0.390 -0.817 0.424 39 21 4
-2208.1646 1896.6263 -24.4940 0.284 -0.216 0.934 37 31 17
-2157.0542 1999.4833 -122.6081 0.463 -0.177 -0.869 26 26 26
-2357.6187 2851.4492 -543.6490 0.059 -0.768 0.638 185 122 87
-991.1988 2881.3093 -1420.5424 0.846 -0.049 -0.531 50 19 11
-1053.2679 3200.3423 -1586.3909 0.345 -0.934 -0.093 49 22 11
-2176.2593 1910.5933 -60.6845 0.527 -0.677 0.514 33 28 18
-2163.9412 1903.9352 -64.1134 0.570 -0.680 0.461 26 22 11
-2357.6062 2862.1985 -560.2147 -0.072 -0.879 0.472 156 98 69
-1879.3870 2427.7666 -579.9600 -0.025 -0.426 0.904 60 31 15
-1772.5898 2369.6682 -609.4479 0.125 -0.745 -0.655 80 33 3
-1556.8793 2229.7156 -654.4427 0.553 -0.267 0.789 73 25 0
-2343.1643 1675.1974 188.7686 -0.384 -0.847 0.368 183 159 121
-2326.0537 1791.2167 103.0311 0.550 -0.833 0.069 39 26 10
-2240.8499 2708.2703 -543.3599 -0.009 -0.898 0.439 76 35 17
-1938.6534 2480.8909 -585.3512 0.250 -0.565 0.786 30 12 5
-821.9266 2056.9177 -1009.7458 -0.205 -0.338 0.919 3 4 0
-815.2851 2048.2429 -1008.2901 -0.192 -0.329 0.925 5 2 0
-1025.5018 2984.4475 -1482.2600 0.821 -0.053 -0.569 44 21 6
-948.1964 3099.0786 -1604.7560 0.037 -0.983 -0.182 30 8 0
-2377.7312 1694.7681 190.8373 -0.381 -0.852 0.361 184 161 120
-2263.2234 2713.0754 -541.6712 -0.011 -0.923 0.385 127 85 66
-2233.6558 2700.1501 -551.7462 0.030 -0.922 0.385 50 22 10
-1799.7076 2339.2915 -588.5076 -0.334 -0.883 0.330 65 26 2
-1793.9287 2338.8779 -591.8481 -0.322 -0.863 0.390 66 25 2
-1036.1583 2421.7786 -1118.8871 -0.500 -0.418 0.758 17 1 0
-1012.0265 2380.3953 -1107.0948 -0.516 -0.443 0.733 17 1 1
-986.8428 2335.2461 -1093.5150 -0.328 -0.368 0.870 16 2 0
-840.9153 2115.8123 -1042.2087 -0.319 -0.325 0.890 8 8 1
-833.6321 2105.4905 -1040.0571 -0.320 -0.325 0.890 11 6 1
-749.6003 1948.4409 -990.5917 -0.393 -0.369 0.842 17 4 1
-1041.5219 3094.5896 -1552.2693 0.878 -0.409 0.249 39 20 3
-957.2934 3097.0166 -1606.4452 0.334 -0.868 0.367 39 19 6
-951.6744 3095.6365 -1609.0583 0.328 -0.864 0.380 38 20 6
-932.0567 3120.8364 -1637.6674 0.477 -0.848 0.230 35 13 0
-2366.7700 1691.3381 179.3403 -0.469 -0.838 -0.278 188 165 124
-2347.6831 1766.7113 118.3357 0.596 -0.772 0.223 161 145 116
-2343.9690 1768.4775 114.8696 0.593 -0.773 0.226 120 107 90
-2339.5703 1769.6569 111.3591 0.693 -0.716 -0.088 73 63 49
-2200.7012 1915.2258 -70.0532 0.708 -0.198 0.678 37 29 16
-2338.9199 2769.6611 -540.5450 0.418 -0.733 0.537 187 126 90
-2243.5308 2688.5261 -547.1540 0.536 -0.775 0.335 68 34 17
-2242.9102 2696.4131 -552.6793 0.027 -0.887 0.462 49 24 9
-2231.5249 2690.0303 -555.6187 0.031 -0.925 0.378 47 23 11
-1002.6668 2356.7410 -1104.5851 -0.470 -0.412 0.781 50 4 3
-992.8295 2341.7283 -1100.9374 -0.381 -0.372 0.846 47 5 2
-983.1136 2326.8916 -1097.3284 -0.354 -0.381 0.854 45 6 2
-974.2059 2314.1409 -1094.5747 -0.319 -0.357 0.878 43 7 4
-1040.2559 3093.2463 -1560.9812 0.569 -0.479 0.669 33 15 0
-933.0443 3148.4082 -1663.7576 0.731 -0.633 -0.253 35 13 0
-2350.1335 1764.7046 114.1360 0.690 -0.711 0.132 141 126 97
-2368.2878 2791.4617 -545.9378 0.148 -0.986 -0.075 189 124 89
-2340.3862 2764.1865 -545.4680 0.423 -0.734 0.531 187 126 91
-2241.9316 2687.8618 -556.8345 0.593 -0.654 0.470 48 23 7
-2220.3926 2668.0210 -557.2660 0.150 -0.867 0.476 47 24 10
-2211.3796 2690.8130 -577.7784 0.969 -0.171 -0.178 53 31 18
-2203.9221 2689.5603 -581.6005 -0.267 -0.933 0.241 46 24 11
-1548.0989 2245.3682 -699.3083 0.424 -0.663 0.617 62 31 11
-1507.5217 2393.5723 -821.4690 0.163 -0.491 0.856 33 24 15
-1478.5287 2350.5728 -811.3965 0.122 -0.544 0.830 39 30 21
-1010.3516 2367.6899 -1113.9611 -0.460 -0.408 0.789 92 18 17
-999.1238 2348.9917 -1108.7224 -0.389 -0.382 0.839 93 20 18
-900.7311 2167.7649 -1051.4576 -0.294 -0.356 0.887 83 18 21
-2355.8821 1755.6835 116.5931 0.996 -0.087 -0.015 188 165 126
-2346.2346 1752.4070 112.7496 0.945 -0.105 -0.311 147 128 87
-2181.8018 1909.6233 -92.5840 0.798 -0.324 0.507 12 9 2
-2148.9377 1916.0341 -117.2089 0.689 -0.463 -0.558 22 22 22
-2402.0706 2302.4285 -213.5160 -0.376 -0.401 0.836 64 60 61
-2101.8386 2012.8824 -210.0281 0.304 -0.714 -0.631 54 33 28
-2100.1887 2017.1638 -213.8629 0.317 -0.710 -0.629 52 33 29
-2083.4902 2035.6672 -236.3803 -0.353 -0.935 0.006 179 129 103
-2249.8291 2682.3755 -557.4437 0.619 -0.638 0.459 49 15 0
-2241.8369 2680.5093 -561.1844 0.596 -0.647 0.476 49 23 9
-2250.0479 2717.5779 -580.4097 -0.052 -0.869 0.493 49 25 13
-2225.3831 2702.2644 -585.6839 -0.126 -0.964 0.235 48 24 12
-2212.9871 2703.2290 -594.0184 -0.199 -0.958 0.209 35 11 5
-1554.5287 2240.8186 -699.6468 0.539 -0.537 0.649 61 30 10
-1509.2163 2388.9292 -824.9972 0.153 -0.494 0.856 31 22 13
-884.8983 2135.7634 -1046.7330 -0.323 -0.394 0.860 120 14 22
-1703.8442 4981.3086 -2405.3452 0.474 -0.407 0.781 77 9 4
-1572.7443 4590.5830 -2230.3789 0.748 -0.663 -0.031 77 9 4
-720.1310 2774.8420 -1568.4999 -0.280 -0.957 0.070 101 54 38
-639.8548 2461.2908 -1412.6038 -0.639 -0.664 -0.389 119 70 53
-2358.1692 1748.6780 115.6067 0.995 -0.094 -0.017 176 153 111
-2356.2747 1751.9563 112.2725 0.996 -0.087 -0.015 160 138 96
-2349.3286 1750.9695 108.6145 0.962 -0.100 -0.255 116 97 57
-2348.9875 1755.5704 105.3726 0.962 -0.101 -0.253 68 53 21
-2297.7415 1736.2450 86.3176 0.447 -0.864 -0.232 38 26 10
-2181.6370 1904.8328 -96.7297 0.857 -0.311 0.412 13 10 1
-2103.5381 2009.6816 -214.2248 0.815 -0.566 0.126 54 33 28
-2323.3906 2710.2166 -539.2685 0.398 -0.724 0.563 186 123 81
-2316.6531 2710.1960 -543.4338 0.402 -0.730 0.553 187 125 83
-2272.0200 2757.2134 -602.0830 -0.522 -0.851 -0.053 43 16 5
-2244.0994 2737.6833 -606.5363 -0.489 -0.831 -0.264 28 4 0
-863.2679 2097.8403 -1041.5175 -0.355 -0.397 0.846 138 11 22
-857.1306 2091.2485 -1040.9822 -0.357 -0.399 0.845 137 9 20
-849.9861 2081.6301 -1039.0784 -0.328 -0.392 0.859 136 4 17
-842.2662 2070.2095 -1036.3441 -0.330 -0.390 0.860 138 3 16
-1696.2421 4934.5410 -2393.2559 0.430 -0.454 0.781 105 22 15
-948.7288 3137.2283 -1673.0935 0.040 -0.707 -0.706 47 29 17
-2364.6086 1745.1875 114.8964 0.994 -0.105 0.040 179 160 118
-2321.0295 1713.4480 108.8954 0.954 -0.298 -0.030 164 144 102
-2319.2180 1716.7067 105.6197 0.958 -0.285 -0.030 125 105 65
-2318.1587 1720.6085 102.3847 0.958 -0.285 -0.030 76 57 24
-2317.8601 1725.1655 99.1875 0.928 -0.370 -0.048 46 31 4
-2167.4651 1908.4382 -115.0743 -0.102 -0.695 0.712 18 15 7
-2114.7532 1872.4031 -123.8903 0.879 -0.341 -0.333 23 23 23
-2168.2065 1943.0669 -137.5054 0.485 -0.656 -0.579 37 37 37
-2168.1702 1948.7527 -141.2863 0.491 -0.619 -0.613 36 36 36
-2159.7014 1945.8855 -144.6342 0.885 -0.396 -0.246 36 36 38
-2120.9478 2029.4485 -223.8648 0.549 -0.642 -0.535 48 29 25
-2316.4395 2702.7312 -547.8805 0.398 -0.728 0.558 183 116 78
-2282.3611 2763.5427 -609.1772 -0.503 -0.857 -0.112 41 17 5
-2273.4067 2760.5562 -612.7469 -0.502 -0.857 -0.119 34 9 1
-1790.1564 2292.4302 -602.5059 0.482 -0.300 0.823 25 12 6
-1581.3223 2254.2627 -706.5735 0.145 -0.499 0.854 64 32 12
-1454.4916 2311.6846 -823.0561 0.439 -0.430 0.789 19 12 4
-1099.9674 3470.9402 -1808.8442 0.503 -0.864 0.014 68 16 13
-828.5654 3140.0378 -1758.1471 0.272 -0.945 -0.183 61 22 12
-823.9132 3142.2092 -1762.4628 0.272 -0.945 -0.183 68 29 17
-730.5249 2787.4387 -1585.7733 -0.274 -0.960 0.053 102 53 36
-2370.5493 1731.6439 120.5500 0.842 -0.303 -0.446 178 161 118
-2365.5149 1737.0869 113.8276 0.995 -0.098 0.013 178 162 124
-2325.0359 1708.0811 108.0513 0.947 -0.308 -0.088 172 156 121
-2322.1685 1710.4415 104.7132 0.954 -0.297 -0.032 143 125 94
-2320.2668 1713.6171 101.4312 0.958 -0.285 -0.030 95 77 48
-2319.2097 1717.5116 98.1942 0.958 -0.285 -0.030 50 32 11
-2223.5491 1897.8632 -80.5752 0.289 -0.630 0.721 37 31 19
-2201.4556 1887.4695 -87.3353 0.403 -0.663 0.631 33 27 15
-2193.8621 1885.5731 -90.7706 0.325 -0.602 0.729 27 21 9
-2168.2153 1904.5470 -119.2092 -0.105 -0.696 0.710 18 15 9
-2185.3862 1961.4113 -146.3200 0.427 -0.583 -0.691 40 41 43
-2476.8354 2329.9851 -210.6966 0.182 -0.364 0.913 44 40 41
-2446.1360 2729.8901 -494.9670 -0.313 -0.906 -0.286 194 135 105
-2477.8975 2874.9556 -571.5726 -0.116 -0.851 0.512 189 126 93
-1546.4242 2223.4692 -715.0894 0.271 -0.654 0.706 44 18 3
-776.9468 1891.8821 -970.7027 0.606 -0.034 0.794 110 15 11
-766.0656 1869.9314 -962.8660 0.644 -0.009 0.765 111 16 10
-702.6796 2294.8743 -1283.9490 0.991 -0.111 -0.073 41 13 1
-840.3002 3172.6792 -1781.2246 0.440 -0.591 0.676 52 24 10
-2599.1602 1819.8214 195.9182 -0.375 -0.927 -0.012 187 163 120
-2379.0930 1729.9316 119.9847 0.872 -0.279 -0.402 178 159 118
-2323.8147 1703.1184 103.7300 0.962 -0.258 -0.084 140 125 103
-2321.3752 1715.3589 94.0755 0.962 -0.258 -0.084 46 28 19
-2352.9070 1746.7216 92.6498 0.892 -0.362 -0.269 44 32 21
-2230.6443 1894.6487 -81.2722 0.290 -0.644 0.708 34 27 17
-2222.9387 1892.7181 -84.7411 0.293 -0.634 0.715 33 26 16
-2221.9597 1897.2561 -88.3665 0.501 -0.502 0.705 22 15 5
-2201.8318 1883.2893 -91.4865 0.403 -0.663 0.631 21 14 4
-2191.9863 1879.2100 -94.8451 0.130 -0.751 0.647 20 14 4
-2107.1863 1992.5972 -222.6569 0.844 -0.522 0.122 47 34 29
-2087.6182 2038.1776 -265.0768 -0.095 -0.995 -0.006 187 138 113
-2472.0022 2737.3730 -493.4235 -0.309 -0.902 -0.303 194 137 107
-2403.2695 2772.9048 -559.4873 0.207 -0.547 0.811 183 123 89
-2305.3477 2770.1736 -618.0861 0.208 -0.818 0.537 37 18 5
-1547.9180 2219.1248 -718.5392 0.271 -0.654 0.706 34 15 2
-1541.2676 2216.3977 -720.8267 0.387 -0.671 0.633 28 12 1
-787.5939 1904.2117 -977.9919 0.473 -0.116 0.873 95 8 8
-776.2046 1881.0531 -969.6005 0.607 -0.031 0.794 94 4 5
-1105.6625 3183.5117 -1633.4760 -0.479 -0.770 0.421 113 13 19
-1006.0653 3302.2854 -1774.0038 -0.515 -0.792 0.327 111 16 18
-710.3639 2343.6506 -1318.2114 0.815 -0.530 0.232 51 16 1
-710.0273 2358.2825 -1328.1605 0.896 -0.392 0.209 51 23 5
-706.5134 2376.4966 -1342.4552 0.787 -0.600 0.144 47 25 5
-704.3224 2383.9724 -1348.7842 0.809 -0.584 0.061 46 23 3
-701.5128 2388.9766 -1353.8492 0.620 -0.712 -0.329 44 20 1
-850.8958 3110.3743 -1741.9720 0.231 -0.932 -0.280 34 19 0
-696.0664 2637.0854 -1522.3953 -0.538 -0.627 -0.563 109 67 47
-2190.5627 1851.7343 -84.5001 0.010 -0.867 0.499 32 28 19
-2225.3657 1890.5049 -88.9692 0.499 -0.490 0.714 32 28 19
-2221.3125 1892.0758 -92.5153 0.501 -0.502 0.705 19 15 4
-2216.0073 1892.4380 -96.0247 0.501 -0.502 0.705 18 14 3
-2186.4692 1869.3456 -98.7884 -0.289 -0.925 0.245 19 15 6
-2490.4827 2332.8059 -221.2051 -0.256 -0.598 0.759 40 36 36
-2467.7385 2315.9844 -223.9742 -0.266 -0.593 0.760 43 35 34
-2356.7976 2233.2434 -237.0211 -0.317 -0.554 0.770 39 31 28
-2111.1917 2003.8689 -235.0365 0.624 -0.328 0.709 39 29 27
-2081.2380 2032.1959 -272.4126 -0.201 -0.770 0.606 189 137 109
-2475.9978 2752.1819 -510.3363 -0.503 -0.845 -0.179 186 125 94
-2173.0654 2547.0637 -559.8674 0.420 -0.611 -0.671 33 23 4
-2256.9346 2681.6174 -598.1139 0.777 -0.466 0.424 33 19 10
-2158.3105 2569.0247 -583.6285 0.023 -0.871 0.490 30 14 7
-1679.1613 2266.2329 -676.4341 0.842 -0.185 0.507 46 13 7
-1506.0094 2128.7761 -691.2391 0.339 -0.860 0.382 39 20 11
-1499.3273 2125.7512 -693.3337 0.311 -0.883 0.352 25 11 1
-1494.7659 2126.1350 -696.3997 0.311 -0.883 0.352 20 14 1
-774.9458 1879.0168 -974.6382 0.615 -0.036 0.787 88 6 6
-771.3865 1889.1385 -983.5934 0.619 -0.034 0.784 90 8 7
-1118.9677 3193.5012 -1641.0316 -0.494 -0.772 0.401 101 11 13
-1110.7523 3184.9285 -1640.3636 -0.476 -0.769 0.426 100 12 13
-990.7228 3248.0825 -1756.4895 -0.309 -0.885 0.347 126 27 29
-954.9276 3153.7124 -1715.4823 -0.094 -0.813 0.575 110 33 27
-714.4055 2330.6814 -1313.7098 0.950 -0.292 0.114 81 18 8
-712.5868 2339.2175 -1320.5336 0.815 -0.530 0.232 75 20 7
-691.1942 2269.6765 -1287.2452 0.520 -0.776 0.355 69 22 8
-705.6065 2359.1948 -1338.1808 0.758 -0.597 0.262 65 24 8
-705.7030 2375.8479 -1349.2482 0.824 -0.554 0.116 65 23 7
-705.2851 2390.5876 -1359.3541 0.576 -0.731 -0.365 61 19 2
-701.2551 2407.3247 -1373.0194 0.961 -0.142 -0.239 60 19 3
-685.2305 2357.2986 -1349.4637 0.957 -0.116 -0.266 55 21 4
-682.3819 2395.7993 -1376.9430 0.990 -0.041 -0.139 28 13 1
-793.3370 2973.0759 -1694.3156 0.409 -0.803 -0.433 64 36 13
-689.8587 2592.4653 -1503.7419 0.003 -0.868 0.496 111 66 47
-2698.6218 1874.4977 205.5470 -0.435 -0.883 0.177 176 151 110
-2325.9368 1682.9438 104.8460 0.986 -0.056 0.156 165 152 116
-2327.2966 1688.7479 101.7902 0.991 -0.038 0.129 150 140 107
-2323.6948 1699.8896 92.1046 0.992 -0.061 0.106 52 38 24
-2206.7012 1857.3367 -85.4032 0.670 -0.716 0.196 32 27 21
-2194.8867 1851.4204 -88.7001 0.085 -0.920 0.382 32 27 21
-2190.1609 1852.2526 -92.1638 0.055 -0.900 0.433 33 29 20
-2208.6614 1875.3849 -96.2999 -0.296 -0.924 0.243 18 14 5
-2197.0972 1869.6826 -99.5866 -0.272 -0.922 0.275 18 14 5
-2411.5425 2271.9495 -237.4704 -0.286 -0.576 0.766 39 31 29
-2402.3132 2748.4714 -562.6714 0.217 -0.559 0.800 186 127 94
-2309.6812 2657.2043 -558.4280 0.128 -0.380 0.916 146 99 83
-2254.1265 2603.2861 -556.4316 0.186 -0.482 0.856 84 47 36
-1704.4561 2234.7908 -647.3059 0.346 -0.642 0.684 18 11 5
-1508.3999 2126.1570 -695.0078 0.339 -0.860 0.382 31 15 7
-1499.9148 2135.7822 -706.6790 0.247 -0.557 0.793 16 16 2
-777.6528 1878.3994 -978.1763 0.619 -0.039 0.785 85 8 8
-1133.9692 3499.5581 -1846.1448 0.320 -0.902 -0.291 115 10 15
-1129.3650 3504.3970 -1852.2203 0.444 -0.883 0.154 115 11 16
-1125.4806 3511.8000 -1859.5726 0.437 -0.878 0.194 117 11 16
-956.3778 3142.3293 -1715.8010 0.075 -0.699 0.711 119 30 28
-948.1978 3131.3970 -1713.4999 0.077 -0.692 0.718 113 33 28
-939.6930 3119.0613 -1710.4576 -0.204 -0.686 0.699 113 32 28
-932.0441 3109.8435 -1708.9796 -0.198 -0.687 0.699 115 32 28
-683.0186 2301.9502 -1320.3693 0.997 -0.069 -0.017 82 18 9
-681.2617 2359.9875 -1360.3657 0.966 -0.138 -0.221 46 14 0
-692.1262 2422.8286 -1395.8231 0.900 -0.300 0.315 40 7 0
-755.3286 2829.3938 -1629.5809 -0.414 -0.895 -0.162 100 53 35
-741.6540 2789.0286 -1610.9221 -0.503 -0.845 -0.182 105 60 41
-2325.2256 1697.2400 87.9770 0.993 -0.043 0.112 42 29 14
-2324.4910 1710.8540 78.3650 0.796 -0.336 -0.503 44 32 26
-2344.5454 2660.4827 -548.3488 -0.046 -0.988 0.147 187 131 98
-2318.1697 2652.5261 -559.1835 0.128 -0.380 0.916 171 116 87
-2168.8223 2511.8445 -556.1824 0.287 -0.589 -0.755 38 21 5
-2167.6692 2518.4163 -561.3123 0.233 -0.874 -0.427 34 22 5
-2200.7451 2585.7517 -586.3223 0.801 -0.594 0.074 40 28 16
-1619.5930 2224.8884 -700.1889 0.397 -0.138 0.908 57 23 8
-728.0208 1763.1455 -936.7006 0.602 -0.513 0.611 72 2 2
-1138.0925 3496.4512 -1851.3812 0.323 -0.903 -0.282 99 9 9
-1127.0499 3499.6909 -1860.3391 0.225 -0.973 0.061 99 9 9
-1110.1064 3481.9717 -1858.8149 -0.452 -0.814 0.365 99 9 9
-1097.3010 3457.4602 -1850.1804 -0.457 -0.815 0.357 99 9 9
-1082.7358 3426.3230 -1838.1675 -0.400 -0.761 0.511 99 9 9
-978.2143 3167.3875 -1728.0779 -0.520 -0.723 0.454 105 12 13
-949.7006 3120.3181 -1713.9052 0.097 -0.692 0.715 116 18 19
-942.2345 3111.9543 -1712.8595 -0.207 -0.687 0.696 116 17 20
-684.1809 2277.6057 -1309.7983 0.907 -0.421 0.025 105 17 17
-675.6384 2274.2407 -1312.7772 0.701 -0.472 -0.535 102 20 17
-677.8717 2315.5244 -1339.1870 0.961 -0.141 -0.238 72 10 3
-677.6625 2330.9922 -1349.7239 0.968 -0.125 -0.219 64 10 2
-686.7360 2402.7495 -1392.4417 0.565 -0.475 0.675 59 4 2
-699.3701 2491.6602 -1444.5167 0.770 -0.506 -0.389 65 10 1
-737.3035 2752.5605 -1596.7988 0.566 -0.227 0.792 107 58 41
-706.4438 2634.6343 -1536.3850 0.151 -0.810 0.567 113 63 48
-2311.7244 1668.1625 92.4955 0.982 -0.025 0.187 92 82 47
-2327.5911 1704.7424 77.5147 0.960 -0.274 -0.058 40 24 21
-2237.7722 1877.9247 -94.4675 0.428 -0.898 0.106 30 23 15
-1955.0748 1672.2921 -128.8144 -0.034 -0.809 0.587 27 24 21
-2106.0784 1977.5900 -242.4609 0.882 -0.458 0.110 41 33 30
-2100.3906 2031.6780 -282.4714 -0.076 -0.943 0.324 173 125 101
-2343.0469 2660.0085 -558.1052 0.200 -0.853 0.482 182 123 89
-2157.9612 2483.3064 -552.1816 0.045 -0.990 0.132 43 19 5
-693.5751 1769.0032 -967.0513 0.135 -0.348 0.928 69 3 0
-1145.4812 3504.6189 -1862.2245 0.331 -0.924 -0.190 80 4 0
-1112.5203 3472.9316 -1861.0217 -0.466 -0.799 0.380 80 4 0
-1097.2587 3439.7917 -1847.9932 -0.457 -0.798 0.393 81 3 0
-924.0814 3065.7344 -1701.4995 -0.210 -0.912 0.351 116 14 17
-705.0359 2500.9800 -1454.3320 0.727 -0.504 -0.466 89 13 9
-704.2985 2515.7666 -1464.7693 0.898 -0.325 -0.295 88 14 8
-725.2225 2643.5940 -1538.2706 0.975 0.009 -0.224 102 40 27
-2723.0037 1875.7377 196.6173 -0.435 -0.851 0.295 173 148 107
-2320.3716 1657.5768 98.1968 0.987 -0.035 0.155 173 151 106
-2318.6584 1660.7772 94.9800 0.985 -0.034 0.167 158 140 97
-2317.5227 1664.4587 91.7905 0.985 -0.033 0.171 112 99 59
-2315.0413 1676.3297 82.2281 0.970 -0.042 0.240 42 30 9
-2239.6863 1875.2496 -98.6653 0.450 -0.885 0.123 30 23 15
-2219.4033 1861.4056 -101.6892 0.647 -0.762 0.035 21 17 8
-2130.1299 1781.8365 -102.3698 0.419 -0.811 0.409 17 13 2
-2117.7661 1780.3617 -108.9323 0.379 -0.789 0.483 13 9 0
-2117.0671 2044.7069 -288.5009 -0.138 -0.986 -0.096 169 121 97
-2342.6299 2652.5234 -562.4431 0.140 -0.859 0.492 181 120 84
-2329.0747 2643.9326 -564.9120 -0.117 -0.912 0.392 172 110 75
-2158.9558 2477.9771 -556.4981 -0.145 -0.981 0.131 44 21 5
-1610.8850 2221.8750 -718.1619 0.381 -0.147 0.913 41 18 0
-1154.2892 3517.5640 -1875.4916 0.125 -0.974 -0.188 73 8 0
-1120.5701 3483.7539 -1873.2031 -0.372 -0.826 0.423 73 7 0
-949.4698 3106.0156 -1721.8688 -0.493 -0.826 0.273 103 7 8
-934.3029 3068.4165 -1705.6652 -0.566 -0.787 0.245 103 7 8
-927.8484 3063.5688 -1706.3278 -0.566 -0.787 0.245 104 11 9
-853.4031 2872.0886 -1622.0991 0.158 -0.886 -0.435 111 13 14
-738.5588 2666.3091 -1552.8894 0.955 -0.007 -0.297 109 27 21
-732.3979 2658.7783 -1551.5542 0.973 0.006 -0.230 103 31 21
-2362.2244 1669.2689 109.0539 0.432 -0.747 0.505 181 159 114
-2316.7307 1641.6896 100.0328 0.416 -0.592 0.690 184 161 119
-2313.1521 1643.3369 96.7275 0.974 -0.061 0.217 174 151 110
-2319.8665 1653.3574 94.0125 0.987 -0.035 0.155 162 140 97
-2271.4651 1641.1324 72.7742 -0.062 -0.659 0.750 39 25 14
-2250.8015 1875.8738 -99.4799 0.440 -0.897 0.036 35 28 18
-2242.8096 1873.7222 -102.8963 0.446 -0.885 0.135 28 24 15
-2135.8201 1782.9581 -106.4953 0.260 -0.965 0.031 17 13 4
-1989.6310 1678.1189 -124.4559 0.161 -0.692 0.704 16 15 13
-2110.4072 1966.4746 -246.8132 0.579 -0.810 -0.094 41 31 29
-2108.4241 1970.2583 -250.5971 0.535 -0.845 0.010 41 31 29
-2104.9155 1972.4399 -254.2229 0.535 -0.845 0.010 35 25 23
-2123.6360 2046.7108 -293.3015 0.047 -0.914 -0.403 169 121 97
-2514.8887 2530.5405 -383.4498 0.507 -0.825 -0.249 176 119 90
-2507.9717 2538.0408 -392.7737 0.477 -0.841 -0.254 176 119 90
-2474.9717 2546.8657 -418.9236 0.464 -0.865 -0.190 189 133 100
-2358.3635 2656.8027 -564.8836 0.422 -0.565 0.709 179 121 85
-2217.6194 2529.7830 -564.4360 -0.195 -0.875 0.442 47 10 0
-2201.9263 2517.9568 -565.9750 -0.060 -0.994 -0.086 43 14 2
-1675.7661 2220.4700 -684.9201 0.740 -0.335 0.583 15 10 0
-1672.6512 2223.5588 -688.9225 0.449 -0.367 0.815 15 11 0
-1603.7963 2212.1123 -723.1785 0.380 -0.154 0.912 37 19 2
-939.1140 3070.1619 -1712.5317 -0.568 -0.788 0.237 89 5 3
-888.0311 2895.9844 -1625.2701 -0.519 -0.851 0.085 90 7 4
-882.1594 2892.2983 -1626.3484 -0.519 -0.851 0.085 90 8 5
-875.4607 2885.3657 -1625.7238 -0.214 -0.971 0.105 91 7 5
-864.8867 2863.3413 -1617.2020 0.055 -0.987 -0.150 94 7 7
-837.9150 2832.9536 -1613.0045 0.091 -0.975 -0.202 98 9 10
-834.0055 2836.3557 -1617.7051 0.184 -0.968 -0.171 101 10 11
-2316.0010 1637.3330 95.8578 0.416 -0.592 0.690 177 158 116
-2312.4968 1639.0330 92.5619 0.974 -0.061 0.217 168 148 110
