ply
format ascii 1.0
element vertex 790
property float x
property float y
property float z
property float nx
property float ny
property float nz
property uchar diffuse_red
property uchar diffuse_green
property uchar diffuse_blue
end_header
-1833.8701 4701.6260 -645.4370 -0.271 -0.947 0.171 217 140 125
-1831.5345 4714.3354 -653.2334 0.380 -0.442 0.812 227 136 118
-1737.7841 4569.2788 -653.5234 0.579 -0.291 0.762 205 131 104
-1656.6401 4573.9282 -715.9052 0.768 -0.571 -0.289 196 133 125
-1652.5221 4582.2197 -722.9153 0.790 -0.496 -0.361 210 128 129
-1642.5508 4594.6602 -736.2446 0.670 -0.577 0.468 166 76 81
-1642.8339 4614.0020 -745.2648 0.718 -0.420 0.555 163 71 76
-1602.0925 4683.0073 -808.4007 0.573 -0.556 0.603 210 160 161
-1575.1484 4671.8550 -823.0563 0.843 -0.370 0.391 251 200 202
-1089.4701 4879.7739 -1282.3741 -0.008 -0.898 -0.439 241 139 127
-1089.2086 4991.9785 -1336.1116 0.317 -0.633 0.706 203 101 88
-942.6391 4627.3599 -1270.7897 0.613 -0.282 0.739 242 85 86
-660.1620 3792.5732 -1081.8733 -0.052 -0.490 0.870 255 88 106
-361.2986 3837.1516 -1324.7344 0.053 -0.985 -0.163 232 73 82
-2921.0500 2784.1973 1066.6833 0.361 -0.298 -0.883 135 104 79
-2993.3232 2869.2234 1079.4242 0.961 -0.275 0.016 130 95 68
-2996.0957 2896.6743 1068.3127 0.903 -0.277 0.329 153 94 64
-3014.9656 2919.0759 1071.5425 0.931 -0.247 0.268 139 79 49
-2996.7363 2948.4448 1043.9606 0.899 -0.208 -0.384 120 73 42
-2878.3904 2902.9316 978.1564 0.727 -0.650 0.221 172 75 37
-2919.3999 2952.3054 984.8450 0.540 -0.559 0.630 170 76 35
-2898.1516 2953.0378 968.7603 -0.042 -0.674 0.738 168 77 26
-2838.4824 2998.7488 902.6572 0.403 -0.684 0.608 169 85 40
-2830.7886 2998.3713 897.1412 0.403 -0.684 0.608 166 86 39
-2823.3667 2998.2356 891.7107 0.408 -0.678 0.612 165 87 38
-2815.4646 2997.6392 886.1456 0.465 -0.712 0.526 164 87 38
-2806.7407 2996.2578 880.3484 0.703 -0.622 0.345 170 93 45
-2801.8357 2998.4534 875.6635 0.713 -0.610 0.347 173 95 49
-2757.8137 2990.8596 846.7087 0.773 -0.359 0.523 183 89 40
-2744.1648 2991.4883 836.3009 0.741 -0.380 0.554 183 88 40
-2734.8333 3003.1165 823.8151 0.753 -0.402 0.521 174 77 28
-2750.5679 3032.2068 821.5154 0.746 -0.498 0.443 192 97 43
-2746.7629 3035.4978 817.1199 0.733 -0.465 0.497 189 93 42
-2741.6724 3037.5415 812.3705 0.440 -0.505 0.742 185 90 38
-2252.5884 2851.4570 539.4623 0.734 -0.679 0.037 196 95 55
-2256.4111 2862.5532 536.9718 0.666 -0.741 0.088 187 98 59
-2251.3230 2863.8660 532.5747 0.272 -0.736 0.621 177 104 67
-2238.1121 2856.1895 526.4739 0.263 -0.659 0.705 144 85 50
-2227.7776 2851.6523 520.9973 0.261 -0.662 0.702 99 49 17
-2320.0874 3034.7656 501.5364 0.792 -0.184 0.582 63 43 29
-2322.0420 3044.5173 498.3074 0.759 -0.213 0.616 62 44 30
-2315.3499 3044.3792 493.4185 0.899 -0.040 0.437 61 42 31
-2312.6140 3048.7856 489.2795 0.900 -0.039 0.434 79 60 48
-2303.7214 3061.2883 476.6993 0.890 -0.036 0.454 55 35 21
-2311.7483 3085.9744 470.8045 -0.038 -0.957 0.287 101 74 47
-2304.8645 3085.6455 465.8652 -0.170 -0.920 0.353 115 78 47
-2301.4753 3089.4058 461.5525 -0.236 -0.933 0.272 126 78 43
-2295.2178 3089.7991 456.7303 0.000 -1.000 -0.007 139 76 41
-2224.7893 3281.7195 312.5453 0.696 -0.590 0.409 9 9 7
-2210.2705 3342.0959 272.8414 0.267 -0.954 -0.137 13 13 15
-2240.4304 3428.1177 253.9214 0.694 -0.714 -0.091 43 42 47
-1822.3132 4471.3423 -555.9556 -0.547 -0.822 0.157 240 187 179
-1787.7404 4616.4209 -651.1279 0.619 -0.736 -0.273 230 138 119
-1738.6974 4538.6592 -650.1514 -0.224 -0.861 0.457 211 129 107
-1609.6124 4666.0508 -806.8239 0.595 -0.582 0.554 219 169 170
-1412.6968 4656.1631 -947.8895 -0.478 -0.645 0.597 247 189 188
-1382.1130 4630.7158 -958.3323 -0.484 -0.643 0.594 253 195 192
-684.8382 3809.7380 -1080.9326 -0.472 -0.651 0.594 253 52 81
-654.4023 3744.7883 -1072.3223 -0.135 -0.564 0.815 254 87 104
-486.5873 4308.5405 -1466.9299 -0.237 -0.770 0.593 241 101 109
-2998.1548 2880.9163 1068.1532 0.815 -0.322 0.482 187 121 94
-3000.5085 2889.1841 1065.9093 0.922 -0.316 0.223 180 105 76
-2994.6936 2890.5537 1060.9493 0.952 -0.258 0.165 159 89 57
-2995.7920 2936.0986 1039.8131 0.914 -0.211 -0.347 132 78 43
-3003.0762 2948.8521 1039.0536 0.963 -0.189 -0.193 132 78 45
-3004.0203 2956.1626 1036.2288 0.964 -0.184 -0.191 131 75 43
-2834.1394 2989.3699 894.6033 0.401 -0.699 0.592 177 89 39
-2826.2627 2988.8066 889.0501 0.403 -0.707 0.581 177 92 40
-2820.4600 2990.1638 884.1051 0.427 -0.692 0.582 176 92 39
-2812.4812 2989.4834 878.5329 0.453 -0.708 0.541 177 92 40
-2804.7168 2988.9905 873.0291 0.646 -0.616 0.450 178 93 41
-2820.4983 3010.6023 874.2841 0.620 -0.683 0.386 178 95 42
-2791.9404 3004.1897 856.2565 -0.080 -0.599 0.797 179 93 39
-2726.2632 2962.1938 827.9279 0.945 -0.241 -0.219 179 93 38
-2725.5229 2968.2529 824.4605 0.945 -0.241 -0.219 170 86 31
-2727.6121 2977.0435 821.7692 0.945 -0.238 -0.223 170 86 31
-2731.6575 2987.7471 819.6027 0.938 -0.257 -0.232 174 91 37
-2730.1624 3000.0291 812.5782 0.863 -0.473 -0.177 202 112 57
-2750.3770 3026.4900 814.7747 0.746 -0.498 0.443 203 108 54
-2746.0500 3029.2603 810.2401 0.733 -0.465 0.497 193 96 45
-2738.7295 3029.1216 804.8935 0.440 -0.505 0.742 183 87 37
-2249.7109 2842.7783 533.0767 0.729 -0.684 0.011 200 92 56
-2260.5000 2861.4839 532.0406 0.663 -0.732 0.156 192 95 60
-2258.3435 2866.0251 528.2574 0.026 -0.681 0.732 184 105 69
-2310.6616 3025.4255 490.1291 0.852 -0.175 0.494 60 43 31
-2312.0195 3034.4692 486.7751 0.900 -0.039 0.434 61 43 33
-2309.8628 3039.5117 482.7502 0.900 -0.039 0.434 64 47 37
-2307.9995 3044.9089 478.7713 0.962 -0.010 0.274 84 66 56
-2322.5366 3100.0361 462.9550 0.866 -0.107 0.488 100 55 25
-2317.9692 3102.4546 458.4121 -0.257 -0.897 0.360 104 50 15
-2306.0417 3096.2310 452.5912 -0.199 -0.945 0.260 138 72 35
-2310.2488 3124.6404 442.0115 0.138 -0.990 -0.030 196 100 57
-2225.6404 3275.7217 306.6385 0.729 -0.649 0.218 9 9 7
-2212.5278 3276.0630 296.7776 0.704 -0.666 0.246 21 21 21
-2211.2468 3283.0889 292.4445 0.713 -0.663 0.228 26 26 26
-2215.3579 3341.4836 267.3437 0.293 -0.948 -0.123 13 13 15
-2215.0830 3359.1106 258.6459 0.404 -0.911 0.088 23 22 27
-2245.0815 3426.7441 248.2359 0.695 -0.719 0.011 43 42 47
-1884.2926 4411.8081 -493.2679 -0.586 -0.498 -0.638 255 211 208
-1882.0292 4471.0049 -523.4689 -0.028 -0.514 -0.857 245 201 198
-1875.7615 4473.9448 -529.5206 -0.003 -0.537 -0.843 247 202 199
-1840.6799 4447.8501 -542.8873 -0.315 -0.850 0.422 249 194 187
-1843.4022 4470.0273 -551.5616 -0.523 -0.820 0.231 249 194 187
-1831.4110 4460.5405 -555.8571 -0.525 -0.817 0.237 248 193 186
-1825.5717 4464.3135 -561.9934 -0.523 -0.816 0.245 241 188 180
-1803.5649 4432.8608 -563.1096 0.342 -0.639 -0.689 240 187 179
-1809.8550 4463.0518 -573.0073 0.822 -0.170 -0.544 244 187 180
-1881.4410 4706.8770 -637.5724 0.353 -0.468 0.810 247 175 161
-1868.7158 4696.1577 -641.8167 0.391 -0.434 0.812 235 163 148
-1858.1971 4690.2939 -646.7692 0.369 -0.430 0.824 218 146 131
-1849.1394 4687.6602 -652.1979 0.369 -0.430 0.824 210 137 122
-1793.6041 4614.6582 -658.0848 0.391 -0.668 0.633 229 137 119
-1809.7428 4669.4189 -672.5402 0.429 -0.383 0.818 220 131 113
-1743.3634 4587.2568 -682.0316 0.870 -0.474 0.134 90 29 11
-1734.2727 4583.8169 -687.0962 0.717 -0.635 0.288 74 20 4
-1601.1747 4666.3945 -825.3137 0.463 -0.582 0.668 234 184 185
-1591.0811 4659.8066 -829.6028 0.580 -0.572 0.580 241 191 192
-1580.4655 4651.7817 -833.5855 0.845 -0.483 0.229 246 195 196
-1087.3313 4823.1592 -1280.8339 -0.130 -0.891 0.435 242 139 130
-689.3018 3808.2717 -1086.0851 -0.472 -0.651 0.594 253 52 81
-2809.3982 2642.2437 1035.1008 0.518 -0.294 -0.803 221 200 180
-2824.7214 2660.4341 1037.6082 0.497 -0.273 -0.824 207 187 165
-2910.9028 2754.5420 1055.6796 0.921 -0.256 -0.293 180 145 121
-2928.9778 2775.4500 1058.9031 0.908 -0.236 -0.346 134 96 69
-2941.7400 2792.0352 1060.2961 0.566 -0.498 0.657 116 75 46
-2946.5784 2802.0930 1058.9987 0.946 -0.316 -0.069 119 81 49
-2991.1907 2857.7324 1065.0005 0.953 -0.301 0.031 120 84 48
-2999.6006 2871.0066 1064.7832 0.807 -0.356 0.471 139 88 51
-2995.4075 2873.7161 1060.3744 0.808 -0.359 0.467 174 102 67
-2996.8811 2881.2144 1057.8315 0.923 -0.310 0.228 172 93 58
-2976.1516 2920.5508 1023.4738 0.440 -0.323 0.838 137 80 50
-2888.6917 2895.5496 970.9922 0.704 -0.692 0.158 168 81 30
-2881.2280 2895.3699 965.5675 0.707 -0.692 0.146 169 78 28
-2695.0669 2913.8875 819.1211 0.833 -0.544 0.103 181 93 39
-2696.9219 2922.2744 816.4294 0.554 -0.732 -0.397 178 92 38
-2699.3567 2931.2451 813.8834 0.669 -0.649 -0.363 173 91 35
-2735.4111 2979.1143 817.3281 0.907 -0.380 -0.179 173 91 35
-2737.1555 2987.6023 814.5060 0.909 -0.410 0.075 193 112 56
-2730.0090 2994.4270 805.9233 0.913 -0.409 -0.006 211 123 66
-2750.1868 3020.7925 808.0568 0.746 -0.498 0.443 206 111 59
-2745.9954 3023.6807 803.5628 0.734 -0.463 0.497 194 96 47
-2253.8313 2841.7800 528.1900 0.676 -0.735 0.058 196 94 56
-2247.0981 2854.9832 516.8237 0.007 -0.632 0.775 178 109 70
-2218.6775 2837.3494 504.3748 0.019 -0.659 0.752 77 20 2
-2209.9429 2834.5269 499.2910 0.020 -0.660 0.751 48 11 1
-2199.2380 2829.4858 493.8267 0.017 -0.636 0.771 44 22 8
-2201.4297 2838.8049 490.9325 0.339 -0.633 0.696 42 21 5
-2299.6646 3044.2847 463.9722 0.917 -0.025 0.398 86 58 37
-2307.3147 3060.7292 461.6584 0.946 -0.096 0.311 95 61 36
-2333.9810 3130.5264 447.5511 -0.316 -0.898 0.307 163 81 36
-2335.0483 3139.6558 443.9183 -0.422 -0.897 0.130 180 90 42
-2315.1951 3124.1062 436.7869 0.138 -0.990 -0.030 199 98 50
-2288.0403 3107.6277 424.7131 0.097 -0.900 0.425 196 104 49
-2205.7046 3251.5249 294.2247 0.744 -0.655 -0.135 12 12 10
-2208.4202 3263.6431 290.3618 0.749 -0.650 -0.128 20 20 20
-2220.1172 3358.3965 253.1145 0.421 -0.793 0.440 23 22 27
-2248.3408 3423.5046 242.4280 0.695 -0.719 0.011 44 43 48
-2247.5742 3431.7454 237.8712 0.707 -0.702 0.090 43 42 47
-1908.9541 4465.4683 -512.7906 -0.586 -0.496 -0.640 242 199 193
-1843.6797 4440.4009 -548.8562 -0.300 -0.852 0.429 249 194 187
-1855.9048 4482.8906 -560.4042 -0.540 -0.808 0.235 249 194 187
-1839.2318 4463.4092 -563.2830 -0.525 -0.817 0.237 248 193 186
-1835.0096 4470.6934 -569.9286 -0.515 -0.826 0.229 240 187 179
-1823.5718 4462.3413 -574.3307 -0.515 -0.826 0.229 240 187 179
-1814.8550 4459.8359 -579.5548 0.822 -0.170 -0.544 244 187 180
-1884.9255 4664.3867 -626.8642 0.979 -0.186 0.083 248 176 162
-1932.5781 4787.4302 -651.2584 0.965 -0.258 -0.054 248 174 161
-1841.1219 4672.0654 -662.9317 0.368 -0.432 0.823 226 149 134
-1812.3363 4642.2153 -669.7343 0.370 -0.375 0.850 228 139 120
-1810.9391 4656.8008 -677.8293 0.429 -0.383 0.818 218 131 112
-1757.2588 4568.9175 -674.9134 -0.183 -0.783 0.594 186 113 89
-1747.8345 4564.7290 -679.8449 0.276 -0.852 0.445 120 55 32
-1746.6276 4579.5894 -687.9323 0.870 -0.474 0.134 72 14 0
-1736.7501 4574.3081 -692.6693 0.707 -0.648 0.283 68 17 3
-1725.9139 4566.7139 -696.9941 0.717 -0.653 0.243 59 30 18
-1717.7343 4565.2871 -702.3440 0.227 -0.516 0.826 61 36 28
-1651.2953 4568.4180 -752.9249 0.679 -0.537 0.502 94 53 45
-1647.8320 4578.2861 -760.2612 0.642 -0.536 0.548 87 46 37
-1641.1459 4580.2705 -766.1599 0.642 -0.536 0.548 90 52 43
-1627.3333 4639.5161 -805.0510 0.946 -0.261 0.192 94 44 45
-1623.3584 4648.5381 -812.3553 0.946 -0.261 0.192 173 125 125
-1608.7740 4649.8184 -823.7458 0.499 -0.562 0.660 225 177 177
-1648.7836 4831.8228 -882.3367 -0.217 -0.907 -0.360 248 194 194
-1138.6949 5021.8364 -1351.0508 0.431 -0.482 0.763 233 133 125
-707.5031 3843.2588 -1098.7430 -0.501 -0.665 0.554 244 22 58
-489.9944 4300.1973 -1480.6500 -0.203 -0.967 -0.157 227 84 93
-484.1293 4299.6250 -1484.7043 -0.203 -0.967 -0.157 219 77 86
-484.1035 4338.8911 -1503.7384 -0.216 -0.925 -0.313 227 82 92
-2817.4343 2644.4216 1031.4821 0.590 -0.322 -0.740 202 183 172
-2883.2090 2721.2441 1042.6089 0.954 -0.115 0.275 188 157 139
-2905.3962 2745.3936 1047.2208 0.917 -0.268 -0.294 175 136 112
-2931.7656 2773.1069 1053.1829 0.908 -0.236 -0.346 130 86 56
-2937.5129 2783.8467 1052.1956 0.593 -0.492 0.638 127 80 45
-2992.2302 2853.7761 1058.5215 0.953 -0.301 0.031 129 84 31
-2997.7007 2864.5562 1057.3102 0.808 -0.359 0.467 141 86 33
-2993.8865 2867.5703 1053.0305 0.808 -0.359 0.467 165 91 42
-2992.1609 2878.5996 1046.3909 0.944 -0.323 0.065 160 92 49
-2993.6846 2892.4536 1040.7729 0.879 -0.364 0.307 155 91 58
-2958.1960 2868.5662 1026.2236 0.719 -0.345 0.603 144 88 58
-2951.3889 2900.5632 1005.6332 0.468 -0.316 0.825 122 75 46
-2879.2463 2882.2478 961.3394 0.524 -0.843 -0.119 164 86 30
-2862.8105 2912.5591 934.4678 0.736 -0.532 0.418 174 78 29
-2790.5657 2854.3596 909.5070 0.747 -0.353 -0.563 174 79 29
-2790.1582 2860.3345 906.2990 0.747 -0.353 -0.563 176 79 30
-2782.3501 2859.6709 900.8632 0.720 -0.500 0.481 177 80 31
-2768.8015 2853.8176 893.7193 0.773 -0.513 0.374 176 81 32
-2752.2314 2845.1946 885.6948 -0.413 -0.868 -0.277 176 80 30
-2699.6484 2906.3928 817.1342 0.766 -0.427 -0.481 181 90 38
-2709.6660 2922.4539 816.7065 0.567 -0.720 -0.401 178 89 37
-2704.2515 2923.9656 811.9777 0.576 -0.716 -0.395 181 95 42
-2737.8555 2976.0623 811.4100 0.907 -0.380 -0.179 223 135 82
-2739.9521 2984.8694 808.6707 0.924 -0.376 0.066 205 121 66
-2737.5725 2989.4165 804.7031 0.920 -0.383 0.083 191 105 49
-2731.7378 2990.6531 799.7979 0.913 -0.409 -0.006 181 92 38
-2749.9976 3015.1143 801.3616 0.746 -0.498 0.443 182 88 36
-2747.2090 3019.3452 797.2463 0.738 -0.459 0.494 183 87 37
-2252.1060 2848.0723 515.4448 -0.029 -0.666 0.745 183 107 61
-2240.9680 2842.7012 509.8442 0.005 -0.667 0.745 182 108 65
-2228.9988 2836.3750 504.0950 0.005 -0.667 0.745 180 105 66
-2217.6592 2830.7012 498.4928 0.002 -0.666 0.746 122 57 30
-2207.8123 2826.6414 493.2063 0.261 -0.665 0.700 50 9 0
-2206.6523 2832.2004 489.6455 0.231 -0.711 0.665 35 11 1
-2200.4800 2832.1960 485.0955 0.238 -0.862 -0.448 46 22 5
-2202.2266 2841.0261 482.0867 0.370 -0.927 0.069 51 25 9
-2310.5857 3005.8879 481.7788 0.840 -0.194 0.507 84 56 28
-2304.9036 3044.2153 458.9375 0.945 -0.093 0.313 105 55 30
-2303.0430 3049.6304 454.9303 0.945 -0.093 0.313 118 62 32
-2338.0994 3136.8511 438.3418 -0.342 -0.929 0.141 196 89 37
-2304.1951 3120.4258 421.3297 -0.130 -0.990 0.061 207 122 67
-2213.5701 3263.2454 284.9942 0.726 -0.678 -0.117 16 16 16
-2222.3660 3353.9851 247.3260 0.421 -0.793 0.440 21 20 25
-1916.6799 4516.2539 -543.7004 -0.590 -0.505 -0.630 242 197 192
-1880.8671 4589.2310 -605.6247 -0.586 -0.762 -0.274 237 180 173
-1911.0133 4724.4756 -649.2036 0.952 -0.262 -0.155 247 174 160
-1780.8441 4590.4380 -679.9803 -0.178 -0.748 0.639 212 137 115
-1767.2678 4576.8638 -683.3877 -0.185 -0.749 0.637 180 112 87
-1757.0836 4570.9834 -688.0373 -0.155 -0.761 0.630 102 42 17
-1735.3141 4573.4355 -705.2858 0.704 -0.646 0.296 55 28 17
-1719.9353 4555.1714 -707.7404 0.070 -0.826 0.560 54 31 24
-1652.8953 4574.8438 -766.7562 0.736 -0.601 -0.313 84 55 46
-1648.4216 4582.2559 -773.6623 0.749 -0.587 -0.306 86 61 50
-1572.7078 4598.2964 -837.3080 0.572 -0.523 0.632 241 191 192
-687.8248 3783.2939 -1093.3287 -0.463 -0.654 0.598 253 82 106
-671.0864 3732.8345 -1081.1191 -0.422 -0.672 0.608 254 83 107
-494.9652 4298.5781 -1486.3108 0.013 -0.959 -0.282 241 110 115
-487.6269 4288.1436 -1486.6454 0.117 -0.933 -0.341 231 96 102
-487.1320 4323.8101 -1504.3662 -0.246 -0.882 -0.401 225 85 93
-2822.9802 2644.5618 1027.0038 0.590 -0.322 -0.740 194 176 166
-2852.0774 2685.3826 1028.4746 0.498 -0.217 -0.839 186 169 159
-2881.8799 2715.6182 1035.6411 0.954 -0.115 0.275 191 163 147
-2904.7183 2740.2520 1040.4172 0.931 -0.260 -0.256 176 125 104
-2920.7983 2759.4138 1042.8911 0.794 -0.263 0.549 135 81 51
-2993.2676 2849.8286 1052.0573 0.953 -0.301 0.031 140 87 30
-2993.2632 2856.0012 1049.0359 0.810 -0.376 0.450 149 88 34
-2992.3711 2861.4482 1045.7153 0.808 -0.359 0.467 162 91 40
-2998.6467 2872.9419 1044.7175 0.923 -0.312 0.226 164 90 43
-2990.7341 2872.5149 1039.0984 0.952 -0.304 0.037 161 91 49
-2982.5901 2871.8804 1033.4103 0.954 -0.299 0.012 157 92 55
-2892.7202 2889.0784 958.8088 0.418 -0.893 0.166 170 91 39
-2885.8057 2889.3784 953.5692 0.584 -0.666 0.464 168 84 34
-2817.0515 2854.0400 920.2087 0.663 -0.744 -0.084 179 82 37
-2811.2571 2855.2048 915.3715 0.671 -0.736 -0.090 170 79 36
-2810.6355 2860.9763 912.0916 0.817 -0.545 -0.188 168 80 37
-2793.7300 2864.8960 897.7235 0.877 -0.479 -0.041 165 77 33
-2774.7129 2854.1506 888.9708 -0.246 -0.906 -0.344 167 77 37
-2770.9009 2857.0623 884.7394 -0.244 -0.910 -0.335 167 77 33
-2766.0754 2865.4365 877.0906 -0.327 -0.945 0.028 174 85 35
-2757.5356 2864.0706 871.4687 -0.256 -0.962 0.097 173 85 36
-2759.4553 2872.2180 868.8986 0.713 -0.692 0.111 174 85 38
-2755.8042 2875.3076 864.6988 0.713 -0.692 0.111 178 89 42
-2758.4595 2884.1768 862.3178 0.508 -0.825 0.247 180 90 43
-2758.8115 2890.9653 859.2576 0.462 -0.855 0.235 178 92 45
-2703.7422 2905.0420 811.8141 0.766 -0.427 -0.481 186 96 44
-2713.7554 2921.0708 811.3516 0.646 -0.656 -0.390 200 110 58
-2711.0840 2931.8237 804.1263 0.663 -0.646 -0.378 226 136 86
-2731.0281 2957.4453 806.2877 0.937 -0.298 -0.181 212 122 72
-2740.2961 2973.0149 805.5009 0.907 -0.380 -0.179 198 108 57
-2741.2156 2980.6792 802.4304 0.924 -0.376 0.066 185 96 43
-2738.7771 2985.1570 798.4449 0.920 -0.383 0.083 175 85 33
-2749.8088 3009.4553 794.6890 0.746 -0.498 0.443 182 88 36
-2745.3591 3012.0681 790.1342 0.746 -0.498 0.443 183 87 36
-2734.1846 3008.1804 783.8046 0.464 -0.528 0.712 183 87 36
-2401.0305 2767.1191 656.2964 -0.132 -0.858 0.497 179 92 41
-2407.3757 2779.8701 654.7352 -0.175 -0.821 0.543 176 93 43
-2229.5000 2831.4216 498.5164 0.229 -0.833 0.503 183 106 62
-2221.1392 2829.0381 493.5239 0.259 -0.860 0.440 144 73 36
-2217.2092 2831.5308 489.4105 0.174 -0.984 0.041 73 23 4
-2206.1899 2826.1677 483.9168 0.149 -0.988 0.026 40 10 0
-2198.7983 2831.6497 475.7921 0.238 -0.899 -0.367 42 14 3
-2413.6292 3227.1797 440.6205 -0.027 -0.950 0.311 203 97 42
-2403.4204 3223.2751 435.0107 0.051 -0.945 0.322 207 113 64
-2245.7961 3044.9868 406.0924 -0.325 -0.923 -0.207 228 145 98
-2236.0195 3041.0500 400.8167 -0.253 -0.928 -0.273 214 136 94
-2395.2332 3321.6726 380.8672 -0.504 -0.854 0.126 54 23 10
-2226.9866 3343.7717 246.1422 0.180 -0.857 0.484 13 14 18
-2223.2598 3347.7957 241.4296 0.419 -0.799 0.432 18 19 23
-2256.5273 3475.2998 203.5867 0.562 -0.654 -0.507 38 38 39
-1885.1241 4652.4224 -645.5403 0.962 -0.268 0.059 239 168 150
-1856.9769 4624.8999 -652.8143 0.432 -0.404 0.806 199 128 108
-1811.6638 4610.4497 -679.1232 0.486 -0.394 0.780 215 137 120
-1785.8694 4586.8594 -686.5868 -0.088 -0.760 0.644 203 137 116
-1771.9435 4572.5322 -689.8381 -0.185 -0.749 0.637 161 102 78
-1735.6995 4559.1182 -709.9741 -0.362 -0.861 -0.358 53 28 17
-1728.1611 4559.1997 -715.5660 -0.373 -0.849 -0.375 50 29 20
-1707.4988 4528.4595 -715.7536 0.109 -0.794 0.598 48 28 21
-1662.1741 4581.6895 -775.1647 0.824 -0.501 0.265 68 45 43
-1588.3505 4583.8726 -830.6057 0.646 -0.516 0.562 240 194 194
-1472.1710 4710.3608 -978.0248 -0.560 -0.822 -0.103 253 200 196
-1104.6899 4817.3506 -1301.0021 -0.027 -0.899 0.437 242 148 140
-1133.7260 4953.5957 -1346.2355 0.442 -0.436 0.784 232 138 130
-1092.8312 4853.6094 -1327.4656 0.395 -0.203 0.896 223 129 120
-922.7781 4479.7407 -1269.9056 -0.721 -0.690 0.066 226 12 35
-691.4916 3778.4966 -1097.3699 -0.327 -0.677 0.659 255 79 105
-675.3770 3731.0718 -1086.0497 -0.422 -0.672 0.608 255 82 106
-492.3615 4285.0669 -1491.7330 0.132 -0.937 -0.324 229 96 103
-2840.7603 2671.6648 1018.2693 0.748 -0.089 -0.657 191 174 163
-2907.0503 2737.6001 1034.6339 0.931 -0.260 -0.256 172 116 96
-2938.5112 2873.2698 991.1179 0.456 -0.340 0.822 89 41 14
-2903.8164 2874.7839 964.8541 0.701 -0.702 0.123 116 68 29
-2900.3413 2878.0767 960.6801 0.679 -0.723 0.126 148 86 35
-2898.4526 2882.7598 956.9900 0.677 -0.726 0.119 173 100 45
-2901.5076 2891.7798 954.8052 0.427 -0.889 0.168 173 98 47
-2897.9143 2895.0044 950.5779 0.543 -0.710 0.449 167 91 43
-2822.9148 2854.2839 915.4185 0.661 -0.745 -0.095 171 86 42
-2818.6653 2856.8245 911.0446 0.667 -0.739 -0.095 159 82 44
-2815.6770 2860.4895 907.0458 0.621 -0.715 -0.322 157 83 46
-2800.8523 2866.2812 893.2957 0.804 -0.518 -0.294 152 79 43
-2793.5840 2866.1211 888.0283 -0.216 -0.930 -0.297 152 79 43
-2779.8889 2860.1624 880.8823 -0.440 -0.845 -0.303 155 80 42
-2776.3792 2863.3594 876.7299 -0.487 -0.834 -0.259 160 83 42
-2740.8101 2850.2151 857.0250 -0.500 -0.836 -0.228 167 87 44
-2737.1355 2853.2295 852.8411 -0.327 -0.916 0.231 173 90 45
-2759.5212 2880.0645 856.1226 0.508 -0.819 0.268 177 92 45
-2757.9519 2885.0759 852.5059 0.446 -0.854 0.267 176 93 43
-2707.8345 2903.6917 806.4954 0.766 -0.427 -0.481 223 133 81
-2716.4094 2918.3381 805.6067 0.719 -0.614 -0.326 220 130 80
-2715.6809 2924.2683 802.1573 0.720 -0.605 -0.340 195 105 55
-2713.5789 2928.9185 798.3264 0.720 -0.605 -0.340 181 91 41
-2741.4604 2968.7620 799.2589 0.910 -0.382 -0.164 176 86 36
-2741.3098 2975.3875 795.8929 0.844 -0.537 0.018 180 90 40
-2742.2429 2996.7310 786.0928 0.549 -0.483 0.683 183 87 36
-2422.5046 2770.6655 661.9780 -0.184 -0.884 0.429 177 81 33
-2409.2795 2763.8943 655.5770 -0.189 -0.882 0.433 174 82 33
-2402.5754 2763.5818 650.7994 -0.144 -0.859 0.491 179 92 43
-2382.2625 2749.6531 642.7016 -0.302 -0.882 0.362 176 93 43
-2367.0452 2740.7510 635.8821 -0.287 -0.784 0.551 176 92 45
-2239.3281 2823.1162 501.4714 0.320 -0.619 0.717 184 106 60
-2232.8606 2822.8269 496.8564 0.333 -0.619 0.711 173 95 50
-2226.8896 2823.0708 492.3445 0.295 -0.862 0.412 179 102 58
-2219.4326 2821.6709 487.5472 0.300 -0.863 0.405 170 95 53
-2214.2046 2822.7131 483.1897 0.252 -0.967 -0.035 115 60 26
-2207.6423 2822.2749 478.5781 0.193 -0.981 -0.036 67 30 8
-2198.3167 2818.7595 473.4458 0.193 -0.911 -0.365 41 8 0
-2195.9846 2822.9929 469.6505 0.085 -0.662 -0.744 50 12 1
-2364.0562 3069.4739 472.1754 0.842 -0.191 0.505 103 52 16
-2226.7957 3300.8977 257.5095 0.837 -0.511 -0.195 34 35 37
-2229.7070 3340.0315 240.4237 0.210 -0.855 0.473 13 14 18
-2226.8489 3345.1907 235.7867 0.421 -0.793 0.440 18 19 23
-1944.9824 4630.5435 -603.0613 -0.606 -0.496 -0.622 245 190 183
-1892.0344 4635.5347 -644.4598 0.972 -0.226 0.068 238 163 149
-1887.4650 4642.7500 -651.3659 0.962 -0.268 0.059 232 157 141
-1879.7059 4642.9785 -657.1854 0.510 -0.395 0.764 225 149 133
-1830.2207 4619.8110 -682.2021 0.454 -0.412 0.790 202 125 106
-1815.6672 4604.5015 -685.3851 0.482 -0.396 0.782 200 128 106
-1806.7446 4601.7935 -690.6176 0.376 -0.411 0.831 196 128 106
-1770.7856 4554.9097 -694.0323 -0.148 -0.764 0.628 164 107 79
-1713.9803 4528.5107 -722.8454 0.180 -0.984 0.004 50 30 23
-1691.9070 4511.8423 -730.8921 0.789 -0.557 -0.259 47 27 20
-1588.5319 4568.0513 -834.5469 0.940 -0.335 -0.060 241 195 195
-692.3079 3761.3416 -1097.4167 -0.452 -0.684 0.572 255 79 108
-562.4439 4398.6050 -1506.0391 -0.512 -0.857 0.050 255 47 78
-2953.2556 2788.8618 1034.4755 0.953 -0.211 -0.218 154 91 54
-2992.1326 2839.2954 1038.1360 0.957 -0.289 0.009 159 95 42
-2942.0825 2834.1782 1003.8965 0.819 -0.191 0.541 153 95 59
-2963.0496 2870.5400 1001.3477 0.148 -0.376 0.915 123 74 52
-2934.4106 2864.8535 983.1174 0.457 -0.342 0.822 74 28 4
-2842.6121 2847.8635 924.0718 0.610 -0.742 -0.277 166 94 50
-2826.1072 2852.1631 909.8253 0.661 -0.745 -0.095 157 90 50
-2822.8464 2855.5754 905.7452 0.661 -0.745 -0.095 139 81 48
-2816.7847 2856.5076 900.8323 0.556 -0.462 -0.691 135 81 50
-2816.1318 2862.2493 897.5184 0.556 -0.462 -0.691 136 79 48
-2814.9727 2867.5566 894.0466 0.326 -0.585 -0.743 119 61 30
-2810.3308 2869.7656 889.5464 0.316 -0.611 -0.726 100 45 17
-2805.7195 2872.0024 885.0547 -0.200 -0.934 -0.295 100 46 14
-2805.4270 2878.1223 881.8187 -0.458 -0.840 -0.291 102 45 12
-2793.6179 2873.8855 875.2355 -0.487 -0.834 -0.259 120 60 28
-2779.1746 2867.2388 867.9070 -0.479 -0.878 -0.009 142 79 47
-2746.3413 2850.2363 852.1822 -0.497 -0.868 0.006 158 86 50
-2745.0312 2926.7468 813.4489 0.761 -0.490 -0.426 193 103 51
-2731.1301 2926.9485 803.1379 0.862 -0.463 -0.208 181 91 41
-2724.8271 2927.6448 798.1641 0.855 -0.467 -0.225 183 93 43
-2747.4487 2969.0991 794.3167 0.915 -0.356 -0.188 184 94 44
-2741.2158 2969.9333 789.3262 0.624 -0.424 0.657 182 92 42
-2732.9150 2968.7898 783.7932 0.604 -0.451 0.657 183 91 42
-2726.2727 2969.2156 778.7037 0.604 -0.454 0.655 183 89 38
-2434.6438 2771.2488 662.2103 -0.189 -0.874 0.448 176 82 31
-2422.3096 2765.4075 656.0336 -0.189 -0.874 0.448 176 80 32
-2408.6265 2758.1880 649.5463 -0.203 -0.868 0.454 173 80 31
-2397.5649 2753.5312 643.7197 -0.197 -0.816 0.543 177 90 42
-2385.3650 2747.7056 637.6338 -0.191 -0.856 0.480 176 92 45
-2356.7502 2725.4219 627.6149 -0.316 -0.782 0.538 176 92 45
-2235.2295 2813.2068 495.0118 0.320 -0.625 0.713 187 107 59
-2228.3516 2812.4500 490.3331 0.332 -0.622 0.709 171 91 44
-2224.5244 2815.0200 486.2529 0.223 -0.956 -0.189 178 99 52
-2220.0559 2816.8899 482.0474 0.223 -0.956 -0.189 190 111 66
-2214.7595 2817.8479 477.6837 0.187 -0.952 -0.241 157 94 56
-2208.0698 2817.2637 473.0582 0.198 -0.956 -0.219 107 58 29
-2217.9321 2834.9856 471.5539 -0.109 -0.438 -0.893 64 17 1
-2353.3994 3058.8096 460.5698 0.860 -0.194 0.472 133 62 28
-2585.0896 3484.8530 420.4389 0.155 -0.679 0.718 68 25 10
-2434.2388 3346.7007 377.8291 -0.361 -0.917 0.169 61 28 13
-2402.4788 3325.1533 365.1362 -0.397 -0.889 0.227 47 16 3
-2232.8064 3292.8269 256.4575 0.606 -0.502 -0.617 31 32 34
-2225.1990 3291.6665 251.4421 0.519 -0.836 -0.177 35 36 38
-2225.4321 3318.2708 238.4796 0.920 -0.305 -0.245 16 17 19
-2233.5054 3337.7202 234.8085 0.254 -0.826 0.503 12 13 17
-2229.0830 3340.8074 230.0358 0.421 -0.793 0.440 18 19 23
-2168.3418 3414.1543 149.2075 -0.643 -0.587 -0.492 225 197 191
-1996.5925 4760.0977 -641.4080 -0.654 -0.460 -0.600 240 187 179
-1910.1304 4626.0234 -638.7327 0.586 -0.689 0.426 243 184 174
-1889.7971 4633.1143 -657.1695 0.962 -0.268 0.059 221 147 132
-1880.9469 4630.9243 -662.5896 0.510 -0.395 0.764 214 139 123
-1867.1056 4617.7017 -666.2293 0.379 -0.558 0.739 215 140 124
-1837.8253 4604.5615 -681.2512 0.044 -0.841 0.538 200 123 108
-1830.7703 4606.1221 -687.2040 0.533 -0.824 0.191 189 113 95
-1816.7950 4592.1240 -690.5594 0.366 -0.817 0.445 186 114 95
-1808.3401 4590.4453 -695.9415 0.270 -0.756 0.596 182 116 95
-1706.8551 4514.2935 -732.8962 -0.374 -0.872 -0.315 51 31 24
-1672.2249 4538.5298 -770.2994 0.089 -0.666 -0.740 68 47 44
-1668.2400 4546.9141 -777.3657 0.089 -0.666 -0.740 67 46 43
-1664.2444 4555.3208 -784.4510 0.089 -0.666 -0.740 69 49 46
-1659.5862 4562.1670 -791.2524 0.064 -0.664 -0.745 88 69 65
-1655.5291 4570.5142 -798.3537 0.064 -0.664 -0.745 122 101 96
-1465.2737 4696.3945 -1000.2542 0.655 -0.719 0.231 234 181 177
-1091.6722 4722.3657 -1287.5144 -0.255 -0.910 0.326 242 148 138
-998.0887 4736.8867 -1363.4271 0.411 -0.870 0.272 225 12 34
-728.3658 3849.4353 -1123.4507 -0.311 -0.557 0.770 241 40 76
-694.2615 3749.2949 -1099.0667 -0.420 -0.663 0.620 255 79 107
-565.0652 4381.8159 -1506.2281 -0.495 -0.866 0.075 255 46 78
-2891.0532 2780.3643 984.1039 0.949 -0.293 -0.113 161 98 61
-2866.9373 2772.0520 970.5355 0.852 -0.523 -0.019 137 84 53
-2859.9619 2772.1553 965.3671 0.843 -0.535 0.053 117 66 38
-2869.1235 2785.9453 965.2479 0.838 -0.546 0.015 99 52 27
-2834.7581 2854.8606 905.8540 0.298 -0.446 -0.844 130 80 47
-2834.5771 2861.0024 902.6749 0.298 -0.446 -0.844 95 57 31
-2825.8777 2865.9387 893.8446 0.337 -0.584 -0.739 81 43 18
-2822.2756 2869.0759 889.6459 0.326 -0.585 -0.743 73 32 8
-2817.5938 2871.2546 885.1307 0.316 -0.611 -0.726 66 26 2
-2820.2642 2880.0137 882.7450 -0.248 -0.910 -0.331 64 27 3
-2794.3787 2875.9312 865.7803 -0.477 -0.879 -0.006 83 33 11
-2778.0237 2867.5552 857.9371 -0.475 -0.879 0.053 95 37 14
-2712.7065 2904.4446 791.7227 0.771 -0.416 -0.483 183 93 43
-2711.8103 2910.1721 788.2242 0.771 -0.416 -0.483 183 93 43
-2709.1736 2914.2781 784.2532 0.785 -0.416 -0.458 183 93 43
-2712.2319 2923.7742 781.7867 0.784 -0.417 -0.460 182 92 42
-2435.9268 2767.4604 656.6243 -0.228 -0.881 0.416 175 81 30
-2409.5415 2754.0544 643.9178 -0.223 -0.832 0.507 162 70 18
-2398.7026 2749.6238 638.1641 -0.197 -0.818 0.540 167 80 29
-2382.7327 2740.0522 631.1962 -0.218 -0.826 0.519 169 86 36
-2356.4116 2720.0898 621.7889 -0.323 -0.780 0.535 176 93 43
-2230.3191 2802.4529 488.4339 0.596 -0.670 -0.442 187 108 61
-2228.2026 2806.8652 484.6927 0.195 -0.895 -0.400 183 102 56
-2225.3882 2810.5283 480.8111 0.176 -0.893 -0.415 177 97 51
-2222.9678 2814.6326 476.9996 0.102 -0.860 -0.500 169 91 48
-2220.8696 2819.1028 473.2431 0.101 -0.728 -0.678 156 90 52
-2231.5120 2837.6204 471.8651 -0.075 -0.425 -0.902 141 82 50
-2229.0149 2841.7148 468.0023 -0.101 -0.430 -0.897 124 64 37
-2220.5264 2839.1868 463.0293 -0.278 -0.481 -0.831 109 48 21
-2339.0029 3043.8799 448.4117 0.958 -0.134 0.252 175 86 49
-2321.8450 3039.3083 438.0922 0.948 -0.135 0.288 183 84 48
-2520.3550 3349.0500 430.0807 -0.626 -0.686 0.371 109 43 9
-2439.2246 3345.7744 372.1884 -0.330 -0.926 0.185 62 29 15
-2406.5918 3323.2239 359.4345 -0.395 -0.862 0.319 48 18 3
-2229.4246 3290.0171 245.9361 0.558 -0.823 -0.104 30 31 33
-2233.0374 3338.7009 224.4382 0.412 -0.794 0.448 18 19 23
-1902.5220 4612.0361 -649.6268 0.561 -0.698 0.445 242 175 159
-1888.6451 4615.9453 -661.7458 0.941 -0.329 -0.084 213 142 124
-1879.0819 4612.1504 -666.8792 0.586 -0.724 0.365 206 135 117
-1868.3293 4605.6938 -671.5645 0.572 -0.731 0.372 221 149 132
-1841.2572 4597.4043 -687.3129 0.538 -0.825 0.173 201 127 110
-1834.8156 4600.3135 -693.4815 0.538 -0.825 0.173 191 114 98
-1826.8560 4599.8252 -699.0784 -0.284 -0.894 0.347 186 113 97
-1772.7065 4564.2056 -721.1343 0.384 -0.896 0.224 112 68 43
-1764.5867 4563.0586 -726.5222 -0.188 -0.935 -0.302 87 50 27
-1749.7157 4546.3315 -729.1344 -0.332 -0.840 -0.429 58 34 23
-1725.5082 4525.2515 -736.4370 -0.309 -0.897 -0.315 49 28 23
-1716.3325 4521.3760 -741.2459 -0.374 -0.872 -0.315 46 25 20
-1680.6123 4543.1870 -778.2688 0.054 -0.668 -0.742 194 175 171
-1677.0189 4552.5151 -785.5319 0.088 -0.663 -0.744 187 166 163
-1669.2913 4570.0312 -799.8893 0.066 -0.667 -0.742 207 189 185
-510.1971 4262.3101 -1497.5631 0.983 -0.097 0.156 246 124 126
-2865.6292 2684.3669 1004.4497 0.948 -0.098 0.303 148 108 97
-2893.7649 2777.9563 978.4205 0.940 -0.316 -0.128 157 93 55
-2890.9253 2781.5764 974.5360 0.945 -0.304 -0.119 142 84 50
-2879.6929 2778.1282 968.0254 0.833 -0.540 -0.119 124 66 39
-2869.9202 2775.8877 961.9823 0.837 -0.529 -0.136 101 50 24
-2897.6028 2879.7900 930.4816 0.412 -0.585 0.699 168 101 68
-2893.3784 2882.4324 926.0698 0.923 -0.173 -0.345 152 91 56
-2889.5845 2885.4548 921.7840 0.925 -0.191 -0.328 132 78 42
-2891.7690 2893.7324 919.2593 0.926 -0.193 -0.325 114 65 30
-2838.7246 2859.7131 897.3518 0.466 -0.474 -0.747 62 37 16
-2838.1389 2865.5083 894.0347 0.466 -0.474 -0.747 56 37 20
-2833.1050 2867.3772 889.4153 0.337 -0.584 -0.739 56 35 16
-2831.8267 2872.5837 885.8840 0.337 -0.584 -0.739 55 32 14
-2824.8706 2872.7466 880.7067 0.316 -0.611 -0.726 52 30 14
-2772.0896 2863.5459 846.6235 -0.475 -0.876 0.083 89 30 8
-2755.7395 2855.1055 838.8516 -0.453 -0.885 0.112 145 77 43
-2412.7498 2752.2009 638.8545 -0.226 -0.835 0.502 161 69 17
-2380.5444 2732.8674 624.8955 -0.341 -0.854 0.394 169 86 34
-2358.9250 2717.6169 616.6570 -0.284 -0.790 0.544 175 92 42
-2354.5774 2719.5298 612.5186 0.313 -0.771 0.555 182 96 47
-2226.9924 2727.9551 514.8482 0.841 -0.341 -0.420 181 95 44
-2176.7983 2693.8887 495.0527 0.056 -0.968 0.245 180 94 45
-2219.1091 2751.9587 497.1102 0.190 -0.519 -0.834 179 95 45
-2229.0061 2769.1226 495.8070 0.452 -0.511 -0.731 176 95 47
-2229.3171 2816.1396 472.6031 0.091 -0.860 -0.503 155 78 36
-2228.8494 2822.3979 469.1414 -0.112 -0.724 -0.681 147 76 36
-2237.3064 2845.3357 463.9057 -0.207 -0.496 -0.843 136 62 31
-2235.5681 2850.2878 460.1643 -0.281 -0.488 -0.827 131 55 24
-2716.8569 3545.6108 466.2396 -0.604 -0.687 0.404 202 118 80
-2656.6580 3484.3738 452.6551 -0.596 -0.687 0.415 165 83 46
-2445.4675 3346.3665 366.7111 -0.329 -0.925 0.189 64 30 19
-2413.1006 3324.2087 354.0411 -0.395 -0.862 0.319 50 19 6
-2270.8770 3318.9380 252.4719 -0.212 -0.723 -0.658 14 15 17
-2233.2791 3322.8872 222.9588 0.878 -0.399 -0.265 18 19 23
-2233.8408 3368.2458 200.7650 0.900 -0.259 -0.352 40 41 45
-2293.0112 3551.0193 153.0260 -0.686 -0.625 -0.372 115 88 84
-2277.2439 3539.0964 147.4166 -0.690 -0.613 -0.386 197 166 160
-2247.1831 3507.3945 141.1925 -0.645 -0.585 -0.491 218 192 183
-1897.5781 4586.9214 -652.9371 0.925 -0.379 0.001 249 182 164
-1881.3304 4602.4585 -672.5837 0.511 -0.849 0.133 214 141 122
-1874.4929 4604.5659 -678.6431 0.629 -0.744 0.227 228 157 137
-1865.3634 4601.6333 -683.8702 0.578 -0.739 0.347 223 152 132
-1809.0492 4579.6274 -714.1600 -0.486 -0.802 0.348 179 115 93
-1760.2827 4521.0054 -720.6719 0.360 -0.866 -0.348 120 78 51
-1761.9532 4542.0825 -729.9523 0.360 -0.876 -0.322 100 65 41
-1766.7229 4570.4224 -740.5816 0.523 -0.718 -0.460 71 49 37
-1768.6742 4592.4761 -750.1429 0.494 -0.707 -0.507 64 44 37
-1724.3679 4525.0493 -748.9993 -0.317 -0.900 -0.300 55 36 29
-1687.0244 4561.0000 -794.2747 0.088 -0.663 -0.744 223 205 204
-1683.4993 4570.5649 -801.6242 0.066 -0.667 -0.742 232 215 213
-1679.4359 4578.8901 -808.7500 0.066 -0.667 -0.742 232 214 212
-1029.8826 4732.0220 -1360.9421 0.104 -0.772 0.627 224 89 82
-1007.6741 4726.2847 -1374.3533 0.400 -0.891 0.217 232 13 37
-751.8337 3883.9558 -1141.9973 0.911 -0.064 -0.407 243 36 70
-512.2604 4242.4570 -1496.1793 0.983 -0.098 0.153 248 122 126
-506.1553 4240.0107 -1499.4329 0.926 -0.239 -0.291 237 108 113
-408.5556 3843.3237 -1373.2402 0.885 -0.304 0.354 221 74 76
-2862.9871 2677.7734 997.2025 0.947 -0.098 0.306 145 104 93
-2905.3979 2777.0295 978.5329 0.186 -0.861 0.473 163 93 52
-2894.2883 2773.7209 972.0613 0.978 -0.205 0.041 152 87 51
-2890.1226 2776.2170 967.7637 0.977 -0.207 0.044 124 63 30
-2892.6558 2870.5344 922.3908 0.921 -0.181 -0.346 140 78 47
-2892.6172 2876.8074 919.2217 0.921 -0.181 -0.346 115 62 30
-2893.9009 2884.2566 916.4309 0.927 -0.191 -0.323 100 56 21
-2894.3875 2891.0334 913.3937 0.926 -0.193 -0.325 86 46 12
-2840.6628 2869.0994 885.0693 0.520 -0.475 -0.710 51 42 30
-2829.7981 2865.8013 878.7715 0.752 -0.359 -0.553 49 39 25
-2780.4346 2866.0696 842.5206 -0.326 -0.924 0.203 79 28 6
-2767.4534 2860.7056 835.7089 -0.453 -0.885 0.112 139 76 44
-2723.0432 2826.8044 820.1913 -0.448 -0.826 0.343 168 94 55
-2499.3176 2819.6316 660.0955 -0.420 -0.729 0.541 175 81 30
-2353.8716 2707.6274 609.7631 -0.327 -0.792 0.515 175 93 44
-2350.6521 2710.6414 605.8985 0.200 -0.676 0.709 179 96 48
-2169.6755 2637.5457 510.0882 -0.056 -0.740 -0.671 180 95 45
-2171.9958 2646.1438 507.4807 0.294 -0.820 -0.492 182 96 42
-2230.4797 2720.0813 513.2484 0.879 -0.274 -0.391 181 95 42
-2223.5242 2719.1514 508.6251 0.884 -0.241 -0.401 182 95 43
-2191.0957 2697.6187 495.6807 0.124 -0.971 0.205 181 94 45
-2207.4187 2721.3359 495.7478 0.366 -0.883 -0.294 181 94 44
-2206.4707 2746.2136 482.5975 0.392 -0.446 -0.805 169 92 45
-2208.6108 2755.0508 479.7385 0.393 -0.458 -0.798 164 88 42
-2243.3296 2853.3101 455.9402 -0.226 -0.457 -0.861 152 68 35
-2237.2556 2853.4890 451.4066 -0.229 -0.458 -0.859 160 79 44
-2236.9043 2860.0024 447.8883 -0.211 -0.456 -0.865 166 84 48
-2343.7837 3052.1943 429.8523 0.958 -0.093 0.270 199 81 34
-2397.3850 3306.6880 341.6406 0.124 -0.842 0.525 39 15 3
-2241.1123 3299.5889 230.8594 0.301 -0.745 -0.595 29 30 32
-2304.8486 3568.9534 142.6167 -0.653 -0.594 -0.471 102 71 66
-2284.1091 3550.2380 136.8138 -0.641 -0.588 -0.493 170 142 135
-2266.1179 3535.1875 131.1867 -0.653 -0.592 -0.472 229 198 193
-1900.7041 4579.2900 -658.9640 0.925 -0.379 0.001 254 186 169
-1891.2939 4609.5806 -681.0158 0.986 -0.146 -0.085 235 161 142
-1888.9769 4621.5806 -688.7196 0.986 -0.158 -0.054 235 163 144
-1836.4283 4608.8403 -720.7872 -0.485 -0.818 0.309 199 131 109
-1819.6232 4588.5415 -722.9185 -0.491 -0.802 0.341 191 129 104
-1777.4473 4545.2261 -732.0876 0.535 -0.842 0.072 132 91 60
-1769.5461 4544.5381 -737.5239 0.466 -0.762 -0.450 113 79 52
-1769.0338 4560.7227 -746.0027 0.513 -0.711 -0.481 91 67 54
-1757.0338 4550.6353 -749.7314 0.522 -0.720 -0.458 83 62 53
-1728.9221 4538.0840 -764.0144 -0.366 -0.879 -0.307 74 54 45
-1700.4485 4559.6392 -795.6400 0.175 -0.627 -0.759 62 41 40
-1697.0756 4569.5244 -803.0574 0.088 -0.663 -0.744 69 47 46
-1691.6770 4574.6226 -809.5600 -0.033 -0.919 -0.392 85 65 64
-1691.1263 4591.3901 -818.3588 0.068 -0.663 -0.745 106 85 84
-1687.1017 4599.8936 -825.5611 0.068 -0.663 -0.745 87 67 65
-1678.5516 4597.4800 -830.6082 0.747 -0.476 -0.463 127 103 101
-1030.8301 4711.8115 -1361.7570 0.190 -0.836 0.515 223 88 81
-1010.3671 4712.7217 -1377.1842 0.617 -0.765 0.184 230 14 38
-719.8293 3820.7957 -1143.1533 0.277 -0.542 0.794 255 75 100
-514.7695 4225.7266 -1495.9391 0.986 -0.103 0.133 252 121 127
-507.8734 4218.1323 -1497.1819 0.897 -0.330 0.293 239 108 116
-2851.1599 2635.6313 1001.1671 0.618 -0.325 -0.716 123 104 97
-2924.5242 2758.5127 992.9552 -0.099 -0.959 0.265 172 90 48
-2894.8931 2769.5657 965.7442 0.978 -0.205 0.041 133 77 46
-2890.7202 2772.0474 961.4469 0.977 -0.207 0.044 102 49 20
-2892.5835 2803.7639 946.8530 0.972 -0.232 -0.026 92 51 20
-2894.3071 2867.0415 916.2798 0.856 -0.323 -0.404 97 53 29
-2896.2480 2887.6782 907.3165 0.930 -0.205 -0.306 68 49 19
-2905.8296 2902.4392 906.8917 0.813 -0.389 -0.434 56 43 22
-2907.6475 2910.4368 904.1967 0.836 -0.386 -0.391 42 39 28
-2904.6560 2914.2249 900.1053 0.843 -0.385 -0.376 45 45 38
-2825.5161 2857.0452 871.0452 0.741 -0.369 -0.562 53 44 31
-2828.8674 2866.3318 868.8223 0.765 -0.350 -0.540 42 35 22
-2764.6013 2846.8030 831.6895 -0.156 -0.721 0.676 103 53 21
-2526.2979 2834.4380 663.7894 -0.326 -0.711 0.623 176 86 37
-2505.8264 2820.8784 655.6530 -0.425 -0.732 0.533 172 81 32
-2460.8357 2783.1567 641.7560 -0.346 -0.722 0.600 164 74 25
-2380.9390 2723.2952 613.4921 -0.305 -0.730 0.611 164 86 37
-2196.2231 2635.6133 522.6359 -0.045 -0.783 -0.621 175 96 45
-2183.1855 2634.3882 513.7260 -0.051 -0.746 -0.664 175 96 47
-2181.6689 2638.9541 510.3210 -0.050 -0.749 -0.660 176 96 47
-2177.2229 2640.4834 506.3032 -0.049 -0.741 -0.669 177 96 47
-2179.4634 2648.9934 503.6590 -0.062 -0.760 -0.648 178 97 45
-2175.4817 2651.0244 499.7281 -0.090 -0.814 -0.574 177 96 46
-2202.1489 2704.2212 492.4518 0.082 -0.949 -0.304 175 95 51
-2212.9397 2722.0442 491.3701 0.377 -0.878 -0.294 173 93 48
-2213.1763 2728.7278 488.1807 0.119 -0.449 -0.886 174 94 48
-2213.1716 2754.6960 475.1136 0.441 -0.433 -0.786 135 68 24
-2240.6719 2858.6050 442.9347 0.950 -0.290 0.115 169 84 44
-2746.8535 3565.9133 456.9650 -0.605 -0.691 0.395 222 149 116
-2674.9607 3491.4426 441.8987 -0.561 -0.808 0.178 144 81 54
-2292.7219 3332.6321 242.5011 -0.231 -0.709 -0.667 14 16 15
-2250.4224 3295.7913 230.1275 0.346 -0.694 -0.632 28 30 29
-2247.8923 3301.2170 225.5495 0.346 -0.694 -0.632 29 29 29
-2326.0923 3599.8025 132.4805 -0.653 -0.594 -0.470 86 65 59
-2280.8416 3557.1997 120.8493 -0.700 -0.629 -0.338 212 184 183
-1884.4425 4597.1392 -691.9395 0.846 -0.312 0.433 239 171 154
-1879.7046 4603.8076 -698.7561 0.896 -0.445 0.005 234 165 149
-1885.4955 4633.5703 -709.4973 -0.438 -0.700 0.564 227 157 141
-1811.0045 4571.6670 -732.7842 -0.592 -0.771 0.233 188 135 109
-1771.3954 4516.7778 -734.1125 0.024 -0.742 -0.670 144 102 77
-1765.7726 4555.7148 -757.8088 0.022 -0.693 -0.720 104 79 72
-1738.6140 4545.5220 -772.5248 -0.121 -0.752 0.648 74 50 43
-1711.7091 4570.9380 -804.9694 0.115 -0.639 -0.760 94 70 67
-1703.9651 4570.4707 -810.3925 0.029 -0.894 -0.447 117 91 89
-1698.5995 4575.6479 -816.9174 -0.045 -0.917 -0.396 140 116 114
-1693.9481 4582.5562 -823.7914 -0.084 -0.918 -0.388 168 144 142
-1687.1847 4584.4219 -829.6718 -0.084 -0.918 -0.388 194 169 166
-1627.4722 4566.6558 -864.3640 0.452 -0.486 -0.748 234 188 188
-1631.9982 4596.4126 -876.0267 0.113 -0.332 -0.936 234 188 188
-1181.8009 4906.7148 -1361.0719 0.094 -0.710 0.698 249 151 143
-1081.6637 4697.3789 -1328.9297 0.751 -0.162 0.640 208 109 96
-1040.2679 4697.9727 -1359.4747 0.199 -0.851 0.486 234 105 96
-1033.1072 4696.9526 -1364.1941 0.199 -0.851 0.486 223 88 82
-1018.6302 4694.1733 -1373.3735 0.212 -0.843 0.494 217 21 37
-1009.5172 4712.4868 -1389.2450 0.571 -0.764 0.299 224 16 37
-764.3847 3849.4238 -1134.1814 0.891 -0.235 -0.388 239 24 52
-513.7846 4187.3525 -1487.2854 0.210 -0.407 0.889 253 122 130
-509.9131 4198.6274 -1495.7861 0.885 -0.338 0.321 240 109 117
-2861.3672 2628.3633 1003.8094 0.672 -0.274 -0.688 158 140 130
-2861.7366 2634.2151 1001.1213 0.672 -0.274 -0.688 112 93 86
-2849.6311 2635.6528 991.5613 0.674 -0.313 -0.670 153 134 127
-2849.7576 2641.3406 988.7790 0.674 -0.313 -0.670 132 113 106
-2846.4360 2644.2625 984.8787 0.499 -0.330 -0.801 138 117 111
-2907.5972 2734.1321 984.0867 0.204 -0.271 -0.941 171 81 46
-2915.0613 2752.0193 980.4928 0.337 -0.746 0.575 153 88 50
-2884.2253 2750.0938 958.9655 0.315 -0.712 0.627 118 74 47
-2902.9663 2771.6545 961.7435 0.986 -0.167 -0.003 87 44 21
-2899.9858 2775.1396 957.8073 0.987 -0.163 0.010 66 22 2
-2894.9424 2776.9023 953.2363 0.985 -0.161 -0.066 65 24 2
-2896.8462 2784.5024 950.7842 0.987 -0.156 -0.048 69 25 3
-2891.3706 2797.9946 939.9697 0.977 -0.204 0.066 134 70 45
-2899.5847 2866.7017 911.2386 0.886 -0.351 -0.303 59 39 23
-2902.5466 2875.5615 908.9220 0.882 -0.345 -0.319 53 45 28
-2903.4307 2882.6440 905.9875 0.889 -0.329 -0.318 47 47 25
-2850.8118 2843.0310 887.6127 0.877 -0.374 -0.303 48 47 25
-2850.6292 2855.3809 881.2379 0.878 -0.375 -0.299 35 40 32
-2835.6143 2854.7336 870.6086 0.804 -0.434 -0.406 44 38 25
-2843.6072 2868.0928 869.6893 0.796 -0.355 -0.490 46 32 14
-2842.3755 2886.0566 859.7114 0.240 -0.643 0.727 46 26 1
-2824.6204 2876.6042 851.5330 0.215 -0.665 0.715 56 31 1
-2805.5420 2865.9124 843.0155 -0.064 -0.600 0.798 74 43 6
-2782.3835 2864.1719 826.9965 -0.447 -0.776 0.446 155 88 38
-2458.7827 2776.0867 635.3871 -0.344 -0.722 0.600 162 75 27
-2432.2954 2756.4133 626.0027 -0.356 -0.725 0.589 154 71 24
-2340.3240 2696.6746 589.0844 0.223 -0.570 0.791 169 93 49
-2310.6990 2742.1050 544.5066 0.917 -0.320 0.238 173 95 44
-2218.1724 2653.3079 521.8693 -0.326 -0.750 -0.576 171 96 45
-2226.8042 2699.6868 504.7278 0.348 -0.931 0.107 162 91 51
-2246.8506 2746.3137 495.7900 0.437 -0.647 -0.625 148 76 47
-2232.0647 2737.1445 489.6349 0.033 -0.446 -0.895 136 65 33
-2251.4973 2777.3381 483.5006 0.351 -0.612 -0.709 120 59 24
-2243.2437 2855.8894 437.7777 0.905 -0.401 0.143 183 91 45
-2199.7578 2814.6646 426.8818 0.313 -0.950 -0.025 191 88 42
-2195.1113 2816.3083 422.6605 0.313 -0.950 -0.025 195 86 39
-2186.2402 2813.2507 417.7327 0.302 -0.953 -0.013 197 85 33
-2242.7954 2890.1602 420.1300 0.467 -0.720 -0.513 198 85 26
-2413.9272 3104.2983 436.7763 0.972 -0.097 0.215 196 91 34
-2441.1111 3142.6643 437.2217 0.972 -0.079 0.221 199 95 36
-2759.5869 3573.3743 451.9268 -0.633 -0.686 0.357 216 161 130
-2307.6221 3344.5005 237.8068 -0.229 -0.695 -0.681 13 13 13
-2253.3074 3301.0754 220.1212 0.344 -0.671 -0.657 22 22 22
-2343.6941 3625.6863 122.0151 -0.701 -0.632 -0.330 73 57 55
-2234.4478 3514.1418 98.6744 -0.735 -0.674 0.076 221 188 181
-1909.4293 4569.4272 -671.8361 0.813 -0.376 0.444 252 194 180
-1902.0067 4570.2144 -677.6500 0.844 -0.310 0.437 231 170 156
-1897.8643 4578.0366 -684.6262 0.837 -0.310 0.450 223 162 147
-1891.3462 4580.7725 -690.7651 0.844 -0.310 0.437 251 191 174
-1853.4882 4599.9541 -728.0844 -0.386 -0.874 0.296 226 165 150
-1846.0925 4600.7563 -733.8861 -0.595 -0.770 0.229 221 162 148
-1830.2585 4582.7544 -736.3417 -0.610 -0.756 0.239 216 160 145
-1819.4061 4575.7236 -740.7072 -0.592 -0.771 0.233 205 152 136
-1780.3494 4556.7021 -759.5931 0.013 -0.682 -0.731 140 110 101
-1772.1036 4555.2593 -764.8808 0.034 -0.681 -0.732 137 108 101
-1768.8776 4565.2778 -772.2981 0.242 -0.957 -0.158 133 103 99
-1758.8003 4559.6035 -776.7837 0.163 -0.964 -0.210 134 106 99
-1748.7151 4553.8433 -781.2314 -0.115 -0.863 0.491 144 116 109
-1729.3434 4561.5811 -799.2775 0.028 -0.673 -0.739 136 108 103
-1725.1525 4569.4771 -806.3262 0.031 -0.665 -0.746 158 129 125
-1721.0594 4577.6465 -813.4419 0.031 -0.665 -0.746 168 139 135
-1720.3689 4593.9121 -822.1664 -0.103 -0.632 -0.768 195 165 161
-1716.1255 4601.8496 -829.2744 -0.103 -0.632 -0.768 214 186 181
-1711.8718 4609.8062 -836.3996 -0.103 -0.632 -0.768 217 189 185
-1674.5685 4592.8560 -855.0527 0.774 -0.529 -0.348 242 199 196
-1028.9873 4684.0742 -1372.2291 0.223 -0.849 0.479 203 54 53
-1016.8395 4690.2549 -1384.2169 0.620 -0.730 0.287 224 27 45
-1013.8099 4705.3716 -1394.0676 0.547 -0.774 0.318 225 26 43
-2852.7739 2645.0239 980.6196 0.499 -0.330 -0.801 138 114 109
-2910.6382 2743.7927 972.6362 0.245 -0.765 0.596 150 89 55
-2900.3318 2747.0552 963.4693 0.442 -0.602 0.665 134 91 62
-2892.7974 2746.7100 958.1542 0.442 -0.602 0.665 111 71 42
-2877.5662 2739.9580 950.4833 0.326 -0.705 0.630 78 41 15
-2785.3118 2799.3906 853.0793 0.870 -0.318 0.377 37 31 21
-2783.4578 2803.9089 849.4341 0.878 -0.303 0.371 44 32 18
-2807.7866 2856.6133 840.4022 0.951 -0.277 -0.140 73 41 6
-2795.2559 2851.7456 833.7424 0.024 -0.567 0.823 95 57 15
-2518.9451 2817.0039 650.0309 0.617 -0.722 0.314 174 88 39
-2519.7083 2824.1890 646.9390 -0.454 -0.729 0.512 167 84 34
-2459.3086 2771.5642 629.6452 -0.344 -0.722 0.600 162 76 27
-2405.6914 2731.5452 610.8932 -0.308 -0.739 0.599 143 65 20
-2331.6956 2683.1873 581.5250 0.237 -0.558 0.795 167 95 52
-2238.7654 2644.9407 533.2253 0.271 -0.334 -0.903 173 90 39
-2226.0811 2668.8767 511.8285 -0.388 -0.773 -0.501 163 94 46
-2224.6978 2673.6624 508.3907 -0.305 -0.694 -0.652 165 94 47
-2217.2793 2672.2029 503.7257 -0.386 -0.763 -0.518 164 93 48
-2247.8103 2710.1921 506.6851 -0.214 -0.977 -0.018 163 95 49
-2239.7126 2708.0930 501.8500 0.215 -0.972 0.089 152 87 47
-2253.7102 2748.3623 491.6036 0.459 -0.648 -0.607 128 62 34
-2266.4810 2781.4290 484.1201 0.256 -0.528 -0.810 112 50 22
-2264.8945 2792.9341 477.1224 0.256 -0.528 -0.810 100 51 19
-2264.0974 2798.7129 473.6073 0.256 -0.528 -0.810 97 52 19
-2263.2983 2804.5100 470.0814 0.256 -0.528 -0.810 98 52 19
-2255.5862 2850.1948 441.2650 0.955 -0.288 0.077 156 88 45
-2252.4651 2853.6272 437.2478 0.942 -0.330 0.066 176 95 48
-2247.2722 2854.7861 432.8753 0.903 -0.405 0.146 185 91 41
-2209.5044 2819.9675 423.0326 0.142 -0.989 -0.040 191 88 34
-2185.4377 2806.8860 412.1371 -0.032 -0.691 -0.722 200 84 30
-2336.6516 3003.8677 422.3112 0.935 -0.107 0.339 186 83 24
-2413.2583 3097.4031 430.6429 0.972 -0.097 0.215 179 81 19
-2532.7844 3255.8704 437.2814 0.935 -0.315 -0.165 225 140 87
-2604.7146 3345.7285 444.0724 0.969 -0.225 0.101 187 106 59
-2261.3074 3312.9514 210.4695 0.313 -0.684 -0.659 27 26 25
-2337.6389 3619.1238 110.6341 -0.710 -0.694 -0.118 94 75 83
-1898.2052 4515.0107 -664.4739 0.696 -0.403 0.595 248 200 194
-1909.5337 4555.4790 -676.7665 0.819 -0.379 0.430 242 191 180
-1903.3792 4558.9297 -683.0035 0.844 -0.310 0.437 226 175 163
-1898.0649 4564.1865 -689.5452 0.844 -0.310 0.437 231 179 167
-1864.9508 4542.8589 -702.8469 0.553 -0.712 0.434 242 189 177
-1828.2794 4513.0361 -714.4272 0.281 -0.888 0.363 229 180 170
-1850.8474 4579.4917 -731.7246 0.204 -0.905 0.374 229 181 170
-1848.4946 4591.3706 -739.4705 -0.612 -0.755 0.234 229 181 170
-1835.5151 4579.7412 -743.0240 -0.612 -0.755 0.234 227 179 168
-1786.6439 4538.9429 -757.9217 0.032 -0.706 -0.707 202 159 149
-1768.1263 4514.2236 -758.8646 0.540 -0.682 -0.494 199 163 155
-1764.9039 4524.0464 -766.2002 0.511 -0.705 -0.492 198 162 155
-1765.7249 4543.1533 -775.3036 0.005 -0.988 -0.155 199 163 157
-1759.0331 4545.1807 -781.2094 0.130 -0.982 -0.138 196 160 154
-1753.9032 4550.7959 -787.7987 -0.115 -0.863 0.491 185 149 143
-1730.8806 4550.0107 -804.1772 0.867 -0.494 -0.064 188 152 146
-1727.7113 4560.2354 -811.6780 0.875 -0.479 -0.064 198 161 156
-1723.6927 4568.5278 -818.8168 0.875 -0.479 -0.064 208 170 165
-1657.4990 4572.1118 -868.8731 0.554 -0.438 -0.708 250 202 198
-1447.5510 4601.2314 -1036.6506 -0.593 -0.714 -0.372 252 202 198
-1235.3301 4971.5703 -1379.3386 0.823 -0.335 0.459 242 151 140
-1159.0785 4805.4922 -1350.5779 0.889 -0.434 0.147 246 143 129
-1024.5210 4643.4233 -1366.3414 0.245 -0.853 0.462 206 50 51
-1028.3862 4711.6138 -1398.1484 0.198 -0.888 0.414 217 32 46
-773.1655 3845.3411 -1144.2812 0.919 -0.243 -0.311 237 23 54
-2873.8188 2651.9910 983.8862 0.598 -0.283 -0.750 152 132 125
