ply
format ascii 1.0
element vertex 802
property float x
property float y
property float z
property float nx
property float ny
property float nz
property uchar diffuse_red
property uchar diffuse_green
property uchar diffuse_blue
end_header
-1136.0961 2536.0615 -943.9813 -0.140 -0.940 0.311 26 8 0
-1319.4316 4078.0984 -1786.8394 -0.206 -0.973 0.107 39 18 11
-1097.4478 3584.2932 -1641.8241 0.310 -0.554 -0.773 148 70 71
-1096.2546 3602.0156 -1654.0353 0.310 -0.554 -0.773 138 67 63
-1095.4861 3621.4631 -1667.0215 0.289 -0.548 -0.785 116 51 45
-868.0050 3259.2080 -1610.0782 0.854 -0.290 0.433 51 30 11
-864.4927 3314.1982 -1647.8229 0.679 -0.370 0.635 62 12 0
-854.8445 3320.4514 -1659.1896 0.672 -0.466 0.575 86 15 7
-849.0081 3319.2073 -1662.8607 0.672 -0.467 0.576 101 14 12
-3038.7253 2939.6902 243.3149 0.665 -0.505 0.551 14 25 17
-3028.4849 2936.3757 237.6117 0.662 -0.514 0.545 14 25 16
-2950.8582 2863.0137 225.2640 0.449 -0.861 0.240 15 25 17
-2941.9534 2860.8784 219.8266 0.474 -0.851 0.227 15 26 17
-2929.9697 2855.5112 214.1057 0.667 -0.742 0.069 16 27 17
-2762.6428 2886.6733 66.2898 0.393 -0.610 0.688 122 65 35
-1848.3395 2061.1924 -103.8524 0.373 -0.643 -0.669 93 47 34
-2759.7566 3336.7078 -224.0574 0.076 -0.786 0.613 180 129 112
-2592.2266 3156.6033 -236.7614 0.160 -0.611 0.775 187 136 119
-2431.8772 3358.1440 -488.3331 0.775 -0.615 0.147 209 147 124
-2344.1768 3238.8745 -478.9856 0.808 -0.583 -0.087 209 147 124
-2228.3960 3106.1228 -482.4636 0.321 -0.691 -0.648 187 125 101
-2251.6104 3190.4534 -518.7182 0.299 -0.609 0.735 193 128 96
-2166.3557 3080.4224 -513.4169 0.308 -0.713 0.631 188 125 95
-2102.3982 2992.2117 -505.8120 -0.128 -0.789 0.601 164 104 75
-2091.4639 2984.9421 -509.5132 -0.146 -0.909 0.389 119 80 51
-1974.0715 2831.6248 -501.0551 0.304 -0.909 -0.286 43 25 6
-2110.1028 3112.0610 -576.6601 0.684 -0.692 0.230 29 35 25
-2105.4856 3114.8555 -581.9774 0.684 -0.692 0.230 36 33 20
-2101.4268 3118.5474 -587.4429 -0.464 -0.878 -0.119 53 37 23
-1697.9545 2508.2285 -504.9919 -0.161 -0.540 0.826 106 51 19
-1178.3326 2514.0684 -905.8026 0.780 -0.563 -0.271 28 10 0
-1156.7633 2553.0398 -947.2371 0.175 -0.902 0.394 31 12 5
-1151.8046 2552.4961 -950.6782 0.175 -0.902 0.394 29 11 4
-1144.9624 2547.2908 -952.5739 0.144 -0.908 0.394 26 8 0
-1126.6344 2833.2271 -1149.6545 0.795 0.018 0.607 40 16 4
-1109.3726 3628.9751 -1672.3357 0.301 -0.462 -0.834 119 52 49
-865.5939 3321.2534 -1661.5967 0.676 -0.478 0.561 51 17 0
-858.7459 3315.7292 -1663.2926 0.668 -0.469 0.578 65 16 2
-802.0773 3234.8418 -1654.8068 0.089 -0.275 0.957 170 8 21
-3368.5764 2735.6948 615.5419 -0.310 -0.927 -0.213 41 26 3
-3357.6462 2732.3738 609.3333 -0.323 -0.915 -0.242 42 27 4
-3089.7627 2822.3447 346.9829 0.775 -0.606 -0.181 91 45 27
-2969.1348 2867.9465 225.5750 0.475 -0.852 0.221 16 17 3
-2963.8279 2869.5784 220.4746 0.475 -0.852 0.221 18 18 5
-2952.1147 2864.5530 214.7642 0.467 -0.857 0.219 24 25 10
-2943.5256 2862.7510 209.3660 0.581 -0.739 -0.342 23 24 9
-2777.7170 2881.3289 70.8443 0.380 -0.594 0.709 108 55 23
-1865.3870 2059.2405 -97.0120 0.738 -0.469 -0.486 48 10 2
-1843.3729 2061.1274 -115.0306 0.603 -0.573 -0.555 165 116 102
-2690.2358 3184.5054 -190.8809 -0.690 -0.679 -0.252 144 93 76
-2707.5425 3251.5679 -220.7907 0.196 -0.725 0.660 188 137 118
-2758.6909 3326.4072 -229.8665 0.075 -0.770 0.634 187 136 117
-2691.7871 3258.8240 -237.4837 0.127 -0.717 0.686 187 136 117
-2325.4937 3201.9109 -480.5121 0.830 -0.557 -0.046 209 147 122
-2239.9712 3104.5898 -483.2213 0.438 -0.745 -0.503 193 131 106
-2113.2229 2990.3228 -506.5051 -0.119 -0.797 0.592 178 118 90
-2104.1199 2985.9067 -510.6150 -0.119 -0.797 0.592 147 91 62
-2004.7821 2861.3945 -506.3865 0.462 -0.687 0.560 44 28 5
-1954.0922 2792.1841 -500.5800 0.201 -0.976 0.083 44 33 15
-1943.0542 2784.0491 -503.7755 0.102 -0.948 -0.303 41 36 20
-2122.6931 3112.3850 -577.7622 0.680 -0.593 0.431 25 38 27
-2115.8088 3111.6016 -582.5137 0.692 -0.591 0.414 30 36 23
-1543.6051 2470.8999 -607.3542 0.895 -0.261 0.361 107 34 2
-1540.6719 2474.4946 -611.9048 0.896 -0.267 0.354 111 38 6
-1316.4178 2435.3291 -757.9138 0.061 -0.720 -0.691 37 18 12
-1314.1073 2440.2666 -762.8526 0.061 -0.720 -0.691 37 19 12
-1161.6311 2554.2852 -952.5652 0.151 -0.926 0.347 22 7 1
-1075.1620 2817.9392 -1188.1046 -0.648 -0.553 -0.523 33 22 13
-955.5573 2739.1292 -1228.7344 0.263 -0.716 0.646 21 14 8
-1117.8306 3617.0569 -1669.3666 0.301 -0.462 -0.834 85 27 23
-1120.2657 3647.7205 -1687.2242 0.301 -0.462 -0.834 78 20 16
-1105.6903 3662.6255 -1707.9351 -0.067 -0.765 -0.641 69 21 11
-857.9668 3314.7603 -1673.3658 0.729 -0.443 0.521 65 14 5
-855.1817 3880.2974 -2039.1337 0.622 -0.274 -0.734 145 47 34
-3372.7532 2745.6621 601.8455 0.925 -0.380 -0.023 45 29 6
-3368.5581 2760.7534 588.9011 0.843 -0.533 -0.077 42 26 3
-3240.1211 2805.4141 462.1135 -0.365 -0.922 -0.127 48 26 4
-3131.2966 2782.2061 394.1082 -0.228 -0.963 -0.142 48 23 5
-2975.5764 2860.6165 224.7202 0.650 -0.559 0.514 36 19 0
-2975.5237 2867.6611 220.1312 0.649 -0.574 0.500 36 19 0
-2958.3650 2864.1465 209.3150 0.466 -0.853 0.234 49 32 13
-2952.9810 2865.6870 204.2144 0.466 -0.853 0.234 49 32 12
-2858.2747 2781.1157 186.6006 0.777 -0.607 0.166 54 32 15
-2790.0803 2880.4214 70.4686 0.162 -0.522 0.838 97 49 18
-2776.4551 2880.2065 60.2164 0.262 -0.561 0.785 112 58 27
-2765.2683 2875.2114 54.9109 0.265 -0.557 0.787 120 63 34
-1566.3201 1685.6470 -91.2810 0.410 -0.495 -0.766 50 15 6
-2765.4373 3326.1545 -236.1521 -0.005 -0.748 0.663 187 136 117
-2579.1833 3158.4417 -269.8941 -0.138 -0.560 0.817 182 135 118
-2178.0259 3060.5088 -512.5851 0.565 -0.797 -0.212 192 134 103
-2112.9368 2980.9893 -510.8745 0.202 -0.760 0.618 158 105 77
-1958.0072 2789.8044 -505.5711 0.239 -0.968 0.081 37 38 19
-2038.4316 2951.4778 -548.6367 0.452 -0.889 -0.079 24 37 27
-1852.7645 2670.3008 -508.6630 0.664 -0.740 -0.105 21 34 21
-1848.4045 2672.1438 -513.1781 0.574 -0.790 -0.216 25 34 20
-1841.6283 2670.1833 -517.0798 0.570 -0.791 -0.222 35 35 21
-1709.3522 2486.1648 -499.1280 -0.456 -0.856 -0.244 91 57 36
-1653.3531 2461.7893 -526.0938 -0.290 -0.486 0.825 118 63 29
-1296.1479 2338.7041 -719.0242 -0.240 -0.861 -0.447 43 26 19
-1072.5327 2768.4116 -1167.0366 -0.132 -0.865 -0.484 43 12 8
-1095.3096 2862.8284 -1210.6353 -0.648 -0.553 -0.523 26 16 8
-935.2855 2785.1177 -1282.4917 0.034 -0.663 -0.748 38 19 12
-863.5822 3224.8003 -1621.0945 0.893 -0.180 0.412 27 19 0
-881.6769 3346.7524 -1686.0444 0.714 -0.451 0.536 35 15 0
-858.9547 3297.6292 -1671.6520 0.700 -0.459 0.547 42 11 1
-943.1663 4360.9795 -2294.0781 0.001 -0.723 -0.691 152 78 57
-3421.4038 2738.2886 633.2119 0.888 -0.405 0.220 58 41 19
-3412.5911 2743.0598 623.4039 0.866 -0.386 0.317 55 38 18
-3410.5657 2747.5046 618.9785 0.878 -0.436 0.196 54 37 17
-3209.1509 2796.4683 433.7787 0.582 -0.813 -0.012 45 26 11
-2828.4619 2743.3413 178.2023 0.849 -0.451 0.275 60 30 11
-2822.3557 2743.8347 173.2303 0.862 -0.430 0.267 68 33 15
-2925.9785 2859.1895 177.3704 0.765 -0.644 -0.014 70 33 14
-2713.9976 2782.0916 65.8690 0.026 -0.989 -0.145 91 46 17
-2712.0876 2787.1753 61.1172 0.040 -0.986 -0.164 91 47 17
-1576.2263 1655.5094 -70.3789 -0.657 -0.751 0.059 152 101 97
-1890.3879 2090.2026 -112.9238 0.455 -0.841 -0.293 88 55 43
-2720.4216 3196.6890 -198.0943 -0.669 -0.679 -0.303 150 97 79
-2733.1553 3239.5796 -216.2066 -0.509 -0.810 -0.293 182 129 111
-2437.8586 3327.5957 -498.2551 0.878 -0.428 -0.215 203 142 113
-2356.0676 3218.2537 -489.6617 0.801 -0.592 -0.093 203 142 112
-2332.0867 3193.0010 -491.5558 0.830 -0.557 -0.046 205 142 112
-2291.2166 3201.7944 -528.3950 0.064 -0.536 0.842 189 131 97
-2266.5078 3174.7185 -529.6613 0.177 -0.629 0.756 185 131 100
-1994.4880 2819.4565 -506.5202 0.251 -0.949 0.190 22 31 15
-2082.9836 3002.2407 -557.6312 0.803 -0.576 0.153 15 31 18
-2041.8859 2947.9272 -553.7206 0.450 -0.892 -0.026 19 30 20
-1792.7629 2593.7061 -513.8102 -0.271 -0.503 0.821 71 44 28
-1733.9327 2517.4609 -509.1869 -0.173 -0.550 0.817 95 57 31
-1666.6881 2467.4746 -528.0021 -0.226 -0.513 0.828 149 98 65
-1656.4812 2459.1455 -530.3770 -0.226 -0.513 0.828 139 88 55
-1519.5343 2395.7109 -593.5742 0.456 -0.580 0.675 101 34 1
-1515.4792 2397.0925 -597.5594 0.451 -0.600 0.661 102 33 1
-1475.3369 2403.0510 -632.0058 0.462 -0.213 0.861 102 33 2
-1142.1255 2823.2866 -1158.3767 0.841 0.006 0.541 25 15 10
-1130.8955 2820.4614 -1165.1002 0.855 0.000 0.518 30 16 12
-1085.8781 2779.2703 -1172.6852 0.042 -0.705 -0.708 37 14 13
-1069.9919 2776.6299 -1183.0758 -0.135 -0.854 -0.502 16 9 5
-1101.6024 2882.3003 -1227.5182 -0.663 -0.552 -0.506 16 10 6
-1130.8766 3580.3745 -1657.9015 0.269 -0.668 -0.694 56 21 11
-1130.4490 3600.2834 -1671.1378 0.278 -0.666 -0.693 52 18 8
-1123.7155 3598.3535 -1675.0161 0.290 -0.667 -0.686 52 19 8
-1143.1748 3710.8464 -1733.1401 0.436 -0.501 -0.748 61 26 16
-884.8139 3338.6948 -1688.6405 0.714 -0.451 0.536 31 13 2
-844.9960 3240.3203 -1655.1820 0.811 -0.501 0.301 29 12 0
-3401.6389 2739.9177 606.6080 0.848 -0.365 0.384 62 44 24
-3369.1392 2761.5095 567.8118 0.777 -0.546 0.314 54 36 16
-3107.6414 2793.1101 348.2120 0.775 -0.587 -0.234 48 24 8
-2989.8301 2765.0352 276.8308 0.578 -0.781 0.235 53 27 10
-3020.2556 2871.4160 230.7101 0.435 -0.573 0.694 43 26 13
-2857.2085 2732.3972 197.1493 0.853 -0.424 -0.304 55 28 9
-2720.8154 2782.6807 60.5976 0.026 -0.989 -0.145 92 45 19
-2718.9189 2787.7769 55.8355 0.040 -0.986 -0.164 88 43 14
-1529.6781 1591.6595 -70.3419 -0.595 -0.652 -0.471 156 101 101
-1894.3599 2089.4636 -116.9679 0.455 -0.841 -0.293 106 75 62
-1861.1188 2054.7993 -119.6930 0.836 -0.497 -0.231 146 99 87
-1854.0774 2051.9517 -123.1977 0.841 -0.542 -0.003 157 105 92
-2605.8005 3166.9998 -277.2134 -0.143 -0.479 0.866 186 134 112
-2016.4116 2862.5969 -527.5540 0.366 -0.926 -0.090 17 31 18
-2011.9225 2864.8452 -532.4348 0.366 -0.926 -0.090 17 31 18
-2082.1411 2991.8967 -561.7308 0.495 -0.862 -0.108 17 32 19
-2069.1626 2981.3594 -564.7464 0.429 -0.843 0.323 21 29 17
-1794.0969 2587.8564 -517.8380 -0.271 -0.503 0.821 78 48 30
-1787.1912 2585.4326 -521.5154 -0.151 -0.469 0.870 89 54 32
-1776.5490 2577.0789 -524.1749 -0.151 -0.469 0.870 97 58 30
-1767.3727 2570.9902 -527.1937 -0.145 -0.467 0.872 106 62 31
-1526.0308 2390.7144 -593.4760 0.456 -0.580 0.675 105 39 6
-1521.0172 2390.4299 -597.1064 0.456 -0.580 0.675 106 40 6
-1145.6019 2820.0408 -1162.5980 0.813 -0.028 0.581 24 15 10
-1079.5945 2762.6963 -1175.4913 0.389 -0.654 -0.649 29 10 10
-1129.2710 3619.8218 -1695.8584 -0.022 -0.986 -0.168 51 19 8
-1119.8174 3608.4045 -1695.6183 -0.212 -0.917 -0.338 59 27 16
-816.2367 3464.6575 -1833.0574 -0.378 -0.647 0.662 127 2 12
-811.2028 3467.9534 -1839.0349 -0.367 -0.659 0.657 122 5 9
-905.0070 4041.1130 -2140.8936 0.613 -0.283 -0.738 138 58 39
-4298.0205 3361.3611 871.2472 0.367 -0.834 0.412 65 46 26
-4284.8677 3357.8313 863.5553 0.430 -0.767 0.476 66 45 26
-3243.2437 2750.5090 468.7581 0.056 -0.911 -0.410 49 26 10
-3237.4663 2770.8923 451.0358 0.254 -0.964 -0.083 48 27 8
-3221.1140 2775.2554 435.7498 0.385 -0.910 -0.153 47 26 7
-3119.4954 2738.8408 382.3014 -0.334 -0.942 -0.034 44 25 8
-3083.4988 2717.7864 368.7015 0.040 -0.972 -0.231 44 25 8
-3078.0247 2719.0496 363.7132 0.045 -0.971 -0.235 48 27 10
-3105.3877 2758.0532 359.0110 0.517 -0.731 -0.446 49 26 8
-3110.1228 2769.1392 355.3614 0.770 -0.591 -0.238 49 26 8
-3108.0205 2773.7285 350.7617 0.770 -0.591 -0.238 44 21 3
-2934.8379 2777.8489 216.3944 0.879 -0.383 0.282 47 31 17
-2992.8552 2850.7659 212.8210 0.793 -0.543 -0.275 57 33 15
-2903.1047 2766.0347 199.9932 0.730 -0.529 -0.433 60 31 13
-2730.6936 2786.6123 55.4499 0.227 -0.955 -0.189 93 46 20
-2726.0405 2788.6855 50.5563 0.227 -0.955 -0.189 86 39 13
-2714.6133 2797.7258 35.9562 0.618 -0.739 0.269 101 48 22
-1841.3285 2014.0034 -115.4924 0.482 -0.608 -0.631 91 61 51
-1833.9619 2021.9619 -126.2978 0.870 -0.382 -0.311 166 114 101
-2367.5259 3206.5212 -495.2736 0.618 -0.553 -0.558 206 141 111
-2339.1870 3175.1433 -496.3001 0.805 -0.573 -0.151 207 142 112
-2067.0500 2894.5349 -519.7035 -0.024 -0.944 0.329 54 26 13
-2053.3040 2910.4241 -540.5455 0.253 -0.955 0.157 21 30 19
-2092.0732 2979.1575 -556.0175 0.475 -0.849 -0.232 21 30 17
-2092.1714 2988.8174 -562.2601 0.478 -0.845 -0.239 18 30 16
-1815.6611 2605.2446 -521.6541 -0.148 -0.459 0.876 69 45 31
-1792.4261 2585.7356 -526.5618 -0.145 -0.451 0.881 89 54 30
-1543.4402 2421.2627 -608.3107 0.779 -0.422 0.465 115 46 13
-1150.9818 2863.9626 -1196.2087 -0.319 -0.891 -0.323 23 8 5
-1110.0046 2821.3689 -1199.5096 -0.070 -0.601 -0.796 20 5 2
-997.4150 4535.0903 -2405.8137 0.507 -0.370 -0.778 146 81 59
-4294.8750 3351.5273 862.4258 0.430 -0.767 0.476 74 56 36
-4286.6255 3352.0471 855.8184 0.430 -0.767 0.476 76 55 36
-4273.3945 3348.4343 848.1417 0.562 -0.700 0.441 78 55 33
-3396.1794 2741.6189 580.3534 0.922 -0.386 0.033 68 50 30
-3403.5283 2791.9358 552.8922 0.406 -0.702 0.584 67 49 29
-3394.9045 2790.7141 547.1443 0.391 -0.696 0.602 66 49 29
-3311.7671 2761.4907 503.1886 -0.338 -0.937 0.090 64 47 29
-3243.5898 2770.2007 445.6853 0.225 -0.970 -0.093 53 34 17
-3241.3018 2781.0298 436.8361 0.328 -0.915 -0.233 53 34 17
-3233.7136 2780.5364 431.3967 0.390 -0.909 -0.147 52 33 16
-3229.4932 2783.1416 426.4800 0.390 -0.909 -0.147 50 31 14
-3215.7429 2789.9756 411.5482 -0.175 -0.871 0.459 50 31 16
-3168.0293 2765.0742 391.6603 -0.243 -0.963 0.119 49 30 15
-3157.4653 2761.6921 385.8575 -0.243 -0.963 0.119 49 30 15
-3131.9214 2757.2161 369.3952 0.598 -0.746 -0.292 48 29 12
-3126.2935 2758.4277 364.3250 0.537 -0.761 -0.363 49 28 11
-2737.2075 2794.0154 45.4271 0.274 -0.923 -0.270 84 39 10
-1846.4971 2020.4969 -123.1378 0.477 -0.627 -0.616 143 112 99
-2522.3667 3410.7087 -522.7354 -0.368 -0.918 -0.145 204 141 113
-2370.7036 3201.8840 -500.7952 0.608 -0.564 -0.559 202 139 108
-2343.9087 3172.8269 -502.0656 0.805 -0.572 -0.160 201 136 106
-2296.0312 3112.9424 -499.1045 0.774 -0.614 -0.151 198 133 103
-2271.7424 3087.0901 -500.5757 0.711 -0.698 -0.081 185 122 89
-2064.3933 2891.0466 -529.3248 0.007 -0.958 -0.286 31 23 11
-1825.9131 2604.8286 -522.5019 -0.143 -0.462 0.875 58 42 31
-1659.8671 2433.4744 -536.0930 -0.046 -0.629 0.776 147 97 64
-1576.9698 2387.2554 -568.7051 0.570 -0.324 0.755 103 44 12
-1544.5942 2415.3516 -611.7464 0.779 -0.422 0.465 117 48 15
-1433.0992 2389.0469 -679.1575 -0.570 -0.638 0.518 37 13 9
-1345.9490 2384.9846 -742.6843 0.026 -0.898 -0.439 50 36 27
-1391.3182 2492.9395 -779.1180 -0.345 -0.727 -0.594 37 22 15
-1141.5591 2797.6482 -1168.9227 0.816 -0.028 0.577 20 11 6
-1134.9758 2793.5376 -1171.2235 0.815 -0.029 0.579 18 10 5
-1156.4784 2866.0513 -1202.5110 -0.323 -0.890 -0.322 14 7 1
-1150.8008 2864.6836 -1205.9253 -0.316 -0.890 -0.329 14 7 1
-1022.5175 3046.1252 -1422.5145 0.802 -0.579 0.148 29 14 6
-1039.2440 3369.4670 -1622.1479 0.198 -0.823 0.533 59 30 16
-1027.2192 3367.7937 -1630.1825 0.403 -0.827 0.392 58 29 15
-4294.1172 3343.6897 854.1539 0.405 -0.774 0.486 74 56 36
-4281.7432 3340.7981 846.6718 0.562 -0.700 0.441 76 55 36
-4274.8184 3342.3918 840.3660 0.562 -0.700 0.441 78 55 33
-3321.4597 2763.9263 498.4464 -0.283 -0.953 0.108 63 47 31
-3310.7351 2760.7026 492.4346 -0.278 -0.954 0.110 64 47 31
-3303.8064 2760.8555 487.0765 -0.266 -0.921 0.283 64 47 31
-3265.9385 2752.2405 464.0244 0.031 -0.868 -0.496 62 43 28
-3220.9302 2788.4109 406.0212 -0.180 -0.880 0.440 54 37 21
-3241.1680 2813.7566 404.6630 -0.008 -0.998 0.059 53 36 20
-3187.9612 2770.8181 392.6065 -0.282 -0.949 0.137 53 35 21
-3181.4045 2771.2180 387.3677 -0.288 -0.957 -0.035 53 35 21
-3154.0811 2798.1140 348.8991 0.002 -0.977 -0.215 55 32 16
-2740.0891 2804.6531 30.4608 0.209 -0.956 -0.205 88 40 10
-1573.5334 1648.4901 -92.2702 -0.599 -0.643 -0.477 84 66 53
-1845.0060 1996.6276 -115.8599 0.845 -0.212 -0.491 78 54 47
-1842.5841 1999.2643 -119.4363 0.751 -0.231 -0.618 85 61 54
-2619.9980 3168.7139 -300.7377 0.064 -0.492 0.868 186 134 113
-2461.9355 3059.4656 -348.6286 0.320 -0.938 0.131 197 140 126
-2457.1240 3070.8064 -359.7580 0.127 -0.953 0.275 198 141 126
-2429.9937 3061.1067 -373.9473 0.542 -0.826 -0.154 199 143 126
-2414.6731 3058.2620 -383.6963 0.238 -0.966 0.101 202 146 129
-2347.6194 3020.2043 -409.4782 0.197 -0.958 -0.208 205 148 129
-2276.3994 3075.4905 -499.9759 0.715 -0.698 0.051 187 124 93
-2107.3896 2975.2859 -562.1373 -0.344 -0.844 0.411 21 16 12
-1815.1600 2580.2744 -523.3867 -0.018 -0.482 0.876 76 60 50
-1550.5681 2409.3298 -611.4244 0.795 -0.508 0.331 112 46 13
-1545.7443 2409.4600 -615.1703 0.779 -0.422 0.465 115 46 13
-1529.5348 2390.0156 -614.6473 0.538 -0.554 0.635 114 45 12
-1401.6443 2504.3469 -787.0820 -0.345 -0.727 -0.594 28 13 6
-1395.7976 2512.1467 -796.6618 0.015 -0.999 -0.049 28 13 6
-1077.4204 3323.5750 -1573.3268 0.363 -0.723 0.588 64 30 20
-1059.6053 3341.4651 -1598.6418 0.461 -0.445 -0.768 62 30 19
-1041.8696 3360.1943 -1624.4500 0.195 -0.829 0.524 56 24 11
-1024.3846 3338.8740 -1623.6576 0.211 -0.834 0.510 53 23 12
-1018.6072 3338.6965 -1627.9243 0.441 -0.753 0.488 53 23 12
-1012.5737 3337.5696 -1631.7593 0.351 -0.860 0.372 53 23 12
-792.9944 3163.0364 -1683.2760 0.426 -0.766 -0.482 128 0 12
-4283.1572 3334.7693 838.9051 0.562 -0.700 0.441 76 55 36
-3300.0566 2713.7302 504.9532 0.691 -0.488 0.534 66 49 29
-3273.6487 2752.9739 458.9493 0.030 -0.869 -0.494 67 45 30
-3269.8655 2827.3127 406.8557 -0.233 -0.972 -0.035 62 42 27
-3264.4578 2828.9219 401.6910 -0.084 -0.995 -0.053 61 41 27
-3183.4807 2799.5862 359.7358 0.202 -0.908 -0.368 61 40 25
-2987.5542 2646.3477 312.6949 -0.056 -0.933 0.355 60 37 21
-3028.0479 2824.3030 225.5500 0.750 -0.624 0.220 47 28 13
-2759.6111 2819.1042 25.5165 0.278 -0.907 -0.316 88 40 10
-2751.1157 2817.0378 20.4453 0.218 -0.920 -0.325 92 39 11
-2668.6895 2761.9951 -5.5859 0.203 -0.975 -0.091 153 82 64
-2640.1084 2737.3105 -10.9046 0.502 -0.849 -0.164 150 83 67
-1613.4132 1636.0620 -59.9147 0.171 -0.805 -0.567 156 96 88
-1849.3215 1990.9830 -116.1182 0.856 -0.199 -0.477 79 54 44
-1843.9440 1995.5931 -123.2471 0.887 -0.108 -0.449 101 75 66
-2481.6414 3042.0168 -332.7948 0.242 -0.970 0.037 184 124 111
-2476.5173 3044.0146 -338.0016 0.258 -0.965 0.054 185 122 110
-2476.0771 3052.2007 -343.7561 0.295 -0.948 0.122 186 123 111
-2472.1145 3055.7585 -349.1158 0.297 -0.946 0.132 189 127 114
-2466.4937 3057.1255 -354.2815 0.320 -0.938 0.131 194 134 121
-2419.6060 3056.4546 -389.3785 0.238 -0.966 0.101 196 140 123
-2372.8125 3055.4595 -424.1891 0.077 -0.994 -0.080 205 148 129
-2361.7507 3067.4138 -440.4897 0.376 -0.923 0.084 203 146 127
-2354.3833 3066.2861 -445.3278 0.371 -0.924 0.098 203 146 127
-2307.2966 3036.7373 -461.4527 -0.112 -0.986 -0.123 200 140 114
-2295.0071 3037.6438 -471.3685 0.010 -0.974 -0.227 202 142 116
-1807.8392 2561.1494 -525.1168 -0.005 -0.414 0.910 105 85 76
-1582.5870 2430.7168 -609.4886 0.908 -0.258 0.330 101 40 9
-1553.6091 2398.3738 -610.0369 0.903 -0.314 0.294 103 40 8
-1552.2371 2404.3591 -615.0403 0.795 -0.508 0.331 113 47 14
-1546.8904 2403.5884 -618.5828 0.779 -0.422 0.465 113 47 13
-1489.8962 2432.0889 -680.6570 0.503 -0.838 0.211 65 27 2
-1372.5381 2374.2515 -731.3160 0.225 -0.736 -0.638 28 14 5
-1066.4163 3288.1025 -1568.4948 0.640 -0.674 -0.369 68 34 24
-1071.7875 3325.8079 -1589.3912 0.489 -0.436 -0.755 68 36 25
-1053.0238 3360.6758 -1626.7032 0.160 -0.821 0.548 62 32 18
-1028.4884 3334.9961 -1628.2964 0.211 -0.834 0.510 47 17 6
-1022.4190 3333.7686 -1632.0841 0.441 -0.753 0.488 47 18 6
-940.8594 4098.7866 -2200.4890 0.668 -0.255 -0.699 145 63 44
-3370.5833 2847.0029 459.3835 0.249 -0.892 -0.377 74 50 32
-3327.5359 2827.6921 439.6269 0.356 -0.882 0.308 72 50 31
-3321.1248 2828.4150 434.2914 0.356 -0.882 0.308 72 50 31
-3299.3357 2834.8137 413.5374 0.269 -0.962 0.039 69 47 28
-3293.6506 2836.1951 408.3140 0.269 -0.962 0.039 69 46 28
-3286.1394 2835.8899 402.8291 -0.069 -0.995 -0.077 68 46 28
-3267.7214 2825.4871 395.7997 -0.101 -0.992 -0.073 68 45 28
-3214.6240 2789.4106 379.5807 -0.282 -0.959 -0.005 68 46 29
-3201.6619 2790.4453 369.0772 0.058 -0.995 -0.082 67 45 28
-3102.6704 2864.0696 245.1628 0.686 -0.112 0.719 52 26 7
-2820.4309 2709.1311 134.4644 0.042 -0.796 0.604 63 31 10
-2777.8354 2832.0588 20.4716 0.211 -0.838 -0.504 88 40 13
-2751.9729 2810.9954 14.8933 0.225 -0.823 -0.521 91 39 12
-2690.0525 2771.6135 -5.8088 -0.217 -0.970 0.109 148 79 61
-2677.5920 2764.9802 -10.8337 0.222 -0.969 -0.110 150 83 66
-2486.7515 3040.4280 -338.4975 0.202 -0.974 0.105 197 135 120
-2484.1365 3045.7219 -343.9976 0.246 -0.968 0.054 198 133 118
-2480.7468 3050.0156 -349.4195 0.295 -0.948 0.122 199 134 120
-2476.7432 3053.5137 -354.7771 0.297 -0.946 0.132 195 131 117
-2473.1377 3057.5500 -360.1911 0.306 -0.941 0.143 188 126 113
-2383.2075 3061.2092 -430.7225 -0.058 -0.994 -0.094 205 148 128
-2378.9211 3064.3682 -436.0687 -0.177 -0.982 0.070 201 144 124
-2366.6235 3065.5400 -446.1599 0.167 -0.980 -0.109 197 140 120
-2352.1892 3082.0923 -468.0963 0.002 -0.999 -0.039 200 140 114
-2343.2847 3078.8066 -472.6543 -0.075 -0.995 -0.071 201 140 112
-2319.2925 3063.3901 -480.5712 0.361 -0.923 -0.132 202 141 113
-2157.5134 2967.6250 -539.3987 0.425 -0.889 -0.172 83 39 17
-2091.0952 2923.7500 -560.5192 -0.180 -0.927 0.330 26 14 8
-2092.4817 2935.0815 -567.0040 -0.177 -0.978 0.105 28 13 9
-1798.5931 2531.0042 -520.8640 -0.329 -0.458 0.826 102 81 71
-1492.8798 2429.2781 -684.7200 0.503 -0.838 0.211 54 22 1
-1653.0087 2755.0996 -780.1129 0.741 -0.485 -0.465 26 16 5
-1382.7361 2385.3623 -738.9237 -0.146 -0.815 -0.560 27 14 5
-1380.1866 2389.5007 -743.6061 0.104 -0.823 -0.558 28 14 5
-1361.5431 2389.8945 -757.9854 0.298 -0.947 -0.119 41 28 19
-1072.9563 3351.3762 -1615.8289 0.826 -0.489 -0.279 63 33 22
-1047.3192 3302.6050 -1602.8127 -0.134 -0.972 -0.194 60 32 18
-1054.4492 3347.3523 -1627.1674 0.180 -0.838 0.515 61 33 19
-1042.1903 3344.7830 -1634.7421 0.183 -0.846 0.502 40 12 1
-1032.5874 3331.1221 -1632.9301 0.211 -0.834 0.510 40 13 1
-3302.7170 2811.7954 420.7704 0.421 -0.881 -0.217 78 52 31
-3014.7710 2653.5908 308.5788 0.121 -0.981 0.150 70 48 26
-2788.6453 2836.8530 15.1637 0.282 -0.814 -0.508 87 36 13
-2776.5374 2830.9048 9.9761 0.178 -0.835 -0.520 88 36 12
-1782.5889 1890.9408 -114.3212 0.822 -0.177 -0.541 78 52 38
-2393.6128 3066.9319 -437.2813 -0.177 -0.982 0.070 198 141 121
-2392.6445 3083.7976 -449.2746 -0.025 -0.959 0.283 187 130 110
-2373.9856 3067.1135 -452.2498 0.159 -0.984 -0.076 186 129 109
-2365.6021 3064.5996 -456.9131 0.208 -0.949 0.237 188 131 110
-2331.0520 3080.5520 -493.7000 0.033 -0.999 0.007 200 139 111
-2304.8315 3080.4763 -513.4843 0.004 -0.999 -0.035 189 124 97
-2197.4963 2990.0754 -534.3213 -0.417 -0.733 0.537 159 108 79
-2154.6135 2973.0959 -555.4239 0.355 -0.918 -0.175 40 6 1
-2082.8005 2902.6199 -562.6928 0.464 -0.884 0.051 28 14 5
-1864.3867 2607.3188 -530.7503 -0.403 -0.477 0.781 49 33 24
-1835.2178 2571.1580 -528.6718 -0.244 -0.432 0.868 78 59 50
-1799.8174 2525.2344 -524.7890 -0.335 -0.466 0.819 110 83 69
-1756.9135 2491.5283 -534.7397 -0.385 -0.414 0.825 71 32 6
-1538.3623 2398.4336 -637.9089 0.380 -0.598 0.706 107 42 10
-1473.4954 2352.7000 -656.4431 0.677 -0.650 -0.345 91 30 4
-1469.9412 2354.8176 -660.5458 0.559 -0.723 -0.405 88 30 4
-1365.5548 2389.1965 -762.4641 0.298 -0.947 -0.119 32 19 10
-1055.6201 3313.4075 -1613.9888 -0.142 -0.962 -0.235 54 30 16
-1058.3406 3342.7026 -1631.4904 0.277 -0.824 0.494 52 27 14
-1053.9670 3347.5610 -1638.0426 0.240 -0.900 0.365 44 18 5
-1043.3960 3330.7048 -1634.7848 0.332 -0.853 0.403 43 17 4
-901.6022 3797.5444 -2053.7427 0.648 -0.276 -0.710 124 52 35
-4335.0381 3363.0857 820.6557 0.339 -0.477 0.810 89 62 45
-3426.4224 2712.8149 569.9754 -0.144 -0.771 -0.621 83 58 38
-3422.1284 2715.2554 565.0943 -0.091 -0.878 -0.470 83 58 38
-3209.8604 2798.4207 348.9294 0.132 -0.758 -0.639 75 51 27
-2917.9172 2617.8806 249.3476 0.931 -0.075 0.357 71 48 25
-2913.6401 2620.0464 244.6633 0.588 -0.409 0.698 70 48 25
-2828.2991 2724.4766 110.1598 0.199 -0.979 0.037 68 47 26
-2822.5225 2738.9597 96.0848 0.317 -0.817 -0.482 72 46 24
-2780.8479 2715.8955 80.0540 -0.040 -0.961 -0.272 79 44 22
-2794.7234 2836.4644 9.7080 0.699 -0.711 0.079 89 34 14
-2774.3948 2828.8264 -0.5334 -0.450 -0.842 0.297 95 40 20
-2751.6868 2811.2124 -5.8851 -0.461 -0.838 0.292 104 49 29
-2659.9539 2745.9377 -31.4457 0.424 -0.896 -0.134 143 83 72
-1689.6101 1709.7357 -70.0379 0.173 -0.933 -0.315 143 96 82
-1659.9832 1717.8821 -97.8883 -0.429 -0.880 -0.204 72 57 53
-1619.2683 1684.5117 -106.2840 -0.376 -0.825 -0.422 73 59 51
-1839.6152 1958.3966 -123.3870 0.869 -0.123 -0.480 77 46 29
-1828.1016 1950.1840 -126.5819 0.840 -0.172 -0.515 96 59 45
-2380.5627 3067.5833 -458.2166 0.162 -0.983 -0.084 184 126 104
-2372.0254 3064.8743 -462.8520 0.197 -0.950 0.241 185 126 103
-2323.4800 3088.9314 -515.6658 0.712 -0.627 -0.315 177 111 87
-2162.3433 2975.8179 -561.6020 0.411 -0.902 -0.130 47 15 3
-2145.4050 2959.9431 -563.7595 0.223 -0.828 0.514 46 15 3
-1801.4124 2520.0537 -528.8021 -0.336 -0.471 0.815 124 85 59
-1757.4574 2484.7922 -538.3786 -0.385 -0.414 0.825 82 33 3
-1741.5767 2468.2441 -539.2853 -0.387 -0.415 0.823 85 35 4
-1475.7800 2382.6602 -682.7688 0.510 -0.624 -0.592 30 12 4
-1474.3523 2388.6731 -687.8790 0.510 -0.624 -0.592 25 12 6
-1400.5529 2402.4551 -752.8884 -0.146 -0.839 -0.525 31 21 12
-1410.3062 2430.0068 -763.9892 0.813 -0.467 -0.347 35 25 16
-1388.2544 2397.1375 -758.6172 -0.169 -0.837 -0.521 35 25 16
-1384.4357 2398.8948 -762.6811 -0.169 -0.837 -0.521 30 20 11
-1371.9233 2383.9714 -762.1316 0.183 -0.975 -0.130 24 14 5
-1367.3202 2384.1665 -765.7411 0.183 -0.974 -0.130 19 9 0
-1089.2917 3371.1335 -1637.5264 -0.106 -0.964 -0.246 65 37 26
-1079.2720 3356.8450 -1635.5189 -0.150 -0.970 -0.193 59 36 22
-4359.8306 3361.4766 827.5045 0.394 -0.435 0.810 94 70 57
-3429.8640 2728.0518 551.8525 -0.144 -0.771 -0.621 83 56 37
-3426.4045 2731.2358 547.0976 -0.144 -0.771 -0.621 83 56 37
-3331.9756 2717.4626 485.0827 0.006 -0.977 -0.212 82 53 35
-2997.0962 2469.7849 399.0033 -0.239 -0.970 0.037 81 53 32
-3158.5110 2877.8652 246.1530 0.625 -0.719 0.305 68 46 23
-3161.6653 2887.8799 241.7927 0.634 -0.722 0.276 70 48 25
-2833.4502 2723.2305 104.8523 0.199 -0.979 0.037 75 54 33
-2819.3210 2742.7141 81.0703 0.114 -0.907 0.405 77 45 24
-2784.1775 2832.5061 -5.9052 -0.465 -0.835 0.293 94 39 19
-2761.0535 2814.4958 -11.2382 -0.461 -0.838 0.292 104 49 29
-1699.4910 1711.8287 -70.3570 0.342 -0.930 -0.139 139 89 79
-1648.0657 1708.9380 -107.2332 -0.511 -0.797 -0.323 65 51 48
-1767.1290 1857.7321 -117.5127 -0.192 -0.956 0.223 70 53 36
-1818.1041 1927.9432 -126.2943 0.675 -0.679 0.288 78 50 32
-2396.7805 3072.2227 -459.7286 -0.145 -0.950 -0.276 190 132 110
-2181.4629 2967.6343 -551.8712 0.289 -0.956 -0.059 52 20 9
-2173.8035 2965.5774 -556.2687 0.399 -0.907 -0.131 55 23 12
-2171.3289 2971.1333 -561.8770 0.423 -0.897 -0.128 52 20 7
-2148.9458 2956.4966 -568.9216 0.274 -0.797 0.538 52 22 8
-1798.3562 2507.8162 -531.5530 -0.329 -0.472 0.818 129 88 60
-1749.9760 2465.7256 -539.7424 -0.014 -0.425 0.905 91 40 9
-1738.3754 2455.7874 -541.8098 -0.070 -0.471 0.879 90 39 10
-1724.0459 2441.5520 -543.0447 -0.132 -0.448 0.884 98 47 16
-1512.3195 2388.1294 -666.9193 -0.487 -0.759 0.432 104 39 11
-1482.7263 2387.0264 -688.5174 0.612 -0.544 -0.574 29 13 6
-1482.0874 2394.4473 -693.9952 0.632 -0.542 -0.555 26 13 7
-1410.0762 2412.0623 -760.2159 0.831 -0.478 -0.285 31 21 12
-1119.4042 3454.9282 -1681.6719 -0.169 -0.954 -0.247 64 37 26
-1057.4192 4598.5693 -2498.3257 0.667 -0.266 -0.696 137 80 53
-4353.9399 3349.4805 818.2009 0.394 -0.435 0.810 99 74 62
-3340.0984 2718.4900 480.1067 0.006 -0.977 -0.212 84 55 37
-3333.1475 2718.6062 474.7860 0.025 -0.977 -0.213 83 54 36
-3327.5049 2719.8628 469.6814 0.025 -0.977 -0.213 85 54 36
-3188.0103 2892.8774 247.5385 0.330 -0.694 0.640 69 47 24
-3155.6846 2882.2334 230.3545 0.628 -0.731 0.269 75 50 28
-3094.0837 2856.3892 201.3667 0.347 -0.721 0.600 75 53 30
-3037.4856 2820.9712 182.6227 0.596 -0.524 0.608 76 54 31
-2765.1143 2811.9634 -16.6978 -0.473 -0.845 0.250 104 49 29
-2757.6277 2811.0120 -21.7008 -0.447 -0.852 0.273 117 61 44
-1784.0864 1862.4073 -114.7226 -0.087 -0.996 -0.017 59 47 43
-1783.0106 1871.3846 -121.6018 0.504 -0.580 0.640 63 46 29
-1802.7922 1899.6804 -125.8091 0.615 -0.602 0.508 62 40 17
-1776.5883 1874.1600 -128.3212 0.509 -0.579 0.637 81 53 35
-2406.2102 3076.5525 -466.2050 -0.147 -0.943 -0.299 196 138 114
-2396.8733 3072.8206 -470.7238 -0.140 -0.943 -0.302 196 138 114
-2272.6599 3017.4712 -526.9881 -0.118 -0.910 0.397 137 75 53
-2264.1340 3014.4502 -531.3759 -0.118 -0.910 0.397 119 66 40
-2254.2051 3009.3901 -535.4438 -0.178 -0.920 0.349 113 66 36
-2186.5588 2966.4368 -557.4264 0.289 -0.956 -0.059 54 22 11
-2178.7639 2964.1934 -561.7886 0.399 -0.907 -0.131 58 26 13
-2160.4163 2955.5793 -569.8031 0.253 -0.785 0.565 59 27 14
-1976.5128 2735.7310 -559.8955 -0.336 -0.450 0.828 57 28 9
-1914.1853 2650.6611 -549.3999 -0.372 -0.490 0.789 70 41 22
-1858.3420 2574.8511 -540.2731 -0.376 -0.473 0.796 97 67 46
-1799.4166 2501.8845 -535.3927 -0.343 -0.491 0.801 132 88 61
-1751.7988 2461.0474 -543.7012 -0.069 -0.908 0.413 96 45 14
-1737.8638 2447.5356 -545.0776 -0.070 -0.498 0.864 93 44 14
-1701.2333 2414.5020 -550.3747 -0.463 -0.586 0.666 104 51 16
-1491.4572 2377.5291 -683.5869 0.609 -0.534 -0.586 68 25 15
-1487.1741 2386.9407 -693.1785 0.612 -0.544 -0.574 29 13 7
-1487.3241 2395.7456 -699.0167 0.601 -0.558 -0.572 26 13 7
-1092.1992 3345.3010 -1638.8177 0.888 -0.367 -0.275 65 38 29
-1072.7208 3318.5288 -1635.4117 -0.126 -0.976 -0.177 52 28 16
-1066.9894 3318.5825 -1639.7704 -0.126 -0.976 -0.177 47 23 11
-883.3713 3478.8923 -1886.6016 -0.281 -0.605 -0.745 83 10 5
-884.0594 3586.2043 -1958.6163 -0.342 -0.865 -0.366 98 28 19
-4348.0820 3337.5496 808.9478 0.394 -0.435 0.810 106 80 68
-3435.0181 2702.1995 552.2526 -0.297 -0.643 -0.706 91 64 45
-3432.3645 2706.0100 547.6674 -0.297 -0.643 -0.706 90 63 44
-3346.1174 2730.0627 466.3669 -0.386 -0.866 -0.317 95 64 46
-3158.4912 2885.1699 219.7480 0.409 -0.736 0.540 78 56 33
-3148.2949 2882.1494 214.1162 0.422 -0.736 0.529 78 56 33
-3141.3489 2882.2974 208.7827 0.422 -0.736 0.529 78 56 33
-3127.7566 2889.8623 193.4086 0.391 -0.726 0.567 78 56 33
-2774.5049 2709.9214 49.3953 0.068 -0.950 0.304 70 38 17
-2800.6431 2836.4192 -16.7620 -0.155 -0.971 -0.181 89 34 14
-2758.1707 2811.8701 -32.0994 -0.509 -0.763 0.399 120 64 48
-1679.0159 1666.3781 -67.7094 -0.109 -0.984 -0.138 154 96 87
-1707.2638 1711.6885 -77.1785 0.283 -0.907 -0.311 98 60 62
-1788.1094 1872.4075 -125.3452 0.513 -0.565 0.647 59 41 26
-2411.6450 3075.3892 -472.0051 0.446 -0.703 0.553 198 140 118
-2344.3596 3073.5442 -521.4443 0.029 -0.864 0.502 194 129 100
-2185.9822 2956.9780 -561.6534 -0.115 -0.917 0.382 45 13 8
-2163.2322 2951.0786 -574.7891 0.253 -0.785 0.565 62 28 16
-2001.4792 2756.2656 -564.4382 0.751 -0.217 0.624 63 28 9
-1878.4222 2589.1506 -543.7321 -0.374 -0.468 0.801 82 45 29
-1859.6581 2569.1406 -544.2885 -0.376 -0.473 0.796 100 64 46
-1816.6904 2512.4949 -538.2161 -0.250 -0.490 0.835 115 77 57
-1799.5924 2494.6387 -538.9791 -0.352 -0.519 0.779 119 74 47
-1721.7336 2423.1492 -549.1188 0.367 -0.823 0.433 95 46 16
-1587.7751 2329.2324 -586.3027 -0.314 -0.651 0.691 103 44 10
-1516.4336 2379.5850 -674.2222 0.700 -0.580 -0.418 101 40 10
-1519.5105 2401.7297 -686.9330 -0.006 -0.956 -0.293 85 35 16
-1512.9744 2398.8181 -689.8812 0.001 -0.954 -0.299 76 31 16
-1501.1836 2395.1626 -696.2833 0.118 -0.944 -0.308 56 23 13
-1496.6633 2395.7273 -700.0720 0.609 -0.783 -0.129 28 12 6
-1495.8767 2402.8875 -705.5239 0.614 -0.782 -0.108 25 11 8
-1027.3843 2971.8230 -1444.5916 0.707 -0.301 -0.640 29 9 3
-1069.1589 3308.2419 -1641.4342 0.163 -0.888 -0.429 46 24 11
-894.8690 3557.5754 -1941.9539 -0.147 -0.621 -0.770 79 11 6
-894.9728 3584.3118 -1960.0206 -0.163 -0.602 -0.781 94 27 20
-4212.8369 3234.9062 764.1992 0.322 -0.472 0.821 104 77 60
-3425.5527 2761.7939 494.0682 -0.401 -0.709 -0.580 94 67 46
-3195.8350 2886.9788 235.8784 0.323 -0.645 0.693 76 56 32
-3178.6704 2884.1982 224.8549 0.394 -0.713 0.579 78 56 33
-2888.6707 2767.1279 86.3722 0.367 -0.474 0.800 86 65 44
-2801.6235 2731.7534 44.9645 0.258 -0.953 0.159 70 38 17
-2808.8013 2838.2673 -22.2134 0.069 -0.929 0.365 88 33 12
-2796.6328 2832.3240 -27.3217 0.066 -0.940 0.334 93 38 17
-2784.9834 2826.9099 -32.3998 -0.504 -0.743 0.440 107 52 31
-1731.4166 1720.4045 -71.3354 -0.530 -0.683 0.503 152 95 86
-1630.4025 1638.7509 -91.7196 0.191 -0.946 -0.263 62 57 53
-1710.1113 1757.5187 -112.6600 -0.508 -0.847 -0.154 61 47 46
-1800.8199 1877.1238 -125.8924 0.315 -0.414 0.854 45 31 24
-2361.4355 3070.3491 -517.0475 0.267 -0.837 0.478 198 133 103
-2354.4668 3069.7947 -521.9143 0.267 -0.837 0.478 191 126 96
-2217.5544 2939.8538 -536.4123 0.203 -0.892 -0.404 145 100 67
-2213.5811 2943.1221 -541.6298 0.203 -0.892 -0.404 129 90 59
-2213.7446 2952.3364 -547.7854 0.131 -0.902 -0.412 97 61 33
-2206.5388 2960.0295 -558.4507 -0.223 -0.890 0.398 49 17 3
-1876.1075 2577.9866 -546.8069 -0.376 -0.473 0.796 86 44 32
-1816.5127 2504.7119 -541.7282 -0.249 -0.497 0.831 99 56 41
-1740.4742 2436.7114 -552.6189 -0.274 -0.586 0.763 95 46 16
-1730.9358 2429.9253 -555.1735 0.361 -0.830 0.425 96 45 14
-1714.8693 2413.0315 -555.7537 0.298 -0.505 0.810 96 46 14
-1712.1216 2416.6130 -560.2620 -0.385 -0.564 0.731 98 45 10
-1568.0499 2313.3594 -598.3331 0.512 -0.608 0.607 93 34 2
-1510.0819 2394.3276 -697.1331 0.118 -0.944 -0.308 61 22 11
-1028.5269 2960.3335 -1445.2382 0.797 -0.315 -0.515 27 7 0
-884.8170 3464.9758 -1897.2649 0.581 -0.707 0.404 69 8 0
-4245.9082 3240.6846 772.5883 0.331 -0.470 0.818 94 71 56
-4232.7207 3237.0525 765.1583 0.331 -0.470 0.818 92 72 52
-3363.0129 2726.4146 460.6411 -0.179 -0.969 -0.170 93 64 46
-3357.6206 2727.9199 455.5570 -0.212 -0.969 -0.129 93 64 46
-3199.2383 2876.6599 234.7171 0.130 -0.701 0.701 77 55 32
-3194.0974 2878.5906 229.5311 0.334 -0.642 0.690 77 55 32
-2804.4351 2728.0657 39.5530 0.243 -0.963 0.119 70 38 17
-2812.9775 2835.7927 -27.7273 0.069 -0.929 0.365 88 33 13
-2800.9900 2830.0618 -32.8190 0.066 -0.940 0.334 94 39 19
-2793.5906 2829.2803 -37.8476 -0.498 -0.739 0.455 107 51 32
-1636.6758 1637.1040 -92.0139 0.609 -0.767 -0.201 64 55 61
-1798.6433 1869.6969 -129.3725 0.315 -0.424 0.849 46 32 25
-2321.7012 3006.4375 -513.8351 -0.119 -0.891 0.439 198 133 103
-2316.1023 3007.6223 -518.8552 -0.104 -0.883 0.458 192 127 97
-2008.2708 2732.9585 -562.3790 0.618 -0.362 0.698 68 22 8
-1887.5137 2579.1992 -547.9720 0.542 -0.385 0.747 82 35 25
-1872.2458 2564.5691 -549.4415 0.244 -0.435 0.866 89 42 32
-1833.3744 2514.5474 -544.4433 -0.244 -0.495 0.834 95 49 37
-1819.5123 2501.7292 -546.0956 -0.245 -0.493 0.835 102 55 40
-1776.0070 2459.8608 -550.1598 0.053 -0.980 0.193 102 49 17
-1723.3417 2426.5474 -566.9635 -0.431 -0.574 0.696 98 45 10
-1027.6681 2942.5955 -1443.0565 0.794 -0.307 -0.525 27 7 1
-1055.4417 3153.0957 -1566.1918 0.564 -0.378 0.734 61 34 24
-897.7517 3473.1504 -1903.7183 -0.459 -0.826 -0.327 66 11 0
-887.7957 3455.3074 -1898.9960 0.581 -0.705 0.407 66 10 0
-880.0884 3446.9592 -1899.0792 0.331 -0.857 0.394 70 15 5
-876.6140 3456.9839 -1908.5498 0.456 -0.725 0.516 86 32 21
-4250.0698 3237.1018 765.6071 0.671 -0.336 0.662 85 65 53
-2813.0298 2730.4180 34.3484 0.212 -0.969 0.130 70 38 17
-2846.7615 2857.9604 -27.9279 -0.252 -0.963 -0.098 89 33 17
-2824.4004 2841.1367 -33.1659 0.109 -0.993 0.054 88 32 16
-2803.4077 2825.7034 -38.3313 0.100 -0.940 0.327 94 38 23
-1782.0787 1845.7083 -132.2404 0.306 -0.432 0.848 52 31 23
-1788.8240 1858.5513 -135.9964 0.300 -0.431 0.851 62 39 21
-1762.9475 1843.7269 -145.2483 -0.175 -0.978 -0.110 105 69 50
-2290.4824 2972.3682 -524.3168 -0.133 -0.908 0.398 185 122 91
-2126.5193 2863.0537 -572.3736 -0.125 -0.909 0.397 59 30 16
-1961.7627 2656.6033 -554.3025 0.480 -0.362 0.799 66 22 9
-1952.5121 2651.2708 -557.5872 0.616 -0.340 0.711 69 22 7
-1870.5673 2546.4417 -547.1242 0.735 -0.300 0.609 85 34 22
-1820.7577 2480.4084 -539.1752 0.614 -0.328 0.718 93 42 29
-1830.7383 2503.1326 -547.2886 0.546 -0.323 0.773 99 48 34
-1821.2615 2496.8835 -550.1138 -0.248 -0.496 0.832 105 54 35
-1508.4552 2392.5986 -713.4161 0.616 -0.779 -0.114 25 10 6
-4242.3569 3223.9646 756.3148 0.670 -0.332 0.664 57 41 32
-2834.7190 2732.6721 39.0064 0.388 -0.913 0.130 85 53 32
-2829.5674 2734.1636 34.1126 0.388 -0.913 0.130 71 39 18
-2863.1558 2868.5471 -33.3665 -0.345 -0.935 -0.089 85 29 17
-2832.7510 2843.1404 -38.6566 0.097 -0.990 0.102 86 30 18
-2808.8694 2824.6399 -43.8156 0.116 -0.937 0.330 90 34 22
-1691.3268 1676.2825 -90.3120 -0.569 -0.726 0.385 68 53 55
-1768.0466 1829.7280 -138.5763 -0.383 -0.699 -0.604 66 31 13
-1789.0615 1864.1190 -146.5273 0.000 -0.897 0.442 133 93 72
-2332.0918 3003.8789 -525.1525 -0.121 -0.888 0.443 194 131 98
-1910.5145 2581.7576 -550.3345 0.243 -0.654 0.716 66 21 6
-1878.2913 2542.3457 -547.3303 0.720 -0.280 0.635 70 22 7
-1870.6019 2538.9590 -550.7637 0.735 -0.300 0.609 87 35 20
-1822.4028 2475.4846 -543.1509 0.605 -0.328 0.725 96 42 24
-1817.7440 2476.3699 -547.2568 0.604 -0.327 0.726 101 45 25
-1686.6343 2378.5828 -578.1866 0.054 -0.674 0.737 98 44 8
-1672.1266 2371.5425 -584.2161 0.066 -0.681 0.729 94 40 5
-622.9847 1432.0714 -723.4543 0.654 -0.645 0.396 16 7 6
-613.5283 1435.9900 -733.2520 0.660 -0.670 0.341 19 9 6
-593.9474 1458.0316 -763.1447 0.916 -0.342 0.211 11 2 0
-591.1051 1457.6843 -765.0377 0.864 -0.419 0.280 12 2 0
-1020.7306 2923.5806 -1453.6750 0.436 -0.317 -0.842 36 10 6
-1082.4840 3190.4177 -1591.3711 0.428 -0.329 -0.842 54 26 22
-992.4849 3090.9351 -1590.2865 0.257 -0.924 -0.282 44 22 15
-899.8458 3462.2046 -1915.8453 0.261 -0.965 -0.009 58 15 1
-4240.7646 3215.7891 748.2548 0.677 -0.339 0.653 45 38 30
-2809.0984 2810.7661 -44.3578 0.234 -0.962 0.139 83 31 20
-1969.6703 2644.3745 -558.3109 0.495 -0.315 0.810 45 16 4
-1959.9622 2638.4082 -561.4560 0.490 -0.359 0.794 50 17 4
-1912.1797 2576.6047 -554.4757 0.243 -0.654 0.716 61 24 6
-1878.1340 2534.6177 -550.9208 0.720 -0.280 0.635 69 28 6
-1860.1693 2516.0791 -551.5492 0.924 -0.256 0.283 87 41 14
-1827.9868 2476.4028 -548.1978 0.575 -0.351 0.739 95 46 15
-1820.9797 2473.8142 -551.6574 0.564 -0.344 0.751 99 45 12
-658.5136 1432.7253 -702.0739 0.663 -0.525 0.534 14 8 4
-646.9331 1431.1157 -709.6391 0.710 -0.679 0.189 10 3 0
-640.3781 1435.5392 -717.6151 0.625 -0.754 0.205 10 1 1
-629.7330 1436.3123 -726.1290 0.658 -0.731 0.182 7 3 2
-615.7151 1442.8319 -741.1500 0.538 -0.786 0.304 19 4 2
-610.0200 1442.1199 -744.9256 0.239 -0.957 -0.162 21 6 2
-597.7285 1461.8529 -767.8019 0.759 -0.642 0.110 20 5 2
-594.8345 1461.3810 -769.6442 0.692 -0.693 0.203 21 6 2
-591.9580 1460.9491 -771.5012 0.692 -0.678 0.246 21 6 2
-570.6459 1470.8203 -794.3101 -0.151 -0.530 0.834 32 13 8
-568.0544 1471.2366 -796.5406 -0.159 -0.527 0.835 38 14 10
-567.5568 1486.9285 -807.7790 0.630 -0.303 0.715 36 15 10
-565.5323 1489.2236 -810.8856 0.643 -0.297 0.706 46 22 17
-609.2264 1950.2112 -1097.3337 0.913 -0.298 -0.278 35 9 0
-650.7798 2474.9304 -1429.5156 -0.555 -0.748 0.363 117 72 52
-4237.4785 3206.2788 739.8972 0.677 -0.339 0.653 38 32 24
-2832.2700 2703.4817 37.2874 0.389 -0.917 -0.095 96 60 41
-2843.2036 2721.4639 32.9731 0.176 -0.839 0.514 95 60 40
-2831.8274 2716.5237 27.8895 0.185 -0.842 0.506 87 55 34
-1790.0706 1830.4729 -136.1588 -0.379 -0.902 -0.205 63 35 24
-1900.6655 2552.2117 -555.0869 0.001 -0.727 0.687 61 25 9
-1885.6575 2538.1804 -556.5699 0.687 -0.316 0.655 75 35 14
-1864.7080 2515.3250 -556.3671 0.725 -0.315 0.613 89 45 18
-1832.3445 2475.4985 -552.9128 0.609 -0.244 0.755 95 46 14
-684.4991 1375.6897 -647.7949 0.799 -0.540 -0.264 10 5 4
-683.4741 1379.7235 -651.3665 0.804 -0.532 -0.264 11 6 3
-682.2614 1383.3296 -654.7814 0.800 -0.532 -0.277 11 6 3
-621.8694 1437.8307 -737.8874 0.179 -0.958 -0.224 22 0 1
-619.5110 1438.8502 -740.3620 0.179 -0.958 -0.224 24 1 2
-617.3026 1440.2948 -743.0197 0.242 -0.947 -0.210 23 1 1
-599.4268 1459.5103 -769.7623 0.759 -0.642 0.110 23 1 1
-564.6981 1470.0144 -803.0674 0.522 -0.361 0.773 31 4 1
-556.7682 1488.3026 -821.7184 0.996 0.010 0.087 47 20 12
-615.6665 1949.8333 -1098.4636 0.907 -0.298 -0.298 38 17 2
-616.3969 1978.4869 -1117.8362 0.846 -0.475 -0.241 40 18 3
-614.6578 1985.0818 -1123.7229 0.749 -0.487 -0.449 38 18 1
-714.3407 2675.9197 -1529.3398 0.036 -0.962 0.271 71 33 20
-689.2692 2587.7590 -1486.8248 -0.615 -0.636 0.465 85 47 31
-664.2002 2498.3672 -1443.4520 -0.595 -0.776 0.210 101 60 42
-646.8994 2459.7634 -1429.5695 -0.563 -0.737 0.375 118 73 50
-2840.6426 2705.5535 32.0921 0.340 -0.935 -0.103 96 59 40
-2818.8606 2716.9099 7.8737 0.491 -0.832 -0.260 73 38 18
-1788.9835 1819.5486 -136.1475 0.616 -0.784 -0.075 55 33 20
-1826.0955 1897.2977 -162.6524 -0.607 -0.695 -0.384 187 139 117
-2356.2678 3020.7317 -550.1791 -0.355 -0.842 -0.407 184 125 91
-1899.5250 2543.0618 -558.4284 0.738 -0.278 0.615 62 27 13
-1501.1086 2284.1033 -675.6970 -0.085 -0.995 0.051 84 39 11
-692.7642 1383.0859 -651.4667 0.785 -0.605 0.133 7 9 1
-629.2856 1436.3698 -736.1353 0.266 -0.942 -0.206 46 9 8
-626.9949 1437.5757 -738.6904 0.266 -0.942 -0.206 57 7 9
-624.4427 1438.0615 -740.9384 0.179 -0.958 -0.224 58 6 9
-622.0831 1439.0817 -743.4153 0.179 -0.958 -0.224 57 5 8
-619.7975 1440.3124 -745.9838 0.242 -0.947 -0.210 60 8 10
-598.3922 1457.1786 -773.7658 0.773 -0.634 -0.009 63 11 13
-577.8035 1460.8041 -791.6959 -0.306 -0.875 -0.376 66 10 10
-718.1121 2072.9563 -1113.9896 0.232 -0.454 0.860 48 8 0
-711.2626 2074.7925 -1120.3944 0.230 -0.467 0.853 41 2 0
-594.7072 1734.2986 -969.9329 0.882 -0.064 -0.466 53 13 4
-623.5850 1869.2561 -1042.5243 0.881 -0.061 -0.469 39 12 0
-633.0998 1914.8826 -1067.2517 0.884 -0.059 -0.464 37 14 1
-619.8837 2006.1915 -1140.8644 0.796 -0.517 -0.314 43 18 0
-729.7484 2723.8733 -1559.5817 -0.087 -0.987 0.138 71 33 20
-720.1262 2702.5449 -1551.8929 -0.153 -0.987 0.045 85 47 31
-489.4095 1770.4648 -1073.9341 0.280 -0.490 -0.825 118 73 49
-2360.7129 1886.9584 237.0423 -0.409 -0.707 -0.576 137 103 76
-2834.9329 2706.6426 17.0352 0.378 -0.918 0.117 83 51 30
-2829.3430 2707.6394 12.1599 0.339 -0.934 0.116 74 39 19
-2826.1936 2717.9265 2.5985 0.497 -0.855 -0.150 75 40 20
-1814.3121 1848.4535 -144.2470 0.664 -0.690 -0.289 67 36 26
-1809.8970 1868.6095 -161.6691 0.095 -0.994 -0.045 181 133 111
-1854.3578 1924.8695 -167.8688 -0.607 -0.695 -0.384 183 135 115
-2307.4788 2954.0662 -550.4440 0.030 -0.994 0.107 172 114 78
-2300.8848 2953.7581 -555.1552 0.030 -0.994 0.107 133 91 55
-2055.7788 2695.7190 -557.4927 0.158 -0.987 0.009 59 30 22
-1949.3440 2575.9961 -553.1321 0.421 -0.452 0.786 36 9 1
-1942.9353 2574.7087 -557.0187 0.800 -0.352 0.486 34 7 1
-1937.1851 2574.3577 -561.0693 0.819 -0.348 0.457 33 8 3
-1915.2937 2550.6086 -560.7858 0.636 -0.157 0.755 45 16 6
-1902.9982 2540.6577 -563.0005 0.729 -0.180 0.660 66 31 17
-1892.3475 2533.0383 -565.6198 0.665 -0.172 0.726 84 44 24
-1853.2926 2483.8447 -560.3322 0.754 -0.242 0.611 91 46 19
-1525.0449 2332.8491 -699.7971 0.042 -0.983 0.177 65 28 8
-1389.4299 2259.4126 -749.6722 0.642 -0.706 -0.300 21 14 8
-683.0698 1413.1200 -684.4752 0.658 -0.620 0.427 68 7 8
-631.7612 1436.3138 -739.0645 0.266 -0.942 -0.206 104 23 26
-629.4700 1437.5204 -741.6218 0.266 -0.942 -0.206 114 20 25
-626.9645 1438.1398 -743.9280 0.256 -0.944 -0.210 115 19 25
-624.5524 1439.0179 -746.3455 0.232 -0.953 -0.195 116 19 25
-622.2954 1440.3297 -748.9512 0.242 -0.947 -0.210 119 23 29
-607.2747 1451.9283 -768.3016 0.732 -0.667 0.140 123 27 32
-603.1873 1455.9231 -774.1548 0.334 -0.857 -0.392 122 26 32
-590.8001 1459.6643 -786.0319 0.050 -0.798 -0.600 118 20 27
-586.4668 1463.0392 -791.6345 -0.429 -0.816 -0.387 119 21 25
-581.7042 1465.1466 -796.6697 -0.297 -0.875 -0.382 121 21 26
-631.5381 1898.4661 -1063.0558 0.889 -0.057 -0.454 53 6 1
-610.6989 1884.0117 -1068.4989 0.735 -0.275 -0.619 68 20 8
-837.4943 3051.3403 -1716.9716 0.238 -0.471 0.849 48 15 0
-1011.4354 3838.8667 -2138.8137 -0.567 -0.812 0.137 49 13 0
-1010.9114 3863.6094 -2156.5420 -0.531 -0.836 0.137 49 15 3
-740.5124 2771.4844 -1593.3444 -0.079 -0.961 0.267 76 40 23
-677.3751 2521.9048 -1465.6428 -0.560 -0.702 0.439 92 52 32
-4220.9839 3172.6340 713.7864 0.542 -0.382 0.749 36 29 21
-4208.8926 3169.8486 706.7205 0.548 -0.400 0.735 37 29 19
-2313.5322 1982.1653 127.4502 0.247 -0.768 0.591 98 64 44
-2303.8689 1977.8403 123.2798 0.251 -0.780 0.573 101 66 46
-2293.8091 1977.9097 115.7221 0.302 -0.585 0.753 100 66 46
-2908.3250 2734.4009 42.2605 0.047 -0.996 0.073 92 61 40
-2901.6055 2734.3516 37.2795 0.047 -0.996 0.073 90 62 40
-2876.0862 2721.9497 26.9554 0.024 -0.996 0.087 94 59 39
-2863.3105 2715.6785 21.8309 0.032 -0.998 0.046 94 59 37
-2846.9700 2712.4575 11.8997 0.074 -0.997 0.034 89 57 34
-2840.6848 2712.7600 6.9954 0.074 -0.997 0.034 85 50 28
-2838.3833 2717.1553 2.1856 0.329 -0.944 0.027 84 49 27
-2835.0044 2720.4536 -2.6566 0.336 -0.924 0.183 85 50 28
-2829.4446 2721.5066 -7.5472 0.336 -0.924 0.183 82 45 24
-2813.5647 2711.8647 -12.6180 0.252 -0.962 -0.108 77 36 16
-1682.9744 1667.8297 -122.0948 -0.487 -0.809 -0.329 89 79 71
-1675.5466 1664.0391 -124.9725 -0.361 -0.792 -0.492 80 72 60
-1798.4594 1820.8132 -143.5098 0.305 -0.930 0.205 67 41 32
-1820.7074 1850.8949 -148.0641 0.792 -0.559 -0.245 74 44 36
-1819.6774 1859.7524 -155.0637 0.754 -0.632 -0.180 140 97 90
-2209.8655 2770.5295 -504.5005 0.415 -0.796 0.441 189 130 96
-2402.5349 3049.0984 -556.6457 0.190 -0.762 0.619 189 129 92
-2320.0479 2954.2556 -551.4993 0.261 -0.933 -0.246 171 109 72
-2312.3757 2952.4880 -555.9825 -0.012 -0.998 0.069 156 97 60
-2028.8596 2666.0566 -566.1166 0.639 -0.584 -0.501 39 12 3
-1940.2410 2571.2612 -565.5801 0.799 -0.360 0.482 40 15 5
-1915.1276 2542.9211 -564.3897 0.702 -0.117 0.702 51 23 10
-1854.3485 2478.0815 -564.1454 0.747 -0.305 0.591 90 45 16
-1525.7773 2326.5469 -702.8022 -0.155 -0.985 0.077 59 22 3
-698.1566 1390.5115 -662.1075 0.619 -0.713 -0.331 41 13 3
-629.4542 1438.1215 -746.8796 0.256 -0.944 -0.210 141 18 27
-601.8727 1460.7806 -783.4065 0.335 -0.842 -0.423 139 16 25
-587.9759 1468.3285 -799.0889 -0.297 -0.875 -0.382 140 16 26
-581.8668 1466.3875 -802.2835 -0.301 -0.886 -0.353 141 15 25
-577.3613 1460.9441 -801.8174 -0.016 -0.638 0.770 145 19 29
-574.5034 1460.5125 -803.6470 -0.006 -0.635 0.773 149 21 27
-551.5375 1491.5729 -842.6387 0.998 0.069 0.003 131 20 20
-1156.2827 3622.2214 -1890.0387 0.699 -0.688 0.195 134 18 18
-630.1685 1894.7516 -1067.5610 0.820 -0.152 -0.551 93 16 17
-634.2124 1921.1270 -1083.0962 0.840 -0.159 -0.519 95 17 16
-635.4059 1937.6074 -1093.7985 0.855 -0.169 -0.491 103 25 23
-634.3748 1946.2683 -1100.6606 0.888 -0.223 -0.403 105 25 24
-620.9213 1973.1256 -1129.5952 0.974 -0.213 -0.079 92 30 25
-596.2720 2040.9929 -1195.7350 0.880 -0.310 -0.360 55 20 8
-4216.5825 3162.3635 705.3658 0.542 -0.382 0.749 34 30 21
-2907.4116 2733.6846 31.9185 0.047 -0.996 0.073 91 61 41
-2897.5144 2730.4189 26.8450 0.059 -0.994 0.095 95 63 42
-2884.3142 2723.7805 21.6905 0.028 -0.996 0.080 101 66 46
-2859.3723 2711.8755 11.5000 0.284 -0.957 0.062 100 65 45
-2853.5034 2712.6150 6.6015 0.094 -0.994 0.060 100 64 44
-2819.0830 2711.0156 -17.9346 0.252 -0.962 -0.108 106 62 46
-2814.2756 2712.8223 -22.7951 0.419 -0.908 0.021 107 62 46
-1764.1394 1721.2518 -105.5768 -0.559 -0.782 -0.275 94 83 77
-1684.2625 1669.4351 -128.5438 -0.468 -0.772 -0.431 77 73 60
-1801.7612 1819.8158 -147.1304 0.314 -0.925 0.213 79 56 43
-2243.7832 2800.3342 -509.9837 0.346 -0.715 0.608 190 130 96
-2348.9285 2985.3975 -562.2747 0.017 -0.998 0.059 149 89 54
-1962.7053 2580.1594 -564.0807 0.409 -0.428 0.806 34 7 0
-1954.9668 2577.0032 -567.6219 0.467 -0.421 0.777 34 7 0
-1920.0529 2534.7744 -563.8334 0.733 -0.137 0.667 41 14 2
-1912.7114 2532.0244 -567.3654 0.700 -0.117 0.705 53 23 7
-1904.9382 2528.6270 -570.7621 0.692 -0.205 0.692 70 34 17
-1872.1191 2488.8987 -567.1775 0.653 -0.163 0.740 84 45 21
-1856.0452 2473.2727 -568.1279 0.658 -0.280 0.700 89 45 16
-1435.8311 2175.9226 -671.4703 0.306 -0.906 0.293 44 12 1
-1431.5453 2176.2612 -674.9050 0.306 -0.906 0.293 35 10 1
-1400.2681 2255.4016 -754.1161 0.576 -0.648 -0.498 23 16 10
-1394.9404 2254.0337 -757.1227 0.646 -0.695 -0.315 23 16 10
-1385.5737 2253.5691 -763.7789 0.710 -0.639 -0.296 37 28 20
