ply
format ascii 1.0
element vertex 797
property float x
property float y
property float z
property float nx
property float ny
property float nz
property uchar diffuse_red
property uchar diffuse_green
property uchar diffuse_blue
end_header
-1782.2919 3904.2478 -809.8715 0.708 -0.119 -0.696 61 31 23
-1789.8239 3934.0837 -818.4553 0.728 -0.040 -0.684 72 31 24
-1837.5970 4050.1968 -846.3892 0.270 -0.181 -0.946 70 31 24
-1858.6428 4109.7559 -861.7429 0.318 -0.160 -0.935 73 30 25
-1914.6010 4244.9834 -894.1804 0.173 -0.219 -0.960 76 31 27
-1677.4448 3827.4722 -813.1138 0.972 -0.219 -0.082 69 33 31
-1714.6790 3923.8623 -837.0214 0.939 -0.343 0.022 67 31 27
-1708.0629 3923.1360 -838.7190 0.928 -0.368 0.059 67 31 27
-1705.9569 3932.4648 -842.7250 0.924 -0.375 0.075 67 30 27
-1692.8033 3916.9934 -841.0148 0.398 -0.901 -0.171 65 31 29
-1685.1278 3913.7256 -842.1052 0.398 -0.902 -0.167 53 24 20
-1608.7367 3754.7407 -807.1111 -0.087 -0.886 -0.455 44 20 16
-1608.0270 3780.1057 -816.5167 0.510 -0.569 -0.646 42 21 16
-1616.8427 3813.8938 -826.1528 0.560 -0.358 -0.747 51 27 23
-1621.1532 3851.3843 -838.4662 0.493 -0.374 -0.786 51 30 25
-1590.8624 3836.4099 -842.0154 -0.157 -0.982 -0.107 60 56 49
-1590.2365 3862.8389 -851.7819 0.383 -0.438 -0.813 31 26 20
-1583.3400 3860.5300 -852.9889 0.411 -0.460 -0.787 30 25 19
-1568.2496 3838.6472 -849.5284 0.569 -0.664 -0.485 29 24 18
-1571.8073 3861.1501 -856.6318 0.233 -0.940 0.247 30 25 19
-1578.2860 3890.8052 -865.4621 0.283 -0.947 -0.150 34 26 20
-1574.4436 3895.7791 -868.4040 0.270 -0.951 -0.150 34 25 18
-1565.3219 3902.2397 -873.4496 0.160 -0.972 0.173 29 19 12
-1559.3544 3902.0203 -875.1388 -0.086 -0.954 0.286 45 36 29
-1552.2004 3898.8564 -876.1121 -0.088 -0.949 0.302 97 89 81
-1544.4979 3894.2812 -876.7364 -0.086 -0.950 0.300 162 152 146
-1536.2947 3888.3960 -877.0342 -0.085 -0.956 0.280 204 188 183
-2296.8223 1530.4189 197.7056 0.793 0.089 -0.603 38 30 19
-2327.0220 1558.1252 196.5239 0.735 0.054 -0.676 35 25 13
-2328.3369 1564.1597 194.7156 0.731 0.059 -0.680 42 27 12
-2328.0979 1569.3146 192.7694 0.625 -0.118 -0.772 43 26 11
-2330.2705 1575.8833 191.0195 0.638 -0.106 -0.762 44 27 11
-2359.0073 1603.3788 189.4833 0.640 0.081 -0.764 84 68 52
-2361.9309 1610.5188 187.7468 0.651 0.040 -0.758 115 97 82
-2414.2263 1646.8378 189.9427 0.625 -0.106 -0.773 151 133 117
-2380.6633 1632.5212 185.2611 0.972 0.179 -0.149 181 163 147
-2385.2056 1640.7394 183.6093 0.974 0.174 -0.144 190 170 146
-2332.3213 1778.0382 118.0647 0.662 0.272 -0.699 146 125 89
-2350.0198 1819.5900 108.1607 0.741 -0.214 -0.637 38 23 9
-2350.1365 1825.6584 105.9869 0.741 -0.214 -0.637 38 23 7
-2356.7202 1836.1930 104.0940 0.764 -0.212 -0.610 37 24 8
-2202.1633 1955.2661 15.2184 0.918 0.026 0.395 82 47 38
-2204.4546 1975.9539 8.3658 0.919 0.035 0.394 145 110 101
-2210.8679 1993.8080 3.7591 0.953 0.161 -0.257 161 113 105
-2220.8955 2008.3245 1.4321 0.961 0.167 -0.221 163 114 106
-2228.5229 2020.9651 -0.9197 0.944 0.187 -0.272 164 114 106
-2237.2371 2034.5582 -3.2978 0.967 0.189 -0.169 165 115 107
-2036.1093 2049.0024 -67.8260 0.200 -0.780 0.593 169 115 104
-1655.6924 1777.9191 -81.2941 0.148 -0.825 0.546 74 45 40
-1648.0890 1776.0656 -82.8604 0.148 -0.824 0.548 76 47 41
-2100.8271 2368.4343 -164.9870 0.862 -0.095 0.499 191 137 124
-2546.7241 3097.2739 -298.7882 0.464 -0.553 0.692 183 132 125
-2539.3381 3098.7964 -301.5188 0.989 -0.108 -0.102 168 121 111
-2536.8069 3105.8838 -304.8437 0.989 -0.117 -0.094 141 99 88
-2538.4836 3117.8479 -308.7030 0.990 -0.110 -0.086 96 60 49
-2525.5923 3123.0127 -314.3813 0.635 -0.699 0.329 71 41 29
-2514.6445 3120.3088 -316.6238 0.445 -0.607 0.658 62 34 22
-2510.1714 3125.1382 -319.6993 0.222 -0.666 0.712 58 24 14
-2393.2971 3366.9001 -442.1133 0.582 0.231 -0.780 202 147 136
-2322.3784 3526.5603 -521.1094 0.088 -0.789 -0.608 215 167 153
-2078.6111 3278.6294 -502.7315 0.048 -0.824 0.565 197 160 154
-2054.4294 3263.5842 -504.3834 0.087 -0.700 0.709 147 115 110
-1989.8033 3459.6680 -594.7786 0.521 -0.847 0.108 38 21 13
-1984.6233 3462.5271 -597.3455 0.521 -0.847 0.108 39 20 12
-1923.1351 3404.7856 -594.4553 -0.074 -0.928 0.366 23 14 4
-1872.5593 3408.6892 -610.7804 0.219 -0.584 0.781 35 13 5
-1828.7053 3422.6299 -628.7768 0.204 -0.632 0.748 50 29 20
-1822.2433 3422.5090 -630.6373 0.204 -0.632 0.748 50 30 21
-1772.9148 3424.6509 -645.9537 -0.316 -0.924 -0.217 72 51 43
-1763.5803 3418.8772 -646.6037 -0.327 -0.915 -0.238 70 48 40
-1756.1432 3416.5708 -647.9561 -0.327 -0.915 -0.238 70 49 40
-1748.4069 3413.6526 -649.1741 -0.016 -0.869 0.494 70 49 42
-1741.7101 3412.6345 -650.7772 0.139 -0.763 0.632 70 48 41
-1735.4161 3412.3359 -652.5234 0.139 -0.763 0.632 61 35 26
-1666.6611 3372.8430 -658.4150 -0.089 -0.859 0.504 101 74 60
-1656.5751 3364.6780 -658.4162 -0.098 -0.840 0.534 105 77 62
-1662.9854 3447.2607 -686.5770 0.931 0.328 0.161 135 107 97
-1685.8027 3504.8325 -700.8017 0.905 0.367 0.216 127 102 96
-1785.4071 3889.5798 -811.4483 0.646 -0.091 -0.758 33 21 9
-1790.6901 3914.4758 -818.9506 0.646 -0.091 -0.758 44 21 11
-1871.0581 4113.7378 -867.7726 0.271 -0.172 -0.947 51 19 11
-1898.9386 4188.0771 -886.6064 0.224 -0.192 -0.956 49 20 13
-1701.0100 3913.6096 -845.0640 0.739 -0.632 -0.233 63 30 28
-1623.8729 3877.7695 -854.7549 0.375 -0.533 -0.758 65 53 48
-1588.9398 3880.0073 -865.8640 0.403 -0.432 -0.807 32 29 23
-1566.9427 3841.6611 -858.3932 0.176 -0.966 0.192 33 28 23
-1563.3301 3847.0168 -861.4067 0.733 -0.679 -0.038 33 28 22
-1576.4098 3892.5210 -874.1099 0.157 -0.977 0.147 33 26 21
-1569.0757 3903.3076 -880.1963 0.150 -0.971 0.188 30 23 17
-1554.8059 3897.1685 -882.1677 -0.088 -0.949 0.302 44 39 34
-1547.3771 3893.2844 -882.9437 -0.086 -0.950 0.302 119 112 107
-1540.5344 3890.7751 -884.0471 -0.121 -0.976 0.180 200 186 183
-2367.5186 1568.3655 199.0876 0.477 -0.808 0.346 41 32 18
-2326.7673 1550.4471 193.6911 0.843 0.029 -0.537 36 24 11
-2338.1704 1562.2357 192.7268 0.741 0.002 -0.671 31 18 3
-2335.6453 1566.0780 190.5836 0.642 -0.119 -0.757 41 23 2
-2335.9631 1571.5645 188.6729 0.632 -0.125 -0.764 45 24 1
-2337.0295 1577.5000 186.8175 0.632 -0.125 -0.764 61 38 12
-2362.9204 1603.3185 184.9743 0.627 0.067 -0.776 144 121 96
-2420.9866 1648.4012 185.5231 0.623 -0.109 -0.775 178 155 129
-2423.6370 1655.5577 183.6859 0.631 -0.113 -0.768 189 166 139
-2386.7744 1639.2644 178.8353 0.987 -0.158 -0.022 189 163 132
-2436.7322 1674.6021 180.5675 0.993 0.064 -0.100 191 163 133
-2360.9661 1830.3870 101.4692 0.732 -0.158 -0.662 32 25 12
-2198.6992 1943.4189 12.6394 0.778 -0.185 0.601 46 29 20
-2192.4905 1944.7275 10.3422 0.785 -0.113 0.610 46 29 20
-2192.7131 1951.1310 8.0687 0.716 -0.189 0.672 64 47 38
-2196.8037 1966.9150 3.5025 0.912 0.016 0.410 103 83 75
-2202.7866 1984.3470 -1.1111 0.946 0.243 -0.212 141 101 97
-2205.1985 1992.6476 -3.4361 0.947 0.240 -0.212 148 105 100
-2213.4636 2005.7385 -5.7954 0.938 0.202 -0.283 157 111 107
-2218.9912 2016.6642 -8.1661 0.932 0.203 -0.300 162 116 112
-2023.0955 2027.7949 -69.6322 0.480 -0.638 0.602 174 112 104
-1655.7612 1775.3999 -85.0851 0.148 -0.825 0.546 64 49 52
-1649.1144 1779.8798 -88.6689 0.142 -0.741 -0.656 77 56 53
-2547.5781 3093.3235 -305.1139 0.474 -0.584 0.659 187 131 121
-2542.0901 3097.0183 -308.0714 0.955 -0.186 -0.231 186 131 120
-2539.6526 3104.2095 -311.4122 0.953 -0.206 -0.224 177 123 112
-2538.5850 3112.9958 -314.9340 0.953 -0.206 -0.224 157 104 93
-2521.9963 3113.8508 -320.1070 0.646 -0.656 0.389 132 79 68
-2512.5676 3112.9053 -322.5245 0.445 -0.604 0.661 125 72 63
-2509.1997 3119.0083 -325.7403 0.222 -0.666 0.712 123 71 64
-2340.6133 3217.4937 -411.1090 0.462 0.127 -0.878 210 153 140
-2270.8101 3157.1194 -409.5119 0.567 0.175 -0.805 214 153 141
-2360.3691 3306.7444 -437.9173 0.587 0.210 -0.782 205 144 132
-2303.0530 3481.2913 -518.4619 -0.102 -0.758 -0.644 214 165 150
-2317.3857 3524.9077 -530.1923 0.568 -0.156 -0.808 216 164 146
-2319.2229 3539.1367 -534.8508 0.622 0.034 -0.782 213 165 151
-2300.7236 3523.7307 -534.6446 0.135 -0.538 -0.832 204 164 156
-2229.7537 3453.7910 -529.8959 0.075 -0.546 -0.835 215 179 175
-2193.8145 3411.8801 -525.1195 0.299 -0.933 0.202 202 166 162
-2185.2151 3410.2732 -527.0524 0.621 -0.106 -0.777 187 151 147
-1861.0913 2985.8318 -467.0071 0.968 0.119 0.220 53 28 24
-1808.3997 2915.2300 -456.6607 0.963 0.255 -0.085 46 22 17
-1823.0444 2956.6211 -467.4868 0.961 0.195 -0.194 45 21 17
-1835.0625 3359.7307 -611.1935 0.083 -0.814 0.575 30 15 3
-1834.9706 3370.8040 -615.2647 0.726 -0.196 0.659 30 15 3
-1823.7966 3373.6248 -619.5691 0.746 -0.171 0.644 29 15 2
-1787.4971 3320.4041 -610.7676 0.778 -0.136 0.614 27 14 1
-1787.6694 3331.8320 -614.8910 0.760 -0.144 0.634 25 14 1
-1784.3044 3336.9761 -617.7557 0.760 -0.144 0.634 25 15 0
-1777.2428 3426.4319 -652.4970 -0.311 -0.923 -0.229 31 20 9
-1765.4264 3416.0818 -652.1792 -0.314 -0.924 -0.216 30 18 7
-1758.0466 3413.8909 -653.5414 -0.314 -0.924 -0.216 31 18 7
-1749.1270 3408.7693 -654.2845 -0.018 -0.874 0.486 31 19 8
-1740.3815 3403.9033 -655.0698 0.157 -0.739 0.656 30 18 7
-1734.1370 3403.6807 -656.8183 0.157 -0.739 0.656 37 25 14
-1637.1298 3354.7100 -667.3574 0.536 -0.323 0.780 64 52 41
-1639.0315 3369.9524 -672.3672 0.515 -0.419 0.748 69 57 47
-1642.1476 3387.6846 -677.9305 0.939 0.228 0.258 76 64 53
-1649.7372 3414.4253 -685.4732 0.937 0.303 0.176 84 72 63
-1772.6537 3762.0437 -776.4175 0.911 0.324 -0.256 68 58 48
-1877.9946 4077.0989 -860.6188 0.251 -0.174 -0.952 32 19 10
-1893.8738 4125.0723 -873.4873 0.256 -0.170 -0.952 36 19 11
-1681.3439 3821.0125 -824.7101 0.976 0.094 0.195 66 42 37
-1677.7454 3826.6477 -827.8227 0.988 0.007 0.152 60 36 30
-1603.8978 3837.4841 -853.4191 0.290 -0.904 -0.314 55 46 44
-1598.2365 3838.1423 -855.3184 0.277 -0.907 -0.317 46 41 38
-1565.6873 3844.7969 -867.2864 0.733 -0.679 -0.038 28 24 21
-1569.7559 3868.5854 -874.7825 0.345 -0.765 -0.544 28 24 20
-1568.7057 3894.3911 -884.5152 0.115 -0.992 0.046 28 23 20
-1564.5447 3898.5613 -887.2576 0.130 -0.990 0.052 17 11 8
-1549.3763 3890.1326 -888.6237 -0.123 -0.966 0.229 88 83 80
-1543.0869 3888.9922 -890.0502 -0.123 -0.966 0.229 168 157 155
-1529.8644 3884.9761 -892.4578 -0.094 -0.954 0.283 217 184 185
-2366.9233 1565.7294 194.2398 0.462 -0.812 0.356 39 27 11
-2330.0173 1550.0332 189.2417 0.847 0.019 -0.531 39 26 10
-2339.6201 1560.7806 188.0995 0.832 0.055 -0.552 40 23 7
-2336.6860 1564.3862 185.9229 0.820 0.034 -0.572 50 31 6
-2339.8340 1571.4990 184.2326 0.636 -0.120 -0.762 71 47 21
-2340.9426 1577.4594 182.3706 0.636 -0.120 -0.762 107 82 53
-2356.1045 1596.9922 179.6273 0.843 -0.537 0.029 161 136 109
-2359.3181 1604.2737 177.8943 0.821 -0.571 0.026 168 144 116
-2360.8657 1610.6040 176.0246 0.828 -0.559 -0.044 177 152 123
-2365.8982 1619.0143 174.4076 0.863 -0.468 0.189 185 160 129
-2364.9646 1623.9242 172.3358 0.852 -0.496 0.166 187 160 128
-2363.1445 1639.3008 166.1686 0.922 -0.386 -0.038 205 176 142
-2367.4438 1647.4061 164.4499 0.824 -0.532 -0.195 201 172 138
-2327.2297 1723.3488 124.8946 0.354 -0.577 0.736 191 169 132
-2322.2664 1725.8317 122.5383 0.521 -0.392 0.759 191 169 135
-2354.8875 1811.5983 100.6012 0.879 -0.264 -0.398 30 24 10
-2362.7488 1822.9131 98.7436 0.741 -0.351 -0.573 30 24 12
-2194.1387 1943.1730 5.5358 0.705 -0.193 0.683 44 30 21
-2189.6067 1945.7969 3.2536 0.716 -0.189 0.672 41 27 18
-2190.1479 1958.6986 -1.3183 0.912 0.007 0.410 70 53 45
-2196.3894 1976.2703 -5.9415 0.896 0.271 -0.353 113 78 73
-2199.4260 1985.0432 -8.2728 0.896 0.268 -0.354 121 82 77
-2202.4761 1993.8633 -10.6176 0.894 0.261 -0.364 129 86 83
-2208.5032 2005.1445 -12.9972 0.885 0.256 -0.389 134 91 88
-2206.0293 2009.5320 -15.3263 0.948 0.120 0.294 142 101 97
-1864.2358 2058.6304 -132.9019 0.894 0.447 0.038 172 124 112
-2531.7505 3060.5044 -305.7036 0.452 -0.851 0.269 187 130 119
-2541.8828 3081.9170 -310.6013 0.916 -0.400 0.023 187 130 119
-2538.8340 3088.3694 -313.8549 0.988 -0.115 -0.099 187 130 119
-2538.6697 3108.1355 -321.1487 0.942 0.334 -0.007 182 125 114
-2541.4060 3131.3987 -328.8794 0.978 0.194 -0.071 167 110 101
-2284.3335 3169.6997 -417.8146 0.948 0.242 -0.204 209 147 134
-2298.1943 3198.1821 -424.2177 0.963 0.236 -0.133 209 147 134
-2189.0896 3226.7732 -466.4850 0.852 0.249 -0.460 211 150 129
-2214.7791 3273.2644 -476.0438 0.732 0.132 -0.669 211 149 128
-2245.1804 3337.5068 -490.7370 0.741 -0.006 -0.672 207 150 130
-2278.7197 3406.9797 -506.4336 0.413 -0.592 -0.692 204 153 136
-2148.9006 3361.5737 -527.6095 0.250 -0.739 0.626 110 76 71
-2079.1270 3268.3145 -513.7496 0.042 -0.806 0.590 84 54 51
-1984.7422 3137.4534 -493.2754 0.655 -0.706 0.270 67 40 36
-1723.3964 3320.7747 -636.6179 0.430 -0.549 0.716 17 9 0
-1711.3616 3309.6677 -636.0525 0.408 -0.581 0.705 16 8 0
-1712.5668 3323.0754 -640.6164 0.425 -0.572 0.702 17 8 0
-1707.3053 3324.4751 -642.6624 0.425 -0.572 0.702 17 8 0
-1734.0481 3385.8228 -657.3604 0.174 -0.940 0.293 17 9 1
-1728.2108 3386.3145 -659.2413 0.174 -0.940 0.293 26 18 10
-1723.6898 3389.2610 -661.6385 0.176 -0.942 0.287 26 18 10
-1688.3633 3333.8333 -651.6115 0.161 -0.918 0.361 27 18 9
-1643.1644 3348.9011 -670.3032 0.464 -0.422 0.779 32 22 12
-1638.1501 3350.4875 -672.3456 0.490 -0.420 0.764 21 11 3
-1636.5719 3358.8318 -675.8643 0.384 -0.471 0.795 27 17 7
-1920.2708 4292.8472 -935.6094 0.501 -0.836 0.222 43 23 16
-1557.0710 3775.1328 -851.6358 0.289 -0.899 -0.329 23 18 15
-1577.5233 3893.4419 -889.0479 0.033 -0.900 0.436 22 17 14
-1571.9214 3894.1602 -890.9432 0.013 -0.904 0.427 20 17 14
-1569.1504 3901.7043 -894.5161 0.039 -0.919 0.393 22 17 14
-1547.6407 3892.1165 -897.2678 -0.145 -0.925 0.352 111 100 98
-1540.8779 3889.7957 -898.3873 -0.164 -0.935 0.313 184 161 161
-1532.6838 3883.8823 -898.6068 -0.087 -0.954 0.288 216 183 184
-1523.4512 3875.3079 -898.1533 -0.136 -0.981 0.139 219 185 184
-2353.1670 1545.1102 192.2093 0.996 -0.063 0.067 36 23 7
-2367.4744 1563.7474 189.4962 0.323 -0.894 0.309 35 23 7
-2358.6011 1564.0225 186.8248 0.294 -0.916 0.275 40 27 11
-2355.3931 1567.5045 184.6144 0.600 -0.793 -0.101 47 30 14
-2372.0344 1582.3645 183.9671 0.996 0.040 0.077 81 60 35
-2342.1738 1570.5487 179.6653 0.817 0.033 -0.575 119 95 67
-2346.0500 1578.1052 178.0077 0.636 -0.120 -0.762 154 127 98
-2352.7798 1587.3496 176.5557 0.634 0.054 -0.771 169 142 112
-2350.6917 1591.5016 174.4231 0.765 -0.602 -0.229 172 147 117
-2350.5090 1602.1635 170.4473 0.799 -0.599 -0.064 175 150 120
-2339.7642 1601.2322 167.6777 0.788 -0.607 -0.099 178 151 121
-2373.9392 1626.8602 168.1470 0.840 -0.508 0.190 184 158 125
-2335.5115 1614.9167 161.4108 0.801 -0.577 0.156 199 170 136
-2278.7969 1678.4397 121.6103 0.291 -0.773 0.564 192 170 133
-2318.6138 1720.9410 117.5056 0.521 -0.392 0.759 190 169 137
-2326.5632 1743.2770 111.5900 0.508 0.127 -0.852 145 131 103
-2342.6926 1765.4714 108.0957 0.552 0.110 -0.826 72 61 33
-2194.5601 1928.2806 5.2841 0.918 -0.196 0.344 43 30 21
-2195.6597 1935.3219 3.0119 0.929 -0.060 0.366 43 30 21
-2191.1782 1937.9814 0.7353 0.862 -0.104 0.496 43 30 21
-2183.2327 1950.2988 -6.0983 0.929 -0.017 0.370 47 33 24
-2193.7832 2002.9474 -22.4138 0.691 -0.393 0.607 109 74 67
-2194.7332 2010.1202 -24.7778 0.581 -0.482 0.656 110 73 68
-2189.5449 2012.2533 -27.0655 0.579 -0.464 0.670 113 73 67
-2187.5332 2017.0040 -29.3962 0.590 -0.436 0.680 166 113 106
-2186.5862 2022.6462 -31.7465 0.996 0.063 0.057 169 112 105
-2049.1904 2019.7354 -70.4730 0.153 0.069 -0.986 169 110 108
-1751.8096 1890.2927 -108.9842 0.935 0.225 0.274 78 53 52
-1801.7642 1956.6211 -118.9193 0.973 0.003 0.229 78 52 49
-2533.4553 3057.5837 -312.0684 0.452 -0.851 0.269 187 130 119
-2537.8386 3072.4231 -316.2587 0.900 -0.436 -0.015 187 130 119
-2539.8977 3084.6770 -320.1711 0.988 -0.115 -0.099 188 131 120
-2531.8918 3085.4502 -322.7744 0.992 -0.064 -0.106 187 130 119
-2537.0259 3111.3000 -330.7986 0.979 0.179 -0.097 187 130 119
-2520.6262 3122.3850 -339.6274 0.165 -0.744 0.647 196 139 132
-2298.9587 3277.5908 -460.9413 0.229 -0.682 -0.694 210 149 131
-2203.1362 3251.5273 -479.1070 0.789 0.228 -0.571 204 143 122
-2219.9963 3285.7637 -486.8203 0.785 0.229 -0.575 203 144 122
-2223.3669 3311.9270 -495.4706 0.814 0.004 -0.580 199 147 128
-2251.7629 3440.5945 -534.5873 0.706 0.123 -0.698 185 146 139
-2156.3450 3355.9802 -531.0928 0.340 -0.701 0.627 89 51 48
-1668.3928 3256.8689 -635.9643 0.116 -0.671 -0.732 21 13 5
-1658.4933 3260.2451 -640.0740 0.128 -0.672 -0.729 19 13 4
-1629.3444 3327.0007 -673.0792 0.528 -0.492 0.692 18 8 1
-1635.5385 3350.5588 -679.9530 0.378 -0.474 0.795 24 14 4
-1582.7963 3759.6533 -845.7524 0.920 0.291 0.264 39 27 25
-1570.1433 3881.8989 -894.3965 0.037 -0.894 0.447 16 12 9
-1574.5259 3906.6875 -902.2477 0.297 -0.908 0.297 26 21 18
-1543.5173 3888.2319 -904.4390 -0.164 -0.935 0.313 145 122 122
-1535.2913 3882.2634 -904.6257 0.013 -0.844 0.536 203 170 171
-1527.6283 3877.6033 -905.1307 0.008 -0.851 0.525 228 194 193
-2368.8499 1541.1052 192.6270 0.927 -0.360 0.104 36 24 10
-2372.0193 1553.4204 188.9918 0.997 0.063 0.051 40 28 14
-2371.9517 1558.6786 187.0305 0.996 0.042 0.083 35 23 9
-2370.4167 1563.1206 184.9481 0.997 0.050 0.066 33 24 9
-2370.5603 1568.5220 182.9948 0.997 0.050 0.066 47 35 21
-2371.2019 1574.2213 181.0748 0.996 0.049 0.068 67 53 36
-2371.5557 1579.7727 179.1266 0.996 0.040 0.077 120 99 74
-2346.3447 1570.6498 175.2354 0.844 0.203 -0.497 157 133 105
-2351.6086 1579.0051 173.6657 0.756 0.007 -0.654 177 150 120
-2357.8459 1587.9625 172.1540 0.638 0.048 -0.769 173 146 116
-2351.8669 1589.8578 169.7322 0.775 -0.606 -0.181 175 150 120
-2381.1536 1661.9448 151.5449 0.990 0.020 -0.138 197 168 134
-2272.5154 1666.4692 118.5888 0.421 -0.774 0.473 190 167 133
-2325.4263 1705.8269 119.2914 0.353 -0.705 0.615 188 166 129
-2318.9922 1718.6722 112.6948 0.605 -0.315 0.731 188 166 135
-2314.2249 1721.2585 110.3668 0.533 -0.349 0.771 192 177 152
-2337.1133 1741.8767 109.3440 0.547 0.113 -0.829 156 141 120
-2356.9631 1778.1628 101.6601 0.300 -0.296 -0.907 38 23 3
-2357.3911 1784.3212 99.5092 0.300 -0.296 -0.907 36 21 4
-2192.8257 1930.2561 -1.7748 0.921 -0.191 0.340 45 32 23
-2173.9543 1952.4479 -15.4046 0.897 -0.086 0.433 53 28 20
-2189.2800 1996.3127 -27.1901 0.543 -0.548 0.636 74 46 37
-2183.9167 2030.3169 -41.2921 0.932 0.070 -0.357 171 112 106
-1790.9319 1937.1825 -120.0691 0.995 0.098 0.027 70 46 46
-1796.5024 1948.5968 -122.6802 0.974 -0.032 0.226 83 58 55
-1807.5924 1971.5479 -127.9622 0.989 0.132 0.070 165 120 110
-1822.0780 1991.9261 -131.3162 0.865 0.498 -0.053 176 126 115
-1835.3169 2011.1917 -134.6183 0.795 0.548 -0.261 187 137 126
-2535.9883 3075.3240 -325.8173 0.352 -0.845 0.402 189 132 121
-2534.8379 3083.9180 -329.3222 0.233 -0.859 0.457 188 131 120
-2489.1353 3100.6272 -348.6542 0.211 -0.891 0.401 199 142 135
-2481.2583 3101.3506 -351.1897 0.211 -0.891 0.401 193 135 131
-2473.4055 3102.0715 -353.7173 0.211 -0.891 0.401 197 140 133
-2363.0808 3347.8135 -476.2392 0.613 -0.572 -0.545 211 149 134
-2125.9172 3148.3943 -470.8929 0.923 -0.385 -0.012 201 141 119
-2191.7490 3272.3552 -497.7127 -0.027 -0.943 -0.332 196 145 128
-2167.3857 3269.4858 -503.6693 0.109 -0.878 -0.466 199 150 135
-2170.9038 3328.1731 -524.3288 0.628 -0.017 -0.778 126 88 85
-2153.2668 3324.0317 -527.8785 0.447 -0.842 0.301 81 46 42
-2022.5404 3173.0422 -509.7654 0.073 -0.823 0.563 45 14 11
-2003.5562 3155.0022 -508.5704 0.468 -0.786 0.404 42 16 11
-1988.7181 3143.0176 -508.4176 0.497 -0.740 0.453 42 18 14
-1997.4235 3166.3394 -514.5233 0.679 -0.730 0.070 44 20 16
-1634.8982 3331.7153 -679.9946 -0.287 -0.958 -0.016 26 16 7
-1631.9121 3337.2180 -682.8867 0.382 -0.495 0.780 28 18 9
-1609.4427 3304.3025 -677.2019 0.340 -0.757 0.558 30 20 11
-1565.2057 3862.0940 -895.9297 0.318 -0.948 0.021 16 12 9
-1569.4662 3886.4727 -903.7056 0.200 -0.974 0.103 24 17 15
-1567.4752 3895.8669 -907.7482 0.166 -0.978 0.124 22 15 12
-1543.8851 3881.1033 -909.0895 0.011 -0.849 0.528 68 45 45
-1537.1166 3878.7214 -910.1591 0.013 -0.844 0.536 151 118 119
-1530.4403 3876.5110 -911.2654 0.007 -0.848 0.530 228 194 195
-1521.2833 3868.0952 -910.7946 0.050 -0.828 0.559 218 185 186
-2340.9360 1513.0081 189.4544 0.952 -0.187 0.244 28 22 8
-2356.7515 1532.1310 186.8945 0.950 0.246 0.194 34 24 12
-2361.8242 1540.1860 185.3613 0.954 0.240 0.182 38 26 14
-2362.9529 1546.0698 183.5037 0.954 0.240 0.182 41 29 17
-2359.9043 1549.6244 181.3134 0.991 -0.045 0.128 43 34 19
-2359.3252 1570.4724 173.4204 0.470 -0.881 0.053 163 144 120
-2351.9641 1571.5774 170.9033 0.845 0.343 -0.410 171 149 121
-2359.3840 1591.8979 165.4959 0.773 -0.604 -0.193 175 151 123
-2278.5247 1662.3677 116.2266 0.375 -0.828 0.417 189 167 130
-2332.2649 1707.7034 114.8090 0.285 -0.740 0.610 182 160 122
-2319.9534 1711.1211 110.0174 0.314 -0.747 0.586 189 167 130
-2305.5024 1707.4462 107.2422 0.436 -0.281 -0.855 174 152 120
-2338.7183 1734.6344 106.6747 0.387 0.012 -0.922 145 128 109
-2177.2017 1952.1830 -20.2008 0.920 -0.129 0.370 51 32 21
-2187.1624 1991.6434 -31.9749 0.537 -0.554 0.636 57 36 25
-2272.5432 2141.8977 -63.2214 0.818 -0.558 -0.141 174 113 108
-2187.2236 2075.7222 -63.1207 0.771 -0.621 -0.142 174 113 108
-1777.0806 1914.9822 -120.9673 0.988 0.046 -0.147 66 45 44
-1779.2411 1922.9812 -123.3135 0.987 -0.129 0.096 71 50 48
-1790.6552 1940.0260 -126.3632 0.986 0.022 0.167 105 80 77
-1797.9034 1953.0970 -129.1328 0.982 0.185 -0.046 148 117 112
-1810.8988 1971.8746 -132.3720 0.976 0.175 -0.133 183 138 127
-1818.9830 1985.9275 -135.2661 0.892 0.441 -0.097 186 136 125
-2509.8447 3080.0408 -343.0003 0.242 -0.936 0.255 191 134 125
-2502.3420 3081.2720 -345.6046 0.242 -0.936 0.255 191 134 125
-2499.7522 3088.1841 -348.9081 0.251 -0.929 0.272 192 135 128
-2488.6780 3085.2156 -350.9783 0.233 -0.937 0.259 191 134 127
-2485.8274 3091.8127 -354.2397 0.108 -0.942 0.319 191 134 127
-2292.1807 3215.8679 -455.6612 0.694 -0.278 -0.664 205 143 130
-2151.9468 3039.4263 -430.4129 0.890 -0.427 -0.160 208 146 133
-2305.0410 3264.4231 -469.9760 0.045 -0.984 -0.171 208 146 131
-2298.0615 3265.5962 -472.4091 0.120 -0.836 -0.536 208 146 133
-2288.8977 3263.7903 -474.3633 0.014 -0.879 -0.477 204 142 129
-2259.9011 3235.0444 -472.0105 0.224 -0.970 0.096 204 142 129
-2254.2241 3237.7913 -474.6540 0.321 -0.936 0.144 203 141 126
-2245.6929 3236.6252 -476.6642 0.339 -0.941 -0.008 204 142 127
-2239.6482 3238.8230 -479.2094 0.339 -0.941 -0.008 197 135 119
-2243.2812 3254.3093 -483.9092 0.955 0.201 -0.220 195 134 112
-2178.0586 3216.1558 -488.4411 0.627 -0.536 -0.566 199 137 115
-2175.3242 3222.7380 -491.6637 0.676 -0.494 -0.546 195 137 117
-2170.2124 3225.9817 -494.3294 0.645 -0.084 -0.759 195 141 122
-2145.2458 3242.8743 -507.7385 0.558 0.047 -0.829 184 133 115
-2184.8525 3342.8752 -533.4639 0.619 0.049 -0.784 86 50 46
-2062.7544 3175.5115 -506.3881 0.962 -0.271 -0.031 65 30 26
-2044.9889 3170.0510 -509.4505 0.988 -0.128 -0.084 49 14 10
-1561.1837 3721.5632 -852.3793 0.928 0.030 -0.371 13 8 5
-1561.7660 3736.3076 -857.6776 0.955 0.145 -0.259 13 8 5
-1553.8403 3826.9600 -893.5465 -0.006 -0.971 -0.238 17 12 8
-1564.3585 3866.2244 -905.0883 0.265 -0.964 -0.014 24 15 13
-1573.8463 3903.2693 -916.1025 0.106 -0.993 0.055 24 16 14
-1566.6967 3900.2117 -917.0161 0.264 -0.761 0.593 22 17 14
-1539.5991 3876.8018 -916.0974 0.011 -0.849 0.528 98 65 66
-1533.4814 3875.9812 -917.5447 0.011 -0.849 0.528 200 165 166
-1523.0011 3864.3250 -916.2249 0.050 -0.828 0.559 218 184 185
-1516.6548 3862.8054 -917.4786 0.040 -0.835 0.549 216 180 182
-2335.9871 1502.9430 186.2836 0.987 -0.087 0.138 28 22 8
-2340.2339 1510.4104 184.7144 0.952 -0.187 0.244 29 22 9
-2353.4353 1522.8525 183.8434 0.979 0.016 0.205 33 25 11
-2362.4563 1533.0508 182.6173 0.994 0.028 0.108 35 24 12
-2362.3933 1538.2484 180.6658 0.994 0.028 0.108 31 19 5
-2362.3303 1543.4592 178.7096 0.994 0.028 0.108 27 15 1
-2366.1055 1566.7202 171.1310 0.470 -0.881 0.053 155 140 125
-2361.1550 1569.2189 168.7925 0.470 -0.881 0.053 170 150 125
-2356.9907 1572.1584 166.5138 0.471 -0.881 0.040 170 149 120
-2397.0581 1611.4055 163.3181 0.894 -0.196 -0.403 175 151 123
-2358.1135 1626.7285 146.5334 0.994 -0.106 0.017 184 155 121
-2278.3108 1654.3374 113.5493 0.608 -0.136 -0.782 189 167 128
-2276.5454 1658.6973 111.4250 0.618 -0.137 -0.774 189 167 130
-2277.6594 1664.8915 109.4378 0.618 -0.137 -0.774 189 167 130
-2310.2991 1691.2051 108.9393 0.405 -0.345 -0.847 191 169 131
-2312.2476 1698.0522 106.9467 0.436 -0.287 -0.853 193 171 133
-2349.3303 1738.9709 102.2797 0.387 0.012 -0.922 83 65 51
-2356.9380 1749.6753 100.4631 0.389 0.015 -0.921 57 39 29
-2376.3726 1779.8838 94.7572 0.315 -0.385 -0.868 42 24 16
-2205.6362 1922.2852 -6.8113 0.887 -0.223 0.405 44 33 23
-2173.3276 1964.8959 -31.8581 0.438 -0.804 -0.401 48 33 20
-2191.0144 1985.5171 -34.4950 0.748 -0.277 -0.603 53 38 25
-2192.4536 1993.0228 -36.8775 0.467 -0.596 0.653 53 38 25
-1764.5635 1825.6791 -96.4138 0.607 -0.500 -0.617 43 33 42
-1788.8607 1935.4214 -130.3220 0.987 0.010 0.157 139 113 110
-1792.2601 1944.7076 -132.8089 0.989 0.092 0.116 170 139 134
-1835.7273 2011.8405 -145.4103 0.778 0.544 -0.314 188 136 125
-2305.9126 3228.8010 -464.2897 0.711 -0.299 -0.636 205 143 130
-2179.5420 3090.9753 -448.9870 0.891 -0.450 -0.062 203 141 126
-2142.0090 3070.1519 -451.9236 0.842 0.180 -0.509 191 129 115
-2176.7832 3188.3728 -486.0038 0.741 -0.318 -0.592 192 131 110
-2185.2078 3210.4170 -491.8063 0.678 -0.486 -0.551 194 132 110
-2184.8816 3220.3569 -495.5969 0.679 -0.501 -0.537 192 131 110
-2149.3623 3201.6262 -498.7386 0.882 -0.469 -0.049 184 134 117
-2176.9636 3304.2605 -529.0623 0.601 0.047 -0.798 87 41 27
-2214.4595 3447.0532 -571.5084 0.630 0.228 -0.742 51 21 18
-1983.0425 3216.7122 -551.6891 0.885 -0.279 0.373 49 29 22
-1863.4956 3142.9043 -558.2587 0.974 -0.156 -0.164 26 9 2
-1628.0485 3111.7529 -613.6843 0.891 -0.394 0.224 28 20 9
-1576.8839 3902.5959 -922.4379 0.106 -0.993 0.055 24 16 14
-1568.9537 3897.6699 -922.8625 0.256 -0.772 0.582 22 17 14
-1562.6798 3896.6917 -924.2842 0.270 -0.757 0.594 25 14 12
-1521.3177 3866.3484 -924.7693 -0.118 -0.993 0.026 216 181 182
-2362.0842 1509.8356 185.6134 0.978 0.048 0.202 29 21 8
-2352.3838 1520.0459 179.0567 0.979 0.016 0.205 32 21 5
-2358.7803 1528.7738 177.6080 0.896 0.125 -0.427 39 26 10
-2361.3247 1535.4042 175.8526 0.903 0.118 -0.414 46 33 17
-2367.6394 1544.1622 174.3695 0.916 0.126 -0.381 55 41 25
-2379.6411 1556.1477 173.2906 0.962 0.000 -0.274 95 82 66
-2357.9778 1549.2699 169.7288 0.970 -0.224 0.096 131 118 102
-2398.2705 1577.2898 170.6684 0.781 -0.095 -0.617 155 141 125
-2366.3088 1564.5435 166.3837 0.353 -0.816 0.459 163 146 129
-2381.8647 1578.7135 165.4949 0.630 -0.595 0.500 170 148 122
-2390.3533 1588.9298 164.0825 0.189 -0.936 0.297 173 149 119
-2320.5203 1700.8623 102.5337 0.401 -0.245 -0.883 174 154 119
-2320.8552 1712.3574 98.3368 0.444 -0.263 -0.856 92 72 43
-2320.9668 1718.0925 96.2272 0.403 -0.298 -0.865 44 27 15
-2389.7124 1786.0342 90.3128 0.306 -0.393 -0.867 42 25 20
-2386.9878 1790.1528 88.0042 0.683 -0.014 -0.730 39 22 16
-2144.7676 1988.7889 -54.6918 0.412 -0.810 0.417 175 117 113
-2228.2649 3120.7937 -453.6970 0.815 -0.158 -0.558 205 143 128
-2283.9387 3215.1082 -473.1562 0.585 -0.089 -0.806 195 134 117
-2138.7859 3060.7715 -456.6058 0.643 0.029 -0.765 180 117 101
-2144.9285 3078.9500 -461.6546 0.991 0.115 0.074 180 117 100
-2172.7832 3208.5024 -502.1412 0.997 0.065 -0.047 181 126 108
-2147.5564 3183.4644 -499.9312 0.529 -0.838 -0.132 184 133 116
-2158.7695 3240.8792 -518.1941 0.574 0.069 -0.816 107 60 47
-2228.9268 3351.6680 -539.7060 0.545 0.136 -0.828 94 46 32
-1980.7372 3218.1658 -560.0881 0.729 -0.423 0.538 47 27 18
-1855.9980 3115.3247 -556.9874 0.582 -0.583 -0.567 26 8 4
-1860.6251 3132.9160 -562.2458 0.968 -0.233 -0.089 26 9 2
-1540.1163 2688.2024 -486.9005 0.838 0.033 -0.544 39 18 8
-1605.5000 3014.6633 -590.2836 0.679 0.322 0.660 34 20 5
-1594.1558 3044.4331 -604.6080 0.750 -0.289 0.595 34 18 5
-1601.1019 3067.2786 -611.1718 0.806 -0.263 0.530 34 18 5
-1566.7406 3898.5361 -931.2418 0.179 -0.801 0.571 23 17 13
-1526.0343 3870.0017 -932.1063 -0.114 -0.993 0.031 213 182 183
-2341.3801 1496.3789 179.3017 0.987 -0.041 0.154 30 22 9
-2366.6055 1536.0867 171.5186 0.906 0.095 -0.413 76 59 41
-2372.8167 1544.7855 170.0062 0.905 0.095 -0.416 103 85 66
-2385.0549 1556.8958 168.9109 0.965 0.028 -0.261 142 125 107
-2386.0334 1562.7545 166.9908 0.967 0.035 -0.254 166 150 131
-2404.0979 1578.2621 166.2612 0.794 -0.112 -0.598 173 155 136
-2403.3596 1583.2246 164.1941 0.966 -0.197 0.166 162 142 122
-2391.4204 1587.2111 159.3423 0.189 -0.936 0.297 175 148 118
-2262.2043 1628.6187 107.4819 0.290 -0.668 -0.685 191 165 129
-2329.5247 1715.4327 93.8884 0.363 -0.275 -0.890 50 30 6
-2330.1001 1721.4803 91.7842 0.363 -0.275 -0.890 40 25 14
-2324.3723 1723.4623 89.4305 0.427 -0.255 -0.867 33 19 12
-2313.0764 1733.1851 82.6101 0.502 -0.249 -0.828 39 25 21
-2195.9263 2107.0798 -90.4382 0.200 0.103 -0.974 55 13 15
-1758.7029 1871.5581 -125.1684 0.616 0.127 -0.778 68 37 33
-1767.7686 1885.9716 -128.0192 0.682 0.199 -0.704 81 49 44
-1773.9177 1897.6686 -130.6724 0.682 0.199 -0.704 98 67 63
-1780.1309 1909.4873 -133.3533 0.682 0.199 -0.704 149 118 115
-2143.7798 3072.3535 -466.7903 0.991 0.115 0.074 174 112 92
-2164.1829 3170.6440 -497.8806 0.772 -0.520 0.366 172 112 94
-2148.5879 3179.6379 -505.6371 0.572 -0.804 -0.163 176 129 115
-2255.0342 3383.3152 -552.0137 0.544 0.134 -0.828 64 21 8
-2101.6741 3237.0447 -540.3428 0.677 0.253 -0.691 61 28 23
-1528.2660 2672.7490 -490.1878 0.944 0.253 -0.213 72 38 20
-1531.8619 2687.3452 -494.6455 0.933 0.256 -0.254 77 43 19
-1537.4557 2705.3391 -499.8144 0.892 0.193 -0.410 81 45 17
-1538.6942 2716.1724 -503.5252 0.797 0.110 -0.594 82 45 14
-1576.1899 2966.7695 -586.8765 0.661 0.289 0.693 49 26 1
-1580.1576 3053.9055 -618.4100 0.626 -0.322 0.710 41 20 1
-1329.5280 2893.4480 -628.7827 0.030 -0.344 -0.938 45 31 22
-1331.3242 2917.0312 -637.1141 0.035 -0.339 -0.940 48 30 23
-1548.5874 3832.6470 -919.0817 0.134 -0.969 0.206 18 19 14
-1568.3059 3894.3291 -936.6475 0.179 -0.801 0.571 23 17 13
-1560.4346 3889.4539 -937.0348 0.022 -0.998 0.054 28 11 11
-1546.6443 3870.0720 -933.6512 0.113 -0.991 0.072 61 37 37
-1533.1368 3865.3184 -935.6694 -0.127 -0.970 0.208 170 148 145
-2292.5662 1452.7952 176.5689 0.870 -0.475 0.131 34 23 9
-2286.4861 1454.4890 174.2319 0.952 -0.024 -0.304 34 23 8
-2372.1289 1536.8970 167.1886 0.890 0.069 -0.450 118 92 66
-2374.8115 1543.6337 165.4053 0.905 0.095 -0.416 153 125 100
-2386.2783 1555.2983 164.2250 0.965 0.028 -0.261 170 144 119
-2404.5986 1570.8695 163.4919 0.797 -0.097 -0.596 172 146 122
-2407.5994 1577.9182 161.6803 0.794 -0.112 -0.598 172 146 121
-2403.0356 1580.7206 159.3504 0.966 -0.197 0.166 172 146 120
-2404.9392 1587.1844 157.4520 0.202 -0.976 0.081 178 150 119
-2271.0129 1631.7338 103.2536 0.286 -0.667 -0.688 187 163 132
-2171.9243 1961.3522 -48.4031 0.955 -0.298 0.002 41 37 25
-2178.4451 1979.1658 -53.2786 0.471 -0.734 -0.490 44 35 25
-2212.3328 2111.4465 -93.5471 0.200 0.105 -0.974 44 14 24
-1719.3018 1814.6566 -119.7924 0.576 0.061 -0.815 69 39 43
-1769.9432 1879.5029 -130.0182 0.630 0.124 -0.767 79 34 25
-1777.8799 1892.8527 -132.8192 0.742 0.128 -0.659 108 63 54
-1781.7491 1902.3817 -135.3207 0.742 0.128 -0.659 147 101 93
-1784.3527 1910.7395 -137.7356 0.969 0.239 0.065 183 138 129
-1790.7405 1922.7810 -140.4778 0.696 0.183 -0.694 184 137 129
-2288.3254 3210.4150 -485.5615 0.662 -0.203 -0.721 171 110 88
-2164.6243 3166.0232 -503.4550 0.572 -0.777 0.264 158 101 84
-2160.3933 3170.3706 -506.2728 0.772 -0.520 0.366 159 108 92
-2156.0066 3174.4973 -509.0511 0.620 -0.749 0.234 158 115 101
-2153.8813 3181.7837 -512.3853 0.635 -0.750 0.186 139 103 91
-2166.2083 3219.7683 -523.2227 0.646 0.214 -0.733 81 49 39
-2198.4485 3275.7861 -535.2736 0.646 0.214 -0.733 57 25 15
-2309.7310 3466.8208 -575.9966 0.557 0.136 -0.819 55 21 13
-1529.5858 2679.0005 -497.8694 0.935 0.258 -0.242 97 53 20
-1537.7700 2701.2380 -503.9435 0.895 0.183 -0.406 102 56 18
-1543.2994 2719.1897 -509.1481 0.797 0.110 -0.594 101 56 15
-1523.9767 2766.6494 -532.3977 0.980 0.071 0.185 99 55 32
-1523.9926 2775.7087 -535.8000 0.951 0.034 0.306 87 44 19
-1518.5347 2964.3606 -608.2677 0.226 -0.696 0.682 33 26 2
-1550.1658 3842.5696 -929.6699 0.260 -0.943 0.209 23 17 13
-1562.1897 3885.7295 -942.5381 0.015 -0.999 0.049 25 13 9
-1541.4771 3863.6387 -940.0222 0.048 -0.999 0.008 104 81 81
-2314.5391 1462.4274 173.7108 0.873 -0.066 0.483 36 23 7
-2317.8909 1469.2322 172.0742 0.978 0.200 -0.057 36 23 7
-2374.3608 1535.8817 162.6158 0.890 0.069 -0.450 149 122 95
-2382.6240 1545.7098 161.2033 0.995 -0.086 -0.046 175 145 119
-2380.6506 1549.8859 159.0788 0.818 -0.372 0.438 176 149 122
-2426.8755 1591.8492 156.0893 0.970 -0.206 0.128 174 147 119
-2292.2793 1631.7123 103.6372 0.446 -0.546 -0.710 187 164 132
-2279.2849 1629.0973 101.0125 0.338 -0.441 -0.832 187 164 132
-2277.6279 1633.4723 98.9009 0.346 -0.422 -0.838 186 164 134
-2300.0247 1652.8462 97.8140 0.906 -0.026 -0.422 176 160 138
-2345.6482 1703.7527 91.2823 0.493 -0.178 -0.851 73 60 43
-2349.1904 1723.0302 84.9917 0.450 -0.245 -0.859 26 14 1
-2386.7981 1752.9253 84.1617 0.461 -0.331 -0.823 33 26 13
-2316.9265 1719.2892 77.4364 0.803 0.026 -0.596 32 28 17
-2180.7825 1885.8441 -23.2585 0.798 -0.169 0.579 39 31 20
-2172.6335 1959.0469 -53.1495 0.955 -0.298 0.002 38 31 21
-2172.2834 1965.0000 -55.4935 0.534 -0.746 -0.397 38 31 21
-2182.0049 1979.1503 -58.1319 0.412 -0.757 -0.508 39 30 21
-3179.1492 3089.5681 -200.0611 0.423 -0.065 -0.904 34 37 44
-1726.1576 1818.4541 -124.1792 0.583 0.064 -0.810 72 38 42
-1753.8103 1850.0707 -128.4256 0.636 0.046 -0.770 76 37 39
-1764.9340 1866.2662 -131.4461 0.653 0.165 -0.740 94 47 37
-1777.3975 1883.8256 -134.6089 0.618 0.096 -0.780 111 63 51
-1782.3505 1894.3368 -137.1992 0.676 0.058 -0.735 138 90 78
-1786.2744 1903.9164 -139.7239 0.789 0.193 -0.583 163 113 102
-1790.6775 1914.0002 -142.3057 0.793 0.191 -0.579 186 136 125
-1788.6288 1917.9242 -144.3560 0.961 0.278 0.012 186 136 125
-2273.5842 3185.6323 -487.9973 0.194 -0.956 -0.222 172 110 85
-2173.8416 3173.5430 -511.1561 0.876 0.082 -0.475 150 97 77
-2160.9341 3165.8887 -511.8548 0.572 -0.777 0.264 130 84 63
-2161.5901 3177.0251 -515.8752 0.631 -0.750 0.201 114 75 58
-2156.6855 3180.4390 -518.5268 0.631 -0.750 0.201 89 54 43
-2031.9752 3259.2039 -582.9126 0.103 -0.990 -0.095 39 22 7
-2016.5830 3299.6450 -602.4528 -0.263 -0.889 -0.375 29 7 0
-1521.4014 2643.8538 -492.5868 0.896 0.172 -0.409 100 55 29
-1527.2688 2662.0220 -497.8126 0.896 0.172 -0.409 101 55 27
-1528.9486 2673.3862 -501.6345 0.935 0.260 -0.241 107 59 25
-1539.2435 2699.0671 -508.4651 0.898 0.176 -0.402 112 62 23
-1546.1143 2719.2166 -514.1597 0.801 0.103 -0.589 113 62 21
-1520.5385 2764.9482 -538.5268 0.946 0.041 0.320 114 62 33
-1520.7639 2801.6724 -552.3236 0.715 -0.675 -0.181 84 42 11
-1556.3951 2911.3442 -583.8101 0.809 -0.550 0.207 70 36 4
-1555.4930 2919.3401 -587.0784 0.645 -0.674 0.359 72 36 5
-1471.4567 2929.4548 -614.2517 0.747 -0.553 0.367 32 21 1
-1340.3115 2934.8967 -652.7543 0.023 -0.421 -0.907 32 22 13
-1545.2811 3822.9558 -930.9348 0.222 -0.971 0.087 23 16 13
-1555.3257 3861.1748 -942.5667 0.164 -0.975 -0.150 29 17 13
-1542.9694 3859.3359 -945.3068 0.165 -0.974 -0.154 76 55 54
-2326.0034 1456.4032 173.7834 0.778 -0.303 0.550 34 26 9
-2323.1575 1459.8898 171.6767 0.778 -0.303 0.550 35 23 7
-2321.0742 1468.7961 167.7279 0.986 0.162 -0.048 36 23 7
-2349.5039 1504.4639 162.0731 0.983 0.148 -0.107 88 73 57
-2355.1799 1512.7095 160.5182 0.973 0.176 -0.148 128 106 83
-2358.2715 1519.5740 158.7724 0.977 0.150 -0.149 149 123 99
-2381.1838 1542.6499 156.3623 0.955 -0.279 0.099 179 152 123
-2379.4089 1546.9275 154.2519 0.818 -0.372 0.438 177 150 123
-2414.2273 1571.6447 154.5094 0.960 -0.260 0.107 172 146 121
-2278.9229 1615.7616 100.4217 0.942 -0.159 -0.294 187 164 132
-2289.8721 1633.2684 96.8159 0.482 -0.398 -0.781 188 165 134
-2297.1978 1643.2302 95.0668 0.794 0.141 -0.592 186 164 134
-2310.7922 1657.1428 93.5531 0.789 0.219 -0.574 162 148 125
-2315.1758 1665.3824 91.6434 0.786 0.207 -0.582 136 123 104
-2327.0581 1678.3610 90.0105 0.811 0.239 -0.533 100 87 70
-2330.4739 1686.0819 88.0299 0.823 0.130 -0.553 71 60 42
-2354.0381 1706.5698 86.7801 0.502 -0.163 -0.849 44 33 15
-2357.2285 1714.2612 84.7485 0.491 -0.184 -0.852 38 27 7
-2354.8726 1718.4500 82.5111 0.476 -0.191 -0.859 35 24 6
-2400.6355 1759.2437 79.7032 0.517 -0.292 -0.805 33 26 14
-2178.3838 1881.2510 -27.9044 0.798 -0.169 0.579 39 31 20
-2169.2876 1959.6970 -60.1280 0.581 -0.429 -0.692 31 24 14
-2226.4683 2057.6509 -81.4305 -0.078 -0.313 -0.947 59 31 32
-3172.6270 3078.8601 -206.8197 0.283 -0.063 -0.957 34 37 42
-1761.5126 1854.6168 -132.9807 0.641 0.025 -0.767 79 39 41
-1774.6064 1872.6694 -136.2007 0.658 0.162 -0.735 116 67 57
-1782.1530 1885.5743 -139.0035 0.628 0.108 -0.771 146 96 85
-1787.3483 1896.3135 -141.6357 0.676 0.058 -0.735 171 121 110
-1790.3020 1904.9678 -144.0974 0.750 0.139 -0.647 178 129 115
-1795.1769 1915.4993 -146.7393 0.763 0.139 -0.631 188 136 123
-1799.3168 1925.3760 -149.3364 0.758 0.142 -0.636 188 136 123
-2372.1428 3114.4849 -441.4520 0.642 -0.677 -0.360 205 143 130
-2170.6785 3153.7773 -511.9896 0.874 0.082 -0.480 164 111 97
-2177.1931 3172.9377 -517.4466 0.876 0.082 -0.475 137 91 69
-2162.4109 3162.7136 -517.6580 0.756 -0.632 0.173 101 59 35
-2164.0430 3175.1890 -521.9321 0.631 -0.722 0.284 72 35 18
-2160.0144 3179.8257 -524.8011 0.670 -0.705 0.231 57 24 14
-2497.1829 3746.5889 -646.3116 0.606 0.201 -0.769 66 36 33
-1523.5336 2720.7629 -526.7682 0.755 -0.420 0.505 120 64 26
-1525.9479 2733.6887 -530.9968 0.841 -0.228 -0.490 132 75 42
-1520.9219 2824.6548 -566.8378 0.815 -0.405 0.414 90 53 20
-1524.0217 2839.4124 -571.5707 0.827 -0.352 0.439 78 41 9
-1527.5835 2855.0691 -576.5166 0.802 -0.393 0.449 78 40 7
-1530.6705 2869.9658 -581.3057 0.667 -0.612 0.425 79 39 7
-1537.0596 2890.8474 -587.4493 0.841 -0.532 0.102 78 39 9
-1538.5076 2902.9841 -591.6460 0.722 -0.669 0.176 73 38 11
-1487.7373 3035.3423 -655.8010 0.807 0.272 0.524 34 19 6
-1390.8810 3056.2004 -690.4581 0.812 -0.089 -0.577 32 21 15
-1526.4044 3485.0461 -815.4397 -0.065 -0.571 0.818 36 25 19
-1560.6343 3866.0886 -950.2994 0.129 -0.989 -0.074 33 20 17
-1555.1620 3866.9385 -952.1331 0.129 -0.989 -0.074 44 26 24
-2355.1951 1479.8251 167.5131 0.876 -0.284 0.389 37 25 9
-2349.9302 1492.2690 161.3376 0.977 0.188 -0.105 64 55 38
-2349.5984 1497.1979 159.3732 0.984 0.150 -0.097 97 85 69
-2355.7429 1505.6602 157.8441 0.975 0.188 -0.122 125 110 94
-2356.6748 1511.3163 155.9501 0.976 0.174 -0.128 150 129 106
-2381.3311 1540.4745 151.6378 0.955 -0.279 0.099 173 146 117
-2378.1709 1543.9777 149.4385 0.818 -0.372 0.438 175 148 121
-2279.4888 1608.4169 97.8492 0.917 0.290 -0.273 188 163 132
-2296.8672 1635.2073 92.4385 0.532 -0.388 -0.752 191 166 135
-2315.0115 1657.3530 89.0033 0.786 0.207 -0.582 142 127 104
-2318.4871 1665.0239 87.0421 0.786 0.207 -0.582 110 97 79
-2327.1091 1675.9484 85.2574 0.806 0.224 -0.547 74 61 45
-2333.5215 1685.5409 83.3722 0.823 0.130 -0.553 47 34 18
-2361.8931 1709.0358 82.2326 0.496 -0.185 -0.848 38 25 8
-2175.0737 1875.9711 -32.5154 0.413 -0.224 0.883 39 31 20
-2151.6626 1936.4542 -61.9326 0.963 -0.264 -0.051 26 19 9
-2155.1506 1945.4216 -64.3832 0.957 -0.261 -0.127 26 19 9
-2179.0317 1970.9366 -67.5237 0.519 -0.678 -0.521 27 18 9
-2230.3718 2018.9221 -71.6650 -0.035 -0.395 -0.918 28 19 10
-2233.4280 2027.8563 -74.2215 -0.034 -0.393 -0.919 49 31 28
-2265.4067 2086.9524 -87.9021 -0.078 -0.313 -0.947 44 22 22
-3211.2803 3129.5928 -224.4700 0.310 -0.039 -0.950 42 46 50
-1765.9574 1856.0862 -137.2957 0.765 0.039 -0.643 88 47 50
-1773.6886 1869.0706 -140.1079 0.694 0.170 -0.700 134 85 77
-1780.1105 1880.8867 -142.8357 0.666 0.134 -0.734 167 117 106
-1791.1273 1897.1235 -145.9820 0.667 0.006 -0.745 190 140 129
-2378.0256 3057.4072 -425.8345 0.736 -0.659 -0.156 204 142 129
-2372.1033 3060.0217 -428.4545 0.561 -0.825 0.069 206 144 131
-2372.2852 3070.0571 -432.2189 0.566 -0.819 0.095 206 144 131
-2366.9749 3073.4136 -434.9527 0.566 -0.819 0.095 206 144 131
-2383.3901 3103.4128 -441.8476 0.654 -0.676 -0.340 201 139 126
-2184.7151 2990.1702 -453.3593 0.661 0.131 -0.739 200 137 119
-2264.9644 3133.5198 -485.8090 0.836 0.325 -0.442 184 121 104
-2274.4136 3186.5693 -503.3778 0.223 -0.933 -0.282 193 128 101
-2197.3818 3104.3528 -493.2803 0.498 -0.029 -0.867 189 124 102
-2190.8584 3155.9043 -514.6656 0.235 -0.704 0.670 181 121 109
-2169.8633 3157.6191 -521.0825 0.747 -0.550 -0.374 108 68 46
-2162.5515 3157.6978 -523.1201 0.745 -0.639 0.189 69 34 13
-2159.7927 3164.0576 -526.2948 0.666 -0.716 0.208 48 16 2
-2162.7529 3178.3875 -530.9285 0.620 -0.761 -0.189 42 13 3
-2092.3623 3181.2893 -551.3599 0.618 0.075 -0.783 64 39 34
-2120.2214 3242.3652 -566.9243 0.670 0.139 -0.729 53 25 21
-2086.0339 3297.9661 -597.4448 0.880 -0.290 -0.377 49 30 24
-2084.3909 3306.2336 -601.0384 0.874 -0.294 -0.387 56 38 28
-2069.1838 3293.9839 -600.5580 0.798 -0.491 -0.351 58 42 29
-1523.9406 2707.9988 -527.5504 0.699 -0.434 0.568 125 63 24
-1527.9789 2723.5823 -532.3646 0.791 -0.386 -0.475 124 63 26
-1529.4408 2734.8945 -536.2628 0.826 -0.213 -0.522 134 73 37
-1527.8867 2741.1428 -539.0643 0.816 -0.249 -0.522 137 76 41
-1522.0836 2740.1719 -540.2888 0.985 -0.173 -0.011 138 76 42
-1512.8512 2851.9050 -585.2921 0.696 -0.702 0.150 80 41 19
-1496.6183 3026.6772 -656.1779 0.793 0.261 0.551 37 13 0
-1497.1943 3037.9814 -660.3163 0.798 0.214 0.563 37 13 0
-1493.2301 3040.4951 -662.3602 0.801 0.027 0.598 35 15 1
-1488.8772 3042.2380 -664.2179 0.388 -0.290 0.875 34 15 3
-1485.8551 3046.5757 -666.6965 0.390 -0.289 0.874 33 16 4
-1551.7216 3836.7393 -948.9403 0.181 -0.976 0.123 37 20 18
-1555.9360 3860.8992 -956.9659 0.051 -0.801 0.597 37 18 17
-1534.1371 3850.0757 -958.8378 0.091 -0.811 0.578 46 27 26
-2351.7444 1455.6851 170.3189 0.463 -0.797 0.389 31 27 18
-2341.9062 1455.5354 167.6909 0.483 -0.805 0.345 31 27 17
-2370.5586 1475.6526 167.8374 0.777 -0.021 0.629 31 24 12
-2374.6873 1482.9222 166.1913 0.902 0.222 0.371 33 24 9
-2370.0154 1485.5431 163.9166 0.663 -0.359 0.657 42 30 16
-2346.4563 1478.0708 160.3371 0.997 0.063 -0.046 46 34 20
-2348.7310 1484.3585 158.5595 0.997 0.060 0.048 72 63 48
-2351.8252 1491.1102 156.8286 0.975 0.193 -0.107 98 89 74
-2353.2659 1496.9946 154.9773 0.976 0.194 -0.102 127 115 101
-2355.9180 1503.5560 153.1984 0.975 0.188 -0.122 151 137 122
-2366.3364 1514.3760 151.9148 0.941 0.204 -0.270 167 145 123
-2382.6433 1528.4790 150.9859 0.979 -0.070 0.191 170 144 119
-2381.9021 1533.2982 148.9454 0.979 -0.070 0.191 171 144 116
-2279.7563 1606.2466 93.2432 0.909 0.071 -0.411 187 161 128
-2289.9565 1617.8115 91.6158 0.862 0.283 -0.420 184 160 126
-2313.0813 1637.3596 90.4707 0.858 0.293 -0.423 192 168 134
-2302.4111 1636.2428 87.9846 0.532 -0.388 -0.752 180 155 124
-2313.8154 1648.7227 86.3369 0.786 0.205 -0.583 152 129 99
-2318.3152 1656.9908 84.4112 0.786 0.207 -0.582 86 70 47
-2321.8020 1664.6649 82.4357 0.786 0.207 -0.582 68 52 35
-2155.5417 1942.8888 -69.0631 0.955 -0.267 -0.132 23 16 6
-2167.0884 1958.3936 -71.8258 0.668 -0.459 -0.586 23 16 6
-2242.9148 2026.1249 -76.9662 -0.024 -0.328 -0.944 24 16 6
-2250.6079 2045.3665 -82.2059 -0.039 -0.403 -0.915 31 18 12
-3466.4497 3335.0029 -242.2872 0.317 0.102 -0.943 33 38 44
-3308.8296 3203.0129 -234.9597 0.282 0.016 -0.959 33 38 44
-1768.3573 1855.6307 -141.4500 0.650 0.222 -0.727 123 84 87
-1777.9093 1870.3131 -144.4434 0.693 0.176 -0.699 165 117 109
-1783.9359 1881.7498 -147.1609 0.676 0.147 -0.723 175 127 117
-1792.2817 1895.4414 -150.1056 0.454 -0.261 -0.852 190 142 132
-2350.7842 3009.9900 -422.8031 0.739 -0.670 -0.066 198 136 123
-2333.7075 3027.8936 -434.2928 0.693 -0.693 0.199 202 140 127
-2252.8069 3102.6084 -484.8705 0.790 0.268 -0.551 188 125 107
-2275.5916 3193.1797 -513.1989 0.220 -0.935 -0.279 189 125 100
-2160.0444 3059.3438 -493.6847 0.177 -0.979 -0.104 186 120 96
-2209.4355 3155.6335 -516.9328 0.032 -0.915 -0.402 194 130 113
-2192.4556 3142.7795 -516.6641 0.357 -0.741 0.569 182 122 108
-2195.2498 3177.0793 -528.9845 0.915 -0.076 -0.396 108 67 47
-2206.3232 3202.5476 -535.6767 0.992 -0.072 -0.101 69 36 18
-2163.6738 3154.0491 -528.8176 0.676 -0.704 0.215 42 13 1
-2158.9875 3157.7300 -531.5006 0.676 -0.704 0.215 34 7 0
-2158.2742 3166.9221 -535.2015 0.665 -0.682 -0.306 39 14 2
-2267.4321 3372.7246 -583.9097 0.566 0.105 -0.818 59 30 19
-2176.4111 3329.1543 -592.1319 0.730 0.285 -0.621 48 17 14
-2172.2410 3355.6157 -603.3633 0.860 -0.119 0.496 30 11 4
-2071.4817 3270.5547 -598.4175 0.950 -0.278 -0.142 59 42 35
-2076.7993 3289.2100 -604.0818 0.915 -0.214 -0.341 67 52 42
-2004.0405 3263.3630 -614.0803 -0.399 -0.916 -0.052 61 33 14
-1524.1445 2703.7039 -531.5815 0.619 -0.336 -0.710 133 62 28
-1530.8875 2723.8022 -537.4075 0.785 -0.361 -0.503 132 62 26
-1544.1920 2755.0930 -545.7116 0.493 -0.487 -0.721 141 70 34
-1533.1349 2754.2385 -548.4034 0.662 -0.321 -0.677 142 74 35
-1517.7542 2736.9583 -546.0098 0.324 -0.434 0.840 143 74 37
-1517.5903 2754.5186 -552.7526 0.966 -0.028 0.256 142 71 33
-1518.0267 2764.2468 -556.3442 0.965 -0.043 0.257 135 64 27
-1516.9125 2771.3345 -559.3517 0.965 -0.043 0.257 128 61 27
-1487.9927 2984.4631 -648.5384 0.846 0.313 0.431 51 21 11
-1489.1117 2996.6221 -652.8707 0.841 0.296 0.452 49 18 8
-1493.3340 3024.9653 -662.5294 0.791 0.268 0.550 47 19 9
-1492.5070 3033.5376 -666.0248 0.778 0.235 0.583 43 19 9
-1490.1686 3039.1948 -668.8209 0.701 0.161 0.695 38 18 9
-1532.7723 3783.4033 -941.0576 0.668 -0.649 0.363 38 17 16
-1571.0135 3903.5552 -976.4505 -0.099 -0.993 -0.058 37 17 16
-2343.7644 1454.3839 163.2339 0.605 -0.717 0.346 34 26 18
-2360.0786 1467.9766 162.4562 0.906 0.188 0.380 29 21 7
-2374.1406 1480.4629 161.4910 0.901 0.220 0.374 36 26 12
-2375.1086 1486.0737 159.6060 0.901 0.232 0.368 55 43 29
-2346.5349 1475.9548 155.7286 0.997 0.063 -0.046 71 59 43
-2351.4976 1483.6722 154.1207 0.998 0.061 0.014 107 95 79
-2359.8159 1493.2279 152.7194 0.979 -0.192 -0.064 133 122 106
-2359.0293 1497.9194 150.7101 0.979 -0.192 -0.064 148 135 120
-2382.6306 1526.2365 146.2730 0.738 -0.289 0.610 169 143 117
-2382.8599 1531.5814 144.2893 0.948 -0.301 0.107 173 143 116
-2281.1887 1599.4662 90.7263 0.907 0.081 -0.413 186 161 130
-2283.0327 1605.9059 88.7615 0.905 0.087 -0.417 187 162 131
-2311.3831 1628.5193 87.7957 0.858 0.293 -0.423 184 159 129
-2314.9329 1636.1122 85.8522 0.858 0.293 -0.423 167 142 111
-2312.8440 1640.2733 83.6928 0.778 0.225 -0.587 133 108 77
-2318.8279 1649.4163 81.8163 0.791 0.207 -0.576 101 78 48
-2322.2676 1657.0276 79.8359 0.791 0.207 -0.576 57 41 19
-2325.7268 1664.6821 77.8442 0.791 0.207 -0.576 47 31 15
-2364.0220 1699.7389 74.8130 0.967 -0.174 -0.188 32 17 2
-2374.7292 1712.1229 72.9771 0.606 -0.341 -0.719 38 25 8
-2137.5015 1937.7809 -77.7475 0.428 -0.891 -0.150 23 16 6
-1782.8367 1872.2113 -148.8522 0.693 0.176 -0.699 171 124 116
-1788.9741 1883.7490 -151.6038 0.674 0.145 -0.724 177 129 119
-1793.3229 1899.4800 -156.4456 0.700 -0.258 -0.666 190 142 130
-2367.6990 3025.5181 -431.6650 0.950 -0.311 -0.011 199 137 124
-2362.3318 3028.7351 -434.3523 0.911 -0.405 -0.077 196 134 121
-2358.2456 3033.4900 -437.2807 0.678 -0.609 0.411 196 134 121
-2336.0930 3016.3101 -436.7135 0.909 -0.408 -0.087 196 134 121
-2392.2666 3114.2903 -458.9808 0.811 0.351 -0.468 193 131 118
-2402.3083 3136.6499 -464.8156 0.741 0.384 -0.551 193 131 118
-2273.2878 3134.1904 -498.8711 0.790 0.268 -0.551 162 99 80
-2283.8657 3158.0837 -505.1476 0.927 0.231 -0.296 169 107 86
-2290.1458 3176.4746 -510.4838 0.927 0.231 -0.296 186 121 98
-2187.1343 3100.4358 -509.3199 0.997 0.042 -0.058 186 121 94
-2212.3745 3144.3137 -519.2689 0.021 -0.958 -0.287 183 121 97
-2205.4666 3145.1172 -521.4502 0.021 -0.958 -0.287 182 123 105
-2193.0244 3138.4041 -522.2555 0.344 -0.740 0.579 160 108 92
-2193.7046 3149.4280 -526.2908 0.364 -0.675 0.641 129 81 62
-2207.3728 3188.4375 -537.5151 0.993 -0.091 -0.074 73 38 17
-2208.5334 3200.3113 -541.7452 0.992 -0.072 -0.108 44 18 3
-2223.5312 3252.1982 -557.5381 0.996 -0.047 0.074 44 21 8
-2041.5372 3283.5586 -618.9081 -0.385 -0.890 0.245 83 69 57
-2009.3815 3266.0747 -620.9380 -0.399 -0.916 -0.052 79 51 32
