ply
format ascii 1.0
element vertex 789
property float x
property float y
property float z
property float nx
property float ny
property float nz
property uchar diffuse_red
property uchar diffuse_green
property uchar diffuse_blue
end_header
-3018.4307 2975.6038 975.7765 0.808 -0.589 0.024 153 99 62
-2942.2097 2960.3623 923.2822 -0.683 -0.701 -0.206 54 40 19
-2880.3149 2917.6719 892.6819 -0.622 -0.619 -0.479 50 35 28
-2799.3506 2853.0552 856.1349 0.168 -0.869 -0.465 47 23 27
-2780.3135 2848.2463 843.4213 0.147 -0.864 -0.481 75 32 8
-2448.7227 2799.1921 608.2059 0.155 -0.508 0.847 160 90 32
-2305.4221 2668.9050 549.8372 0.287 -0.738 0.611 175 100 49
-2296.9590 2666.3494 544.3509 0.298 -0.740 0.603 177 100 50
-2287.6428 2662.6785 538.6523 0.282 -0.744 0.606 176 98 51
-2174.9619 2648.0422 457.9148 0.609 -0.645 0.463 119 56 25
-2238.1301 2857.4143 423.3598 0.278 -0.960 -0.035 189 93 42
-2197.1716 2818.3804 407.3891 0.496 -0.838 -0.227 189 93 42
-2400.5610 3114.1323 446.2586 0.209 -0.655 0.726 194 97 46
-2565.0591 3356.7117 476.3545 -0.391 -0.524 -0.756 196 99 48
-2446.0549 3415.9141 361.4639 -0.356 -0.723 -0.592 28 5 5
-1823.9618 4730.0488 -637.7357 0.774 -0.485 0.407 220 144 128
-1690.3251 4513.7783 -654.5671 0.505 -0.858 -0.093 171 100 93
-1103.2548 5372.4067 -1446.1390 0.654 -0.314 -0.688 231 107 100
-740.4498 4000.5537 -1180.4900 0.635 -0.155 -0.757 255 93 120
-794.6663 4745.5972 -1434.4552 0.316 -0.583 -0.748 255 86 127
-694.5172 4198.0664 -1294.1343 0.619 -0.744 0.252 255 65 111
-3150.5884 2461.3081 1271.7919 0.981 -0.153 -0.119 115 67 42
-3288.6726 2647.0137 1303.5713 0.605 -0.413 0.681 125 62 30
-3296.7039 2660.9600 1304.1639 0.841 -0.500 0.208 125 62 31
-3282.8403 2662.6360 1292.8607 0.882 -0.465 0.080 126 63 32
-3286.4609 2672.7925 1291.5830 0.895 -0.401 -0.196 128 63 32
-3291.9934 2684.6826 1291.0797 0.942 -0.292 -0.163 127 62 32
-3290.7375 2690.5901 1287.7579 0.942 -0.292 -0.163 130 63 33
-3075.9817 2664.0195 1133.6342 0.037 -0.649 0.760 63 48 31
-2892.8433 2594.5332 1020.8965 0.674 -0.738 -0.011 79 57 44
-2870.4563 2579.6294 1009.6743 0.562 -0.814 -0.148 88 66 53
-2878.7898 2609.1045 1004.2993 0.795 -0.390 -0.465 132 108 96
-2889.6426 2627.0208 1005.4711 0.622 -0.484 -0.616 135 111 99
-2891.0217 2635.5957 1003.1056 0.579 -0.590 -0.562 136 113 99
-2898.4028 2650.1899 1002.9410 0.324 -0.918 -0.228 138 114 102
-2906.0923 2672.4822 999.9394 0.964 -0.213 -0.157 153 127 117
-2950.8911 2848.2285 964.1390 0.920 -0.323 0.224 114 64 33
-3033.3442 2959.2844 983.0485 0.659 -0.554 0.509 146 94 63
-3037.4397 2971.9043 981.1516 0.298 -0.746 0.595 151 96 64
-3027.0540 2969.2043 974.2630 0.572 -0.768 0.288 146 95 65
-3021.2903 2971.3982 968.9661 0.808 -0.589 0.024 120 77 49
-2997.7764 2954.6455 957.6176 0.536 -0.805 0.255 108 69 42
-3051.6978 3054.8501 958.9736 -0.672 -0.659 -0.337 80 43 18
-2899.3506 2939.6816 888.0928 -0.627 -0.616 -0.477 43 21 18
-2349.8401 2693.2222 564.9778 0.164 -0.532 0.831 174 103 58
-2338.2402 2686.8579 558.6207 0.164 -0.532 0.831 174 102 53
-2291.2307 2660.1399 533.2281 0.273 -0.750 0.603 162 91 47
-2210.9302 2829.7727 403.9089 0.174 -0.940 -0.295 195 98 45
-2406.8284 3114.2610 440.5980 0.243 -0.644 0.725 195 98 45
-2614.0239 3416.4036 478.9045 -0.396 -0.540 -0.742 198 101 48
-2607.9624 3440.9204 464.4671 -0.382 -0.538 -0.752 191 102 55
-2603.5398 3445.7354 459.1523 -0.384 -0.540 -0.749 186 104 60
-2596.0083 3446.1145 453.2238 -0.377 -0.538 -0.754 163 88 47
-2453.2090 3416.8372 355.3761 -0.472 -0.712 -0.520 28 5 5
-2449.0295 3421.9417 350.1322 -0.454 -0.678 -0.578 19 3 3
-2232.9055 3494.2339 155.4894 0.855 -0.260 -0.448 197 170 157
-959.8555 4688.6860 -1297.8896 -0.098 -0.691 -0.716 244 58 71
-947.7803 4703.4292 -1313.0381 -0.106 -0.693 -0.713 241 26 50
-435.9760 3517.0437 -1231.9786 0.954 -0.292 -0.073 255 122 139
-373.2852 3580.2671 -1305.3075 0.091 -0.875 0.476 221 51 65
-352.6158 3585.0427 -1323.0690 0.266 -0.842 0.470 222 14 36
-3086.7456 2667.9407 1130.3347 0.005 -0.695 0.719 75 52 37
-2892.4158 2587.9688 1013.5877 0.109 -0.988 -0.112 77 55 42
-2874.2676 2577.2441 1003.9929 0.214 -0.938 -0.274 85 63 50
-2868.8655 2578.9753 999.1591 0.309 -0.910 -0.277 99 75 63
-2896.5288 2627.5864 1000.8239 0.630 -0.487 -0.605 117 93 81
-2914.1951 2652.3176 1004.4230 0.835 -0.411 -0.366 124 101 87
-2940.4766 2822.5627 956.1682 0.982 -0.186 -0.016 115 64 31
-2980.6118 2872.3972 966.8962 0.594 -0.449 -0.668 129 80 47
-2997.3545 2897.9631 969.4525 0.414 -0.516 -0.750 137 91 58
-3036.0942 2946.7698 979.5243 0.603 -0.736 -0.307 130 86 55
-3041.3428 2960.5322 978.0165 0.520 -0.657 0.545 123 80 54
-3041.6123 2969.0955 974.7832 0.209 -0.777 0.594 114 75 48
-3019.1458 2970.1992 957.1286 0.888 -0.326 0.324 68 44 25
-3109.1692 3074.6648 984.1293 0.057 -0.511 -0.858 68 44 26
-3099.7263 3107.9431 963.5273 -0.662 -0.677 -0.323 50 37 19
-2859.4822 2947.0586 844.1093 -0.344 -0.599 -0.723 174 96 50
-2414.5564 2725.4756 592.2720 0.941 -0.303 -0.151 139 62 16
-2350.3503 2686.7354 558.6472 0.201 -0.580 0.790 149 77 38
-2263.8088 2858.7905 423.2339 0.248 -0.553 -0.795 180 89 40
-2416.9849 3109.8240 439.7372 0.535 -0.730 0.425 200 100 50
-2620.0632 3482.0605 445.7817 -0.347 -0.558 -0.753 100 37 8
-2469.0317 3430.7534 350.6900 -0.472 -0.712 -0.520 29 6 6
-2276.0525 3304.6780 253.4977 0.567 -0.239 -0.788 12 12 10
-2230.8357 3492.4248 143.4389 0.441 -0.230 -0.867 210 179 166
-2223.9270 3493.1963 137.8364 0.309 -0.276 -0.910 218 183 173
-1745.9221 4180.2100 -504.3311 -0.535 -0.844 0.038 240 195 192
-1083.9550 5151.1440 -1401.4811 -0.434 -0.798 -0.419 235 117 108
-859.9204 4995.4751 -1510.5762 -0.359 -0.579 -0.732 254 84 118
-440.8297 3469.1443 -1218.4963 0.897 -0.299 -0.326 247 113 128
-382.8319 3577.5737 -1306.4841 0.118 -0.978 0.174 216 53 68
-378.3509 3587.1946 -1313.7817 -0.141 -0.975 0.171 216 45 60
-2913.7971 2588.5916 1020.0925 0.133 -0.937 -0.323 73 54 40
-2912.3970 2594.2673 1016.7272 0.284 -0.880 -0.380 72 53 39
-2898.5679 2587.8416 1008.7438 0.109 -0.988 -0.112 73 51 38
-2879.6277 2576.3752 998.8871 0.293 -0.915 -0.279 79 57 44
-2875.2639 2579.1272 994.4362 0.293 -0.915 -0.279 93 69 57
-2948.0479 2679.5320 1009.5415 0.886 -0.211 -0.412 124 101 87
-2933.4990 2694.4692 992.3729 0.556 -0.303 -0.774 157 126 114
-2930.7976 2744.1248 970.2364 0.787 -0.348 0.510 152 101 69
-3006.9802 2892.9497 968.3715 0.918 -0.396 -0.034 130 81 41
-3045.9351 2941.7505 978.4514 0.740 -0.626 -0.248 126 84 44
-3046.9414 2951.0068 975.4802 0.757 -0.609 -0.238 110 73 38
-3038.0845 2958.1726 965.8075 0.310 -0.751 0.583 88 63 36
-2415.7742 2728.0710 582.6833 0.758 -0.566 0.326 131 58 23
-2303.4221 2896.1580 428.7864 0.274 -0.401 -0.874 163 78 31
-2428.9858 3117.9214 435.2227 0.546 -0.740 0.393 204 107 56
-2417.8955 3112.4331 428.9557 0.012 -0.688 0.726 206 109 58
-2654.5090 3521.5225 444.6426 0.198 -0.636 -0.746 78 20 0
-2657.6741 3537.4578 440.6234 0.193 -0.648 -0.736 74 21 1
-2420.1951 3314.6526 348.9826 -0.191 -0.981 0.036 61 22 9
-2410.6069 3311.3860 342.9669 -0.184 -0.983 -0.007 49 17 12
-2413.0857 3326.0889 338.9209 -0.012 -0.976 -0.216 40 11 10
-2459.9500 3418.6536 337.3637 -0.184 -0.838 -0.514 19 3 3
-2284.1587 3307.6328 247.7390 0.568 -0.239 -0.787 12 12 10
-2237.7837 3419.8193 166.9144 0.704 -0.094 -0.704 43 40 47
-2245.6196 3481.7583 147.8753 0.417 -0.224 -0.881 131 109 99
-2248.7686 3499.4705 143.1258 0.392 -0.205 -0.897 171 144 132
-2246.5061 3508.1426 137.8897 0.392 -0.226 -0.892 200 169 158
-1684.3618 4393.2275 -649.9355 -0.324 -0.945 -0.042 148 81 65
-988.7305 4735.9126 -1320.6650 -0.115 -0.470 -0.875 220 77 76
-981.7343 4738.4380 -1327.0385 0.031 -0.528 -0.849 232 46 59
-873.4245 4378.3638 -1264.3717 0.740 -0.368 0.564 246 6 36
-531.5461 4068.8257 -1400.8324 0.257 -0.451 -0.855 251 53 82
-351.9219 2858.1897 -1048.9496 -0.267 -0.424 -0.865 234 103 111
-347.7458 2859.4636 -1052.6595 -0.275 -0.423 -0.864 231 100 105
-390.5235 3553.3232 -1300.3733 0.853 -0.221 -0.473 218 61 75
-385.0572 3613.5115 -1328.8823 -0.417 -0.909 0.006 217 44 60
-366.7856 3651.8347 -1358.3512 -0.196 -0.754 0.627 224 16 38
-3288.7190 2581.8601 1299.6854 0.754 -0.325 0.571 89 39 11
-3149.7378 2643.3911 1168.4670 0.899 -0.332 0.284 145 67 37
-2922.4226 2590.8313 1016.1469 0.146 -0.939 -0.311 72 53 38
-2919.0264 2594.5723 1012.0305 0.529 -0.806 -0.267 72 53 38
-2951.8757 2669.6572 1006.5978 0.944 -0.238 0.230 117 94 80
-2955.6890 2680.7175 1005.0137 0.939 -0.240 0.245 124 101 87
-2961.3191 2693.6238 1004.0676 0.908 -0.287 0.305 128 106 93
-2936.6992 2683.8777 989.2184 0.818 -0.517 0.251 148 121 111
-3048.2393 2928.8950 974.8110 0.312 -0.904 -0.293 109 64 26
-3044.5803 2933.2268 970.2536 0.304 -0.905 -0.298 97 59 19
-3040.2500 2945.0569 962.1342 0.537 -0.646 0.542 74 52 22
-3040.0881 2953.1077 958.7366 0.581 -0.594 0.556 62 47 22
-2928.1211 3000.1750 854.0416 -0.521 -0.603 -0.604 178 85 34
-2414.8594 2719.7893 575.8724 0.758 -0.565 0.327 123 50 19
-2315.5857 2904.8223 424.7730 0.278 -0.401 -0.873 162 78 32
-2312.1677 2909.4041 420.2981 0.278 -0.401 -0.873 178 90 43
-2643.1467 3417.8760 466.4323 0.258 -0.856 -0.448 212 117 67
-2411.4895 3303.2148 336.0477 0.753 -0.658 0.023 49 17 12
-2466.9048 3419.2432 331.2081 0.102 -0.943 -0.316 19 3 2
-2466.7979 3430.4729 326.5600 0.901 -0.434 0.022 12 3 0
-2316.3120 3359.6843 240.3585 0.563 -0.248 -0.789 12 12 10
-2309.2456 3360.0684 234.8028 0.873 -0.448 -0.190 12 12 10
-2256.4526 3489.2185 141.9443 0.407 -0.226 -0.885 107 85 75
-2261.0774 3509.3962 137.2728 0.394 -0.206 -0.896 154 126 115
-2261.7664 3523.0642 132.2413 0.402 -0.204 -0.893 190 159 148
-1936.6012 4594.1416 -551.7737 -0.110 -0.993 -0.036 243 198 195
-1885.5240 4505.8159 -554.8845 0.469 -0.368 0.803 240 195 192
-1872.6240 4493.7007 -559.8149 0.465 -0.378 0.801 240 195 192
-1891.0680 4718.1587 -636.9974 -0.197 -0.799 0.568 230 169 164
-1309.2240 5437.7490 -1374.2108 0.346 -0.706 -0.617 248 167 164
-1303.9513 5453.5781 -1384.6768 0.342 -0.703 -0.623 248 167 164
-991.2979 4795.7524 -1356.0735 0.034 -0.537 -0.843 238 30 51
-992.5692 4843.6338 -1374.5730 0.012 -0.550 -0.835 235 22 45
-390.2820 3621.5447 -1337.8239 -0.414 -0.833 0.368 218 45 61
-3288.3977 2595.8228 1283.7485 -0.357 -0.870 -0.340 86 37 19
-2933.0110 2601.9900 1010.0214 0.996 0.054 -0.065 72 52 36
-2954.3042 2665.7153 1000.1995 0.939 -0.241 0.247 119 97 82
-2955.4512 2674.1221 997.6354 0.939 -0.240 0.245 124 103 88
-2953.1692 2679.1719 993.8278 0.939 -0.240 0.245 130 108 94
-2934.6541 2675.4578 981.2181 0.784 -0.535 0.314 149 121 111
-3053.6902 2927.4885 968.9462 0.886 -0.367 0.283 82 44 20
-3051.7952 2933.6536 964.9778 0.884 -0.371 0.285 67 41 12
-3039.4993 2928.9834 957.5052 0.543 -0.645 0.538 62 44 22
-3040.6594 2938.3584 954.5550 0.537 -0.646 0.542 55 42 23
-3161.1863 3151.2539 959.4317 -0.219 -0.975 0.039 53 24 7
-2972.4065 2965.0759 891.5389 0.196 -0.828 -0.525 94 41 5
-2928.3516 2959.1040 860.3627 -0.362 -0.893 0.268 174 78 29
-2552.4514 2813.5874 633.0385 0.490 -0.737 0.465 178 88 35
-2321.8357 2905.3547 419.5060 0.277 -0.402 -0.873 160 79 35
-2321.0562 2913.5518 415.5575 0.278 -0.401 -0.873 175 91 45
-2447.9707 3127.0005 425.0827 0.402 -0.583 0.706 210 120 73
-2669.6021 3456.2385 459.5164 0.672 -0.737 -0.076 219 131 83
-2687.6741 3537.6262 440.0102 0.200 -0.678 -0.708 93 37 16
-2687.9165 3549.3679 435.3913 0.207 -0.667 -0.716 74 24 9
-2418.2373 3292.8604 334.5355 0.829 -0.557 0.046 61 22 9
-1697.5131 4392.3174 -665.2778 0.168 -0.984 0.053 123 58 42
-1687.9227 4454.3955 -697.9938 0.698 -0.698 -0.160 59 39 17
-1627.7241 4348.5820 -700.6423 0.470 -0.869 -0.156 61 44 20
-1556.0936 4458.7510 -800.3776 0.360 -0.833 0.419 245 188 191
-1506.5675 4328.0342 -784.6932 0.722 -0.678 -0.136 250 193 196
-879.5471 5146.1543 -1597.8978 -0.329 -0.725 -0.604 253 63 111
-394.3050 3174.2598 -1161.4530 0.660 -0.650 -0.376 238 111 123
-381.2359 3651.0613 -1366.4961 0.261 -0.915 0.308 224 16 38
-3343.7781 2617.1306 1307.1719 -0.531 -0.828 -0.181 67 37 23
-3050.8130 2925.5552 956.9464 0.742 -0.421 0.522 58 44 37
-3030.2305 2912.2556 946.7336 -0.071 -0.997 0.028 43 37 28
-3044.5798 2935.3464 948.1658 0.778 -0.418 0.468 37 39 28
-3042.1890 2941.0227 944.0073 0.769 -0.422 0.480 33 42 27
-2977.3784 2979.9458 878.5922 -0.313 -0.921 -0.231 159 73 25
-2964.6677 2974.5745 871.1158 -0.088 -0.937 -0.338 165 77 28
-2557.3242 2812.1628 627.5113 0.499 -0.744 0.445 168 84 33
-2545.9321 2806.8545 621.0139 0.491 -0.762 0.421 168 83 35
-2265.3008 2856.5889 386.6636 0.488 -0.583 -0.650 201 120 87
-2660.4587 3423.0679 454.6693 0.701 -0.711 -0.057 202 135 94
-2668.0869 3444.5981 451.6214 0.681 -0.729 -0.071 208 147 105
-2697.4431 3552.9919 429.3807 0.208 -0.670 -0.713 64 23 8
-2696.5312 3563.1436 424.5074 0.031 -0.733 -0.680 60 22 6
-2667.0042 3532.5457 414.5976 0.302 -0.589 -0.750 61 23 6
-2425.5193 3294.1841 328.6608 0.888 -0.414 0.198 60 23 9
-2284.1807 3416.8208 170.4648 0.928 -0.369 0.060 40 40 42
-1589.7716 4422.5762 -772.7333 0.518 -0.851 0.089 176 139 135
-1535.7590 4398.8154 -804.1186 0.505 -0.863 0.020 248 196 195
-929.4767 5269.2178 -1624.4415 0.159 -0.975 -0.158 246 78 120
-893.4326 5192.6226 -1620.3861 -0.339 -0.723 -0.602 252 61 109
-426.3542 3167.8796 -1142.9929 0.073 -0.477 -0.876 252 87 115
-424.4379 3195.0178 -1155.6234 -0.005 -0.500 -0.866 255 105 127
-421.0510 3208.7358 -1163.8510 0.004 -0.498 -0.867 255 123 140
-418.5789 3279.6304 -1194.9147 0.063 -0.370 -0.927 249 134 142
-407.5520 3653.0879 -1357.0315 0.863 -0.436 0.254 219 39 63
-388.3137 3681.1538 -1383.2455 0.396 -0.775 -0.492 222 13 34
-3348.7490 2615.4729 1301.5198 -0.529 -0.817 -0.229 65 37 26
-3255.8196 2623.4702 1227.4749 0.123 -0.653 0.747 87 61 59
-3251.7122 2626.7065 1223.0085 0.496 -0.781 -0.380 92 61 59
-3254.4211 2635.9553 1221.2408 0.674 -0.232 -0.702 97 61 56
-2936.7241 2593.3169 997.0800 -0.023 -0.795 0.607 72 46 25
-2933.3521 2676.0559 960.2538 0.222 -0.606 0.764 159 119 107
-2917.3999 2667.4939 951.6571 0.137 -0.587 0.798 159 121 108
-3054.3960 2914.1282 953.8093 0.886 -0.367 0.283 60 38 34
-3048.0566 2915.6458 948.3557 -0.171 -0.984 0.042 54 38 33
-3039.5098 2914.8660 942.1731 -0.085 -0.996 0.040 38 31 21
-3234.8083 3126.4189 1003.2281 0.911 -0.406 -0.065 33 33 22
-3217.7317 3134.6091 986.8389 0.914 -0.406 -0.008 43 28 24
-3409.0132 3344.7041 1045.4401 0.905 -0.226 0.361 48 23 20
-3180.7014 3139.1782 956.7614 -0.136 -0.984 0.119 82 36 16
-3062.0930 3055.5940 901.0916 -0.316 -0.872 -0.374 162 68 18
-2973.7815 2977.1460 866.3558 -0.088 -0.937 -0.338 172 82 32
-2554.3982 2809.7573 616.4511 0.503 -0.746 0.436 167 83 36
-2292.3674 2831.3452 408.0669 0.619 -0.785 -0.021 129 60 27
-2280.9731 2833.8809 398.3441 0.483 -0.873 -0.069 151 83 48
-2268.5730 2853.1816 380.9140 0.490 -0.725 -0.484 201 125 96
-2665.6626 3420.8503 448.1073 0.704 -0.707 -0.072 202 141 104
-2671.1848 3439.4084 444.6265 0.678 -0.732 -0.069 208 154 115
-2714.2664 3521.5444 443.4084 0.646 -0.763 0.023 202 154 117
-2708.3384 3547.1250 428.3040 0.235 -0.947 -0.218 92 53 36
-2704.8069 3553.5281 422.9649 0.236 -0.941 -0.243 67 30 14
-2699.6292 3557.6208 417.3291 0.262 -0.698 -0.666 61 24 8
-2427.2214 3287.3057 321.9136 0.888 -0.414 0.198 60 23 9
-1577.6865 4484.1909 -820.3016 0.679 -0.720 0.144 247 196 195
-1047.2272 4906.5967 -1398.9659 0.175 -0.936 0.305 234 65 73
-533.7349 4065.8113 -1441.6711 -0.199 -0.878 -0.436 254 66 98
-3426.4080 2710.1211 1311.0052 0.217 -0.401 0.890 110 111 108
-3232.6389 2604.0046 1207.9100 0.858 -0.448 -0.250 110 109 107
-3239.1272 2616.5115 1207.6327 0.726 -0.228 -0.648 108 102 97
-2916.3057 2660.0510 944.0985 0.131 -0.617 0.776 141 103 90
-3046.6821 2915.2708 936.8975 -0.085 -0.996 0.040 35 23 12
-3291.0825 3177.3865 1013.5013 0.762 -0.255 0.595 32 24 12
-2561.5200 2811.0278 611.5145 0.511 -0.740 0.436 167 83 36
-2672.7480 3421.2288 441.8942 0.324 -0.899 -0.294 204 148 116
-2716.1316 3536.9250 426.6811 0.336 -0.942 -0.025 145 106 87
-2708.6038 3549.0215 415.9200 0.347 -0.937 -0.028 74 36 23
-2706.5835 3557.5676 410.8245 -0.113 -0.994 -0.001 64 27 11
-2430.4907 3282.7454 315.4220 0.822 -0.564 0.074 60 23 9
-2420.5593 3289.8027 304.9326 0.811 -0.580 0.078 45 16 13
-1863.5646 4461.0122 -606.3301 0.609 -0.419 0.673 246 190 182
-1848.2645 4484.7446 -627.8461 0.594 -0.406 0.695 232 173 165
-1596.7821 4522.2041 -834.6180 0.684 -0.724 0.088 247 196 195
-957.5579 4303.9673 -1229.6311 0.516 -0.234 -0.824 221 120 108
-1041.3582 4922.3496 -1423.5088 -0.049 -0.906 0.420 226 29 47
-395.7117 3366.3967 -1266.1937 0.915 -0.403 0.021 228 53 78
-2862.5225 2621.8425 909.4688 0.317 -0.353 0.880 92 60 47
-2844.8787 2611.3706 900.4617 0.332 -0.359 0.872 77 53 39
-3271.6631 3149.6196 998.9361 0.724 -0.221 0.653 33 17 4
-3043.7097 2921.3354 921.5319 0.619 -0.651 0.440 36 19 6
-2554.0371 2803.1731 599.2930 0.217 -0.765 0.607 167 84 34
-2284.4109 2822.9841 386.2968 0.019 -0.850 -0.526 150 82 47
-2278.5964 2824.0686 381.4281 0.005 -0.851 -0.525 162 94 60
-2712.1460 3488.1157 432.3275 0.571 -0.806 0.154 216 178 147
-2708.1492 3493.6704 426.9659 0.557 -0.819 0.137 206 170 141
-2726.4382 3564.2600 411.2728 -0.127 -0.992 0.001 79 41 28
-2714.3530 3558.6516 404.4478 -0.142 -0.990 0.002 66 29 13
-2694.8958 3542.5669 396.4160 0.088 -0.967 0.239 61 24 8
-2685.0437 3539.9944 390.0143 0.312 -0.875 0.371 61 24 8
-2482.3198 3393.3691 297.5478 0.139 -0.990 0.032 26 8 6
-1852.4010 4435.1201 -617.1801 0.418 -0.594 -0.688 249 190 182
-1590.3781 4481.8682 -835.6907 0.679 -0.724 0.124 246 196 195
-1039.2825 4917.3540 -1436.5457 -0.200 -0.856 0.477 224 22 42
-1027.5685 4937.6143 -1453.9279 0.360 -0.908 0.215 230 17 40
-420.1911 3823.9497 -1448.3997 -0.113 -0.906 -0.408 222 13 35
-2956.7104 2587.2043 985.8194 -0.027 -0.793 0.608 90 62 41
-2949.5786 2636.8877 959.4714 0.984 0.000 -0.180 86 50 36
-2914.3130 2638.2129 932.1746 0.395 -0.273 0.877 127 89 76
-3061.5425 2908.5208 929.8728 -0.184 -0.951 0.250 37 13 0
-3054.5046 2909.3164 924.2015 0.384 -0.873 0.300 38 12 0
-2795.7202 2694.4558 818.5526 0.252 -0.349 0.903 129 61 24
-2788.0913 2701.5615 809.7736 0.482 -0.869 0.113 153 73 26
-3151.6001 3102.9250 916.2158 -0.411 -0.783 -0.468 162 76 25
-2334.2600 2846.3354 404.6608 -0.140 -0.990 -0.023 122 56 22
-2326.8591 2845.4133 399.4381 -0.140 -0.990 -0.023 122 53 20
-2285.3306 2825.4211 376.3777 0.019 -0.851 -0.524 161 92 61
-2721.9421 3514.3193 417.0551 0.700 -0.714 0.032 193 159 138
-2732.0139 3539.5605 414.0526 0.617 -0.784 0.066 160 125 107
-2712.7141 3546.4863 396.5005 0.157 -0.924 0.347 68 31 15
-2704.0376 3545.6284 390.2838 0.157 -0.924 0.347 63 26 10
-2688.9624 3535.6956 383.0403 0.307 -0.879 0.366 63 26 10
-2491.3894 3397.0613 291.6733 -0.043 -0.999 -0.027 28 10 8
-1868.8588 4438.6816 -619.3528 0.574 -0.400 -0.714 250 192 184
-1600.3695 4467.9570 -835.2592 -0.091 -0.974 -0.206 243 193 192
-1094.8417 5047.3184 -1462.7395 -0.202 -0.845 0.496 228 58 69
-1071.5109 5009.3433 -1464.4229 -0.164 -0.770 0.617 227 32 48
-985.6801 4926.6074 -1494.6276 -0.614 -0.773 0.158 255 53 88
-504.6519 3987.6077 -1463.5676 0.131 -0.336 -0.933 246 130 139
-3385.7927 2670.9912 1265.5332 0.366 -0.762 -0.534 124 177 200
-2996.3335 2683.4092 965.3661 0.589 -0.122 -0.799 105 64 52
-2954.9326 2650.2273 948.0846 0.999 0.003 -0.040 106 66 54
-2774.2036 2672.8157 801.6586 0.265 -0.335 0.904 161 76 27
-2335.6875 2849.4297 394.7331 -0.127 -0.990 -0.053 124 55 22
-2300.0977 2828.6313 376.6018 0.019 -0.850 -0.526 169 100 67
-2292.0974 2826.8010 371.3199 0.022 -0.858 -0.513 195 127 96
-1160.4514 4908.2617 -1368.0229 0.839 -0.176 0.515 242 155 146
-1147.6014 4922.0391 -1383.5941 0.727 -0.261 0.636 231 144 135
-1130.6562 4916.4282 -1394.0465 0.651 -0.460 0.604 223 131 119
-1058.3064 4946.9517 -1461.7711 -0.250 -0.903 0.349 231 30 49
-977.1910 4801.6377 -1461.5856 0.563 -0.802 -0.202 255 45 80
-988.6284 4906.4204 -1497.3484 -0.282 -0.920 0.273 255 53 90
-565.6826 4109.0928 -1479.5743 0.205 -0.929 0.307 252 40 73
-424.6680 3326.6035 -1254.6101 0.069 -0.587 -0.807 231 108 113
-3078.9468 2585.7192 1059.5510 0.653 -0.451 0.609 116 83 62
-3210.9402 2997.8535 983.6209 0.359 -0.126 0.925 44 28 13
-3152.8335 2955.4055 957.7805 0.413 -0.094 0.906 32 17 1
-3073.0469 2906.3535 918.3612 0.374 -0.095 0.922 63 27 2
-2989.0520 2859.6523 874.7570 0.181 -0.982 0.049 135 63 27
-2310.7363 2826.2419 376.0459 0.020 -0.853 -0.521 171 102 71
-2727.7983 3559.3518 378.8180 0.673 -0.122 0.730 63 26 8
-2498.9966 3400.0759 273.7127 -0.046 -0.998 -0.041 17 6 0
-1881.7865 4456.7578 -643.6373 0.583 -0.289 -0.759 249 192 183
-1890.6945 4500.5054 -655.5562 0.384 -0.579 -0.719 249 192 183
-1798.8121 4451.6533 -704.2078 0.677 -0.303 0.671 228 184 163
-1635.9343 4534.3242 -862.6330 -0.257 -0.936 0.241 254 205 204
-1034.8204 4714.8794 -1394.2037 0.684 -0.724 -0.089 222 40 53
-1008.3513 4935.9414 -1508.4878 -0.209 -0.889 0.408 255 45 81
-1000.2831 4934.2100 -1513.8510 -0.218 -0.889 0.404 255 53 91
-903.7142 4443.1831 -1377.4899 -0.525 -0.811 0.258 255 58 101
-406.0999 3296.9465 -1265.0077 0.444 -0.305 -0.842 222 45 71
-333.1655 3179.6814 -1270.1570 -0.251 -0.964 -0.088 206 14 27
-3066.2847 2574.9951 1044.7999 0.647 -0.426 0.632 153 121 98
-2986.3164 2576.2964 983.8467 0.996 0.008 -0.088 88 60 37
-3006.3352 2609.1191 984.8879 0.285 -0.125 -0.950 90 62 38
-2880.7446 2593.6133 896.6877 -0.286 -0.796 0.534 72 36 20
-2841.8796 2583.5291 871.6606 0.246 -0.617 0.747 48 28 12
-2845.4832 2622.9119 857.4907 0.905 -0.277 0.323 36 23 6
-2934.7666 2720.2434 883.1751 0.461 -0.087 0.883 35 19 6
-2865.5974 2679.8914 848.2429 0.479 -0.069 0.875 67 34 4
-2816.4504 2637.0818 829.4866 0.407 -0.105 0.907 82 39 9
-2743.8010 2613.3159 784.8123 0.524 -0.080 0.848 164 78 30
-2769.6201 3495.5898 425.9013 0.031 -0.956 -0.290 215 176 164
-2720.9153 3440.2683 412.8452 0.283 -0.958 0.049 215 178 164
-2511.1677 3397.0911 272.9548 0.062 -0.886 -0.459 28 9 7
-1897.6932 4564.1377 -690.9147 0.043 -0.708 -0.705 243 187 179
-1186.4828 4822.4434 -1338.8357 0.360 -0.524 -0.772 244 161 156
-1149.8833 4906.3330 -1402.4576 0.826 -0.476 0.300 226 136 126
-1046.3856 4703.0996 -1393.4554 0.756 -0.298 -0.583 221 57 64
-987.9819 4709.9243 -1440.4913 0.799 -0.437 0.412 251 25 58
-968.1595 4683.1279 -1443.9689 0.874 -0.463 0.149 255 45 84
-337.3063 3181.3201 -1276.2820 -0.251 -0.964 -0.088 208 16 29
-3012.1223 2601.4983 982.7655 0.286 -0.123 -0.950 112 82 56
-2860.5337 2638.9995 852.2523 0.572 -0.062 0.818 35 26 7
-2536.3066 2770.8738 550.8160 0.108 -0.467 0.878 159 79 30
-2758.6750 3471.2659 416.4045 0.192 -0.768 -0.611 213 177 161
-2745.6125 3464.4443 409.4948 0.433 -0.901 -0.024 215 176 159
-2525.5701 3408.4578 267.6788 -0.067 -0.819 -0.570 33 11 6
-2358.0540 3562.2507 74.9866 0.925 -0.124 0.359 41 40 46
-1918.2577 4577.1914 -694.5525 -0.165 -0.742 -0.650 245 196 192
-1908.3812 4573.2554 -700.3038 0.509 -0.329 0.795 245 196 192
-1203.8660 4800.6938 -1329.7972 0.245 -0.878 -0.412 238 156 150
-1199.8074 4851.9043 -1354.9495 0.412 -0.533 -0.739 238 149 143
-1181.2855 4874.7344 -1378.7681 0.268 -0.594 -0.759 239 144 133
-1173.6107 4875.6221 -1384.9398 0.115 -0.815 -0.568 230 134 125
-1145.4166 4890.6616 -1412.6929 0.732 -0.363 0.576 222 126 110
-1065.2760 4654.3130 -1371.1836 0.972 -0.228 0.048 229 116 103
-998.1701 4690.9443 -1437.6002 0.696 -0.717 0.031 255 27 59
-993.8558 4707.3286 -1447.9221 0.571 -0.819 0.056 254 30 67
-984.2380 4695.7324 -1450.1741 0.598 -0.794 0.108 255 43 92
-922.0554 4439.7061 -1386.6315 0.256 -0.765 0.591 254 46 102
-900.7410 4361.7266 -1369.0693 0.648 -0.746 0.154 253 47 102
-600.0278 4263.5898 -1553.5487 0.277 -0.856 -0.436 252 39 68
-467.7313 3241.2610 -1212.3242 -0.150 -0.535 -0.831 253 53 90
-341.4554 3182.9619 -1282.4192 -0.251 -0.964 -0.088 216 18 33
-3366.7776 2624.1292 1230.3342 -0.271 -0.449 -0.852 124 172 202
-3085.2190 2692.8604 988.4268 0.125 -0.151 -0.981 87 51 27
-2720.4375 2612.7615 748.4006 0.671 -0.174 0.720 172 81 35
-2720.7422 2620.4333 745.3016 0.676 -0.168 0.718 175 86 31
-2493.8494 3363.7114 251.9190 0.279 -0.858 -0.431 22 7 1
-2291.4529 3314.7957 120.6830 0.983 -0.172 0.068 18 16 17
-2283.6897 3359.8662 95.2814 0.814 -0.409 -0.413 40 39 44
-1700.5715 4322.8662 -761.7598 0.451 -0.547 0.705 242 198 197
-1196.1270 4911.2407 -1397.0072 -0.012 -0.895 -0.447 240 144 132
-1077.1169 4609.3638 -1355.6837 0.504 -0.862 0.056 224 122 104
-604.9866 4312.9229 -1582.7119 0.141 -0.985 -0.096 253 44 78
-487.0949 4095.1272 -1577.0248 0.899 -0.116 0.423 229 10 45
-3090.4170 2586.0076 1028.8983 0.967 -0.254 -0.001 195 169 146
-3077.3721 2686.3357 975.3093 0.368 -0.072 -0.927 84 46 23
-2575.8479 3462.0962 259.5395 0.121 -0.696 -0.708 34 11 5
-1176.7150 4900.1895 -1420.4749 0.723 -0.468 0.509 225 128 119
-1059.5753 4637.0669 -1393.7894 0.593 -0.380 0.710 223 93 87
-476.3202 3416.2808 -1299.9008 -0.192 -0.453 -0.871 253 117 131
-442.1305 3484.6311 -1355.4440 -0.047 -0.456 -0.889 228 29 60
-3131.7510 2364.7119 1147.2539 0.809 -0.478 0.343 75 39 17
-2333.4697 2673.6335 411.9564 0.272 -0.911 0.311 134 57 21
-2667.2007 3228.4502 419.2331 0.707 -0.372 0.601 203 156 133
-2791.2361 3401.2419 436.5991 0.744 -0.209 0.635 217 167 141
-2289.5320 3303.5293 102.5487 0.288 -0.443 -0.849 20 18 19
-2272.3457 3333.3772 76.5396 0.531 -0.747 0.399 40 39 45
-2258.9551 3323.5347 70.7982 0.557 -0.735 0.386 40 39 45
-2333.6504 3515.1599 42.8313 0.621 -0.783 -0.024 41 37 28
-2315.6560 3522.6602 26.0210 0.431 -0.897 -0.100 144 125 119
-2310.9482 3527.2905 20.4524 0.465 -0.880 -0.097 184 157 154
-1200.0128 4664.8804 -1313.3586 0.267 -0.600 0.754 241 158 152
-1062.2106 4583.6479 -1381.2439 0.845 -0.470 -0.254 228 104 94
-539.6313 3828.7642 -1442.6116 0.324 -0.361 -0.874 250 72 100
-543.7762 3965.4900 -1499.4926 0.322 -0.357 -0.877 251 116 130
-358.3289 3183.7356 -1295.7849 0.833 -0.514 0.205 215 12 28
-353.5933 3183.6824 -1299.3192 0.806 -0.581 0.109 216 19 34
-3738.9363 2942.4790 1338.5791 0.729 -0.254 -0.636 147 175 196
-3164.5146 2748.8533 993.0286 0.242 -0.123 -0.962 106 70 46
-2352.1282 2625.3369 437.9944 0.611 -0.765 0.201 122 53 21
-2539.2571 3043.3787 393.9277 0.737 -0.457 0.498 205 160 133
-2796.4556 3398.9805 429.9876 0.732 -0.219 0.645 218 175 147
-2295.4404 3314.3052 91.4378 0.289 -0.441 -0.850 21 19 20
-1253.3738 4637.3052 -1274.2361 -0.333 -0.688 0.645 236 163 157
-1203.2678 4650.9492 -1317.8518 0.254 -0.601 0.758 243 160 154
-1137.3624 4837.2803 -1449.5237 0.368 -0.849 0.380 226 117 101
-1086.3823 4704.5654 -1429.2111 0.634 -0.530 0.564 229 101 95
-493.5786 3356.9929 -1279.3475 0.753 -0.328 -0.571 252 53 86
-492.8037 3393.4260 -1296.0059 0.828 -0.341 -0.446 244 66 92
-554.5663 4014.5789 -1523.7632 0.316 -0.359 -0.878 248 112 124
-558.6311 4102.7617 -1559.6261 0.292 -0.366 -0.884 244 123 130
-3129.2585 2731.1213 964.1987 -0.201 -0.620 0.758 154 113 91
-3086.1191 2697.4377 946.8206 -0.198 -0.618 0.761 158 117 95
-2414.2676 2662.1785 459.0350 0.514 -0.689 0.511 122 54 18
-2330.9956 2664.5283 395.5950 0.860 -0.486 0.157 154 78 42
-2843.0752 3450.7769 430.4102 -0.281 -0.749 0.600 208 172 142
-2307.6147 3323.5366 85.6417 0.454 -0.358 -0.816 21 19 20
-2308.0442 3335.5776 80.6204 0.455 -0.356 -0.816 21 19 20
-1244.5470 3488.3882 -784.0887 0.402 -0.915 0.047 253 204 200
-1258.9435 4633.3228 -1281.3634 -0.333 -0.688 0.645 241 168 162
-1225.6146 4621.7026 -1301.1809 0.349 -0.725 0.595 245 162 156
-492.7799 3582.1406 -1389.0051 0.201 -0.787 -0.584 239 125 128
-488.0189 3587.8943 -1395.1259 0.201 -0.787 -0.584 234 112 117
-480.8750 3572.0908 -1393.4662 -0.018 -0.836 -0.548 224 86 97
-368.2139 3204.0654 -1314.5748 0.250 -0.757 -0.604 217 13 30
-3126.5972 2350.6370 1121.7856 0.821 -0.460 0.338 74 39 21
-3508.9414 2672.8218 1264.1405 0.694 -0.655 -0.298 70 40 26
-3795.5439 2984.8135 1339.3970 -0.104 -0.714 -0.692 132 154 168
-3754.7783 2957.8398 1320.9269 0.161 -0.597 -0.786 129 156 170
-3740.9790 2953.6743 1312.4591 0.730 -0.318 -0.604 120 155 172
-3751.1138 2977.5173 1309.4041 0.159 -0.585 -0.796 90 134 155
-3186.2029 2771.2173 978.7182 -0.187 -0.629 0.754 164 123 101
-2722.9778 2576.5278 718.9460 -0.203 -0.785 0.586 140 105 75
-2425.3577 2660.6484 458.6905 0.449 -0.885 -0.124 121 53 17
-2423.0398 2665.8320 454.6429 0.429 -0.900 -0.073 120 54 19
-2414.3962 2663.3877 449.2653 0.176 -0.980 -0.093 118 53 21
-2384.0503 2650.5227 432.2972 0.765 -0.586 0.268 120 55 25
-2506.1809 3291.2725 237.7746 0.806 -0.557 -0.200 63 25 19
-2511.2336 3309.1382 233.5836 0.668 -0.723 -0.180 57 23 18
-2521.8254 3335.0181 229.9616 0.730 -0.679 -0.079 48 17 14
-2270.1541 3311.6550 52.0526 0.396 -0.549 0.737 27 26 32
-1252.8115 3497.6519 -792.2547 0.464 -0.879 -0.110 254 205 201
-1279.7400 4598.7681 -1263.4462 -0.247 -0.774 0.583 254 183 179
-1270.4937 4622.6758 -1281.0336 -0.363 -0.657 0.661 247 176 172
-1220.3358 4635.8940 -1324.4668 0.345 -0.328 0.879 239 156 150
-510.9806 3427.5610 -1316.1155 0.168 -0.918 -0.360 254 53 84
-506.8239 3570.1311 -1382.8440 0.481 -0.620 -0.620 238 109 117
-488.5268 3599.5759 -1409.6753 0.108 -0.911 -0.398 224 86 96
-482.6126 3595.0859 -1412.0975 0.100 -0.804 -0.586 218 65 79
-352.8121 2938.4084 -1216.2074 0.215 -0.862 -0.458 215 7 25
-369.1210 3222.2507 -1330.6597 0.231 -0.600 -0.766 221 21 37
-3660.2734 2827.4971 1297.4020 0.160 -0.355 -0.921 89 91 98
-3808.5002 2989.1155 1335.6610 0.061 -0.635 -0.770 80 103 115
-3770.6580 2964.6965 1318.3365 0.110 -0.621 -0.776 82 110 123
-3755.9380 2974.9790 1302.7218 0.103 -0.579 -0.809 83 126 145
-2433.3574 2671.3167 450.5480 -0.333 -0.890 -0.311 114 54 22
-2424.9583 2669.1987 445.2212 -0.324 -0.898 -0.298 112 51 21
-2547.4348 3029.5898 375.0472 0.159 -0.983 -0.097 215 178 150
-2276.5535 3323.3269 40.8057 0.319 -0.530 0.785 22 21 27
-2269.2827 3323.2427 35.4099 0.405 -0.898 -0.168 36 35 40
-2349.2866 3498.3010 16.6522 0.649 -0.334 -0.684 38 34 30
-1266.5399 3504.5896 -795.3567 0.797 -0.585 0.148 252 203 199
-1256.7727 3493.5376 -797.6971 0.631 -0.672 0.388 250 201 197
-1256.8210 3512.7905 -806.2997 -0.368 -0.782 0.504 251 202 198
-1245.1952 3495.8250 -807.3760 0.696 -0.715 0.068 254 205 201
-1236.1649 3486.7932 -810.0721 0.659 -0.508 -0.555 250 202 198
-1165.0765 4565.6953 -1347.3005 0.351 -0.350 0.869 240 143 134
-1053.7255 4598.6777 -1445.3174 0.949 -0.191 -0.250 217 96 91
-1048.1150 4643.4746 -1469.6106 0.953 -0.191 -0.235 229 80 81
-487.8275 3600.4331 -1420.3296 0.100 -0.804 -0.586 219 66 79
-356.3512 2936.0269 -1220.4707 0.244 -0.856 -0.456 218 8 27
-361.9330 3202.7993 -1335.9991 -0.198 -0.535 -0.821 238 54 64
-3714.4307 2873.6489 1306.0339 0.796 -0.358 -0.487 77 65 70
-3830.8821 3001.3396 1335.3383 -0.000 -0.650 -0.760 67 96 108
-3781.2302 3028.4543 1286.0466 0.710 -0.227 -0.667 122 108 116
-3788.9163 3050.7246 1281.7354 0.716 -0.208 -0.666 173 147 132
-2419.9717 2648.3359 441.5565 0.216 -0.542 -0.812 91 45 20
-2431.7463 2670.4331 440.3749 -0.283 -0.905 -0.318 87 39 15
-2393.8748 2656.6033 418.3488 0.441 -0.858 0.265 84 36 13
-2605.0273 3086.2065 382.1195 0.594 -0.757 -0.272 211 164 137
-2555.5061 3031.9060 369.6578 0.161 -0.980 -0.115 215 173 146
-2537.8899 3317.7322 227.5529 0.541 -0.616 -0.573 64 26 18
-2536.6169 3337.4036 217.7275 0.470 -0.674 -0.569 51 19 11
-2288.5898 3321.0481 39.9891 0.539 -0.673 0.506 21 21 24
-2281.1946 3320.7886 34.5868 0.552 -0.673 0.492 21 21 24
-2119.1599 3772.7236 -290.2503 0.782 -0.501 -0.370 233 191 187
-1260.1017 3487.5000 -802.7319 0.631 -0.672 0.388 233 180 178
-1253.3347 3504.6855 -815.5361 -0.266 -0.947 -0.180 232 184 180
-1234.6230 3503.9795 -829.1832 0.391 -0.615 -0.685 212 181 173
-1232.1852 3515.7356 -836.3068 0.636 -0.491 -0.595 224 195 187
-1225.2054 3513.1208 -840.3364 0.845 -0.494 -0.206 234 202 195
-1222.2700 3523.4106 -847.1699 0.895 -0.444 0.052 245 206 204
-506.8124 3630.6577 -1429.5459 0.079 -0.844 -0.531 232 113 110
-492.1437 3646.5364 -1447.6580 0.215 -0.844 -0.491 215 38 55
-495.1330 3724.0051 -1480.3787 0.695 -0.715 0.076 221 22 46
-372.4721 3221.8457 -1345.3673 -0.225 -0.545 -0.807 226 35 47
-3775.7869 2963.3855 1299.9237 0.824 -0.236 -0.515 84 128 146
-2426.7300 2641.6648 440.3206 0.194 -0.558 -0.807 78 36 12
-2426.9314 2649.8013 436.7795 0.220 -0.544 -0.810 77 32 9
-2435.8247 2668.4016 434.9705 0.057 -0.929 -0.366 80 35 12
-2429.3000 2676.5486 426.4111 -0.309 -0.902 -0.301 82 36 13
-2425.4114 2679.8821 422.0005 -0.288 -0.923 -0.257 81 35 12
-2371.1089 2629.9561 404.1736 0.732 -0.679 0.055 78 32 9
-2390.8442 2760.8311 359.5128 0.263 -0.357 -0.896 174 120 92
-2298.9531 3338.9011 28.7794 0.345 -0.622 -0.703 21 21 23
-2295.0984 3344.2898 23.4616 0.317 -0.633 -0.706 24 24 26
-1275.7994 3500.3899 -807.1112 0.564 -0.808 0.170 252 201 198
-1263.4233 3481.4756 -807.7556 0.631 -0.672 0.388 241 187 187
-1259.6405 3507.7830 -822.5095 -0.266 -0.947 -0.180 177 128 126
-1254.2297 3510.1770 -827.6286 -0.189 -0.961 -0.203 110 69 65
-1238.1532 3517.8645 -843.0991 0.395 -0.616 -0.682 91 64 55
-1229.1980 3509.0271 -845.7649 0.833 -0.507 -0.219 116 88 80
-1224.2405 3512.8210 -851.1812 0.898 -0.440 0.017 177 143 139
-1220.6096 3520.8853 -857.5458 0.833 -0.550 0.068 205 167 164
-1215.7150 3524.9392 -863.0333 0.837 -0.543 0.066 236 196 194
-524.8396 3650.3481 -1434.8849 0.221 -0.891 -0.396 253 107 110
-3416.8901 2930.1777 1036.4943 -0.043 -0.898 -0.437 166 134 109
-2436.2190 2646.1301 436.0565 0.194 -0.566 -0.802 86 44 20
-2413.2737 2666.2512 409.7987 0.780 -0.581 0.232 70 25 2
-2387.5281 2643.0217 401.2296 0.721 -0.680 0.133 71 26 3
-2570.5095 3025.7156 362.8829 0.727 -0.663 -0.177 202 155 129
-2632.0874 3313.7246 277.3530 -0.107 -0.827 0.552 112 78 66
-2404.3018 3654.9521 -47.8493 0.473 -0.369 -0.800 217 180 171
-2188.8005 3987.5476 -359.9701 0.159 -0.944 0.288 231 190 184
-1277.9146 3490.6743 -811.3859 0.566 -0.796 0.212 252 201 198
-1266.5665 3512.7429 -829.8992 -0.262 -0.946 -0.191 186 137 135
-1261.6047 3516.5610 -835.3342 -0.220 -0.957 -0.192 120 78 74
-1244.6561 3521.6370 -850.2657 0.395 -0.616 -0.682 45 20 10
-1227.4213 3506.1511 -856.0317 0.898 -0.440 0.017 74 40 35
-1224.0624 3515.0320 -862.5827 0.833 -0.550 0.068 120 85 81
-1202.7086 3586.4177 -911.0389 0.884 0.039 0.466 250 202 199
-1177.9375 4570.6206 -1378.3959 0.223 -0.705 0.673 241 150 139
-1128.7683 4453.7393 -1361.6843 0.328 -0.651 0.685 224 133 123
-1139.6163 4533.3140 -1389.9053 0.242 -0.523 0.817 221 127 114
-1113.2898 4580.9976 -1431.2518 0.006 -0.441 -0.897 226 113 99
-1043.0135 4492.0332 -1442.9858 -0.595 -0.629 -0.500 239 90 89
-3858.5840 3195.5503 1232.1670 0.655 -0.652 -0.381 165 139 112
-3834.0317 3181.9771 1220.1395 0.701 -0.600 -0.386 166 139 112
-3798.6653 3158.6682 1204.5375 0.581 -0.723 -0.375 163 133 107
-3722.9148 3569.1104 959.9965 0.549 -0.550 0.629 167 153 136
-2394.7834 2559.4900 435.6747 0.705 -0.584 -0.403 184 142 118
-2459.3179 2658.8110 438.1010 0.111 -0.798 -0.592 120 78 54
-2417.0198 2804.7339 339.7366 0.961 -0.229 -0.155 205 151 123
-2434.3049 2844.0415 334.5600 0.261 -0.478 -0.839 194 147 121
-2718.9834 3348.3889 314.8967 0.771 -0.621 0.145 111 75 59
-1267.1724 3460.7600 -815.9122 0.690 -0.667 0.281 240 184 185
-1274.8104 3521.6775 -838.1709 -0.290 -0.948 -0.128 172 122 121
-1268.0811 3520.1035 -842.4517 -0.212 -0.962 -0.170 103 62 58
-1263.6105 3525.4800 -848.2408 -0.152 -0.951 -0.269 53 20 13
-1227.5707 3529.0195 -876.6559 0.900 -0.434 -0.052 80 42 39
-1195.7638 3586.9297 -926.8587 0.890 0.019 0.456 250 201 197
-1114.3120 4590.5093 -1447.6503 0.023 -0.486 -0.874 223 110 96
-3754.5117 3040.5164 1214.3081 -0.471 -0.848 0.245 184 158 135
-3841.3467 3181.2869 1213.8698 0.749 -0.582 -0.315 155 128 101
-3789.9990 3151.9756 1189.2633 0.701 -0.639 -0.317 156 124 99
-3813.7913 3189.7676 1189.5020 0.360 -0.671 -0.648 156 124 99
-3803.3132 3196.9717 1178.4014 0.388 -0.671 -0.632 161 129 104
-3799.8396 3202.1777 1173.4221 0.163 -0.729 -0.665 161 129 104
-3765.6052 3179.5125 1158.4564 0.578 -0.600 -0.554 161 129 104
-2496.9900 2680.5430 446.6826 0.753 -0.615 -0.234 175 133 108
-2409.9983 2771.4072 340.2035 0.751 -0.445 -0.487 180 127 96
-2717.9641 3348.4226 302.7941 0.578 -0.717 0.390 108 72 56
-2665.4746 3309.5461 281.7503 -0.320 -0.805 0.500 102 68 56
-2646.8879 3326.1548 260.2934 -0.459 -0.841 0.284 87 53 41
-2611.5571 3309.4392 241.7705 -0.221 -0.972 -0.074 72 33 18
-2307.2092 3368.1067 -11.2312 0.297 -0.871 -0.391 26 26 29
-1228.6543 3496.1128 -870.9844 0.845 -0.530 0.076 60 22 19
-1229.7592 3519.1157 -880.7702 0.901 -0.431 -0.054 67 27 25
-1224.9030 3523.2881 -886.2993 0.811 -0.264 0.523 74 34 32
-1085.8290 4600.9580 -1486.4358 -0.439 -0.822 -0.363 228 94 85
-1060.8434 4587.5508 -1498.8036 -0.589 -0.683 -0.432 243 72 78
-506.6661 3387.2642 -1356.8103 0.877 -0.016 0.481 239 65 78
-405.1477 3341.4111 -1411.0371 0.306 -0.418 -0.855 223 40 50
-396.9853 3415.7036 -1451.3514 0.013 -0.840 -0.543 225 80 77
-2567.7109 2756.5413 454.4294 0.687 -0.526 -0.501 175 133 108
-2424.7480 2782.5725 336.3663 0.444 -0.573 -0.688 169 116 85
-2419.9976 2785.1035 331.6709 0.497 -0.573 -0.652 172 118 90
-2420.1262 2793.7913 327.7392 0.759 -0.422 -0.496 172 118 90
-2664.0217 3329.7976 260.1035 0.098 -0.756 0.647 99 65 53
-2640.0132 3307.7896 252.5048 -0.241 -0.950 0.200 92 58 46
-2637.1602 3314.3496 247.3484 -0.325 -0.929 0.178 87 53 41
-2343.3328 3426.8235 -22.6399 0.289 -0.643 -0.709 34 33 40
-1789.0763 3995.2261 -697.0632 -0.147 -0.820 0.553 246 202 199
-1806.0536 4054.6519 -712.0227 -0.030 -0.700 0.713 246 202 199
-1796.3556 4049.3948 -716.7761 -0.030 -0.700 0.713 246 202 199
-1788.0475 4047.4797 -722.0483 -0.075 -0.702 0.709 246 202 199
-1678.9601 3867.8391 -719.6559 0.738 -0.638 -0.221 249 204 199
-1305.1569 3524.4031 -837.6031 0.425 -0.888 0.176 250 199 196
-1322.0594 3593.9973 -857.3316 0.816 -0.576 -0.040 238 184 184
-1310.1823 3596.5837 -867.3366 0.483 -0.849 -0.214 170 121 119
-1301.7644 3590.2971 -870.6637 0.503 -0.860 -0.083 102 60 56
-1274.5927 3545.5925 -870.0867 -0.114 -0.986 -0.119 50 22 13
-914.5436 3454.8835 -1094.9880 0.580 -0.122 -0.806 225 134 124
-1113.3760 4664.7603 -1508.4076 -0.159 -0.987 -0.021 220 97 87
-418.3403 3233.1760 -1360.1133 0.910 -0.081 0.407 216 7 28
-3481.8650 2630.3262 1180.4067 -0.312 -0.581 -0.751 74 40 24
-3302.9595 2967.9343 890.6039 -0.274 -0.758 0.592 157 114 94
-3713.7129 3505.6814 944.1370 0.555 -0.477 0.681 53 52 45
-2761.8162 2706.7346 611.6467 0.490 -0.757 0.433 162 121 117
-3894.5002 4028.2065 834.4882 0.682 -0.572 0.456 177 136 118
-2431.4348 2783.5872 331.2042 0.444 -0.573 -0.688 156 101 71
-2429.7454 2789.9653 326.9809 0.444 -0.573 -0.688 159 105 77
-2427.5220 2795.6968 322.6636 0.464 -0.572 -0.676 159 105 77
-2615.6362 3078.9629 329.9411 0.706 -0.563 -0.429 143 103 78
-2687.6865 3342.1116 260.6556 0.350 -0.756 0.553 105 71 59
-2685.7354 3349.9729 255.5474 0.223 -0.825 0.520 105 71 59
-2642.5654 3302.2317 245.8312 -0.010 -0.976 0.216 99 65 53
-2582.8584 3262.5679 220.1063 0.098 -0.793 0.601 77 37 25
-2599.9680 3425.3162 156.9298 0.842 -0.429 -0.327 11 5 0
-2323.3857 3217.5312 48.9709 0.128 -0.659 -0.741 21 21 21
-2379.4958 3485.6548 -34.4356 0.950 -0.217 -0.222 36 33 40
-2173.4075 3904.5491 -382.2473 0.855 -0.480 -0.194 227 186 180
-511.9117 3358.6992 -1358.1022 0.769 -0.302 0.563 236 49 66
-3142.4600 2304.8018 1071.6349 0.871 -0.434 0.229 73 45 31
-2429.3899 2773.6929 324.6775 0.463 -0.548 -0.696 144 89 60
-2433.1062 2786.8013 321.2840 0.460 -0.573 -0.679 150 94 67
-2435.3403 2798.1138 317.6362 0.455 -0.579 -0.677 150 95 67
-2671.0137 3103.2683 348.9393 0.782 -0.333 -0.527 149 96 69
-2632.3696 3269.2573 242.5975 0.262 -0.787 0.558 107 73 61
-2633.9829 3281.7012 237.9604 0.436 -0.716 0.545 103 69 57
-2595.4329 3409.3335 149.6585 0.186 -0.597 -0.781 11 5 1
-2334.9805 3225.6245 43.1348 0.096 -0.662 -0.743 20 20 20
-2339.1882 3242.7458 38.2249 0.349 -0.520 -0.780 21 21 21
-1908.9727 4104.4370 -683.6035 0.555 -0.286 0.781 248 206 201
-1895.4180 4090.8608 -687.2661 0.544 -0.288 0.788 248 206 201
-1592.6687 3796.6472 -773.2944 -0.040 -0.878 0.478 248 202 197
-1569.9708 3773.5320 -779.2488 0.176 -0.819 0.546 247 201 196
-1569.1677 3789.6255 -787.3825 0.083 -0.868 0.489 248 202 198
-1313.8971 3632.8489 -902.6924 0.943 -0.256 0.214 49 22 13
-956.8169 3518.3293 -1113.0831 0.157 -0.339 -0.927 240 149 138
-1157.0535 4770.2798 -1551.5605 -0.201 -0.908 0.367 221 102 91
-454.1982 3217.3125 -1343.7179 0.342 -0.655 0.673 211 23 37
-444.7877 3220.4546 -1352.1486 0.607 -0.512 0.608 209 31 41
-430.2585 3221.2288 -1363.2549 0.797 -0.234 0.556 203 22 34
-422.1837 3237.0688 -1376.6470 0.893 -0.043 0.449 199 26 34
-407.0839 3281.5898 -1408.6708 0.408 -0.519 0.751 213 71 67
-3143.2246 2300.2842 1065.1600 0.871 -0.481 0.103 64 48 41
-3516.5444 2640.2930 1180.7059 -0.063 -0.547 -0.835 84 39 11
-3498.3606 2645.5698 1164.7928 0.434 -0.721 -0.541 86 74 72
-3495.1650 2649.6841 1160.4954 0.435 -0.726 -0.532 102 95 102
-3130.0205 2879.1975 782.7531 0.436 -0.813 -0.387 51 49 42
-3119.7886 2876.8494 776.3029 0.225 -0.867 -0.444 49 50 43
-3298.5144 3105.9363 800.3903 0.594 -0.128 0.794 48 49 37
-2433.9971 2780.5605 315.2206 0.505 -0.581 -0.638 145 87 63
-2679.1316 3105.2966 343.2995 0.779 -0.337 -0.529 145 87 63
-2347.3215 3234.7778 37.2867 0.122 -0.646 -0.754 15 15 13
-2210.6296 3802.2483 -330.9223 0.012 -0.935 -0.355 114 73 71
-2178.2490 3887.8801 -395.1650 0.859 -0.483 -0.171 229 188 184
-1812.9866 3918.1433 -679.1515 0.315 -0.678 0.664 243 197 190
-1749.3044 3871.1506 -704.0459 0.773 -0.569 0.282 102 59 52
-1602.7119 3807.1660 -782.1637 -0.437 -0.761 0.479 248 207 204
-1591.6710 3796.5876 -785.3349 -0.225 -0.898 0.378 236 198 193
-1354.7329 3604.0647 -869.6307 0.663 -0.738 0.124 251 197 197
-971.6906 3559.0850 -1131.3092 0.222 -0.315 -0.923 238 148 139
-894.3344 3261.9124 -1048.4718 0.466 -0.175 -0.867 237 144 136
-526.7913 3447.5696 -1407.3300 0.679 -0.186 0.711 227 41 54
-505.4841 3319.3003 -1362.6522 0.921 -0.187 0.341 217 37 48
-460.7974 3196.1323 -1337.6422 0.515 -0.657 -0.550 219 41 52
-457.5088 3209.8198 -1346.5172 0.351 -0.651 0.672 204 54 55
-3144.4961 2296.1846 1058.8813 0.857 -0.504 0.112 63 47 42
-3140.0525 2298.4724 1054.5210 0.851 -0.506 0.141 66 47 38
-3534.4487 2649.0144 1179.4128 -0.065 -0.543 -0.837 84 39 11
-3515.6499 2640.4102 1169.6228 0.250 -0.690 -0.679 80 40 17
-3505.1558 2638.5457 1162.7664 0.624 -0.778 0.072 75 51 37
-3500.7449 2641.6484 1158.0444 0.624 -0.778 0.072 80 67 62
-3093.5312 2828.3499 769.3389 0.439 -0.897 -0.053 52 43 36
-3105.7021 2848.1812 768.9254 0.494 -0.869 0.016 52 50 40
-2436.0154 2734.0110 329.1016 0.451 -0.577 -0.681 91 37 13
-2426.6079 2755.6467 311.9203 0.638 -0.763 -0.106 137 79 55
-2425.0945 2770.5647 303.7411 0.596 -0.796 0.106 145 87 63
-2349.4690 3228.6719 31.0754 0.530 -0.742 -0.410 15 15 13
-2304.3896 3762.9329 -255.1188 0.348 -0.709 0.613 135 100 96
-1811.5686 3899.9688 -683.4434 0.286 -0.553 0.783 228 181 173
-1752.5144 3863.8879 -709.9117 0.773 -0.569 0.282 87 44 37
-3146.5996 2292.7605 1052.9109 0.865 -0.464 0.189 65 48 42
-3549.1313 2655.0740 1176.9341 0.496 -0.571 -0.654 85 40 11
-3526.0981 2643.0645 1165.6863 0.160 -0.976 0.148 81 39 14
-3284.0486 2937.8000 847.1448 -0.369 -0.743 0.558 118 87 77
-3175.7646 2863.8823 802.5748 0.190 -0.981 0.021 41 31 22
-3169.0439 2865.0701 797.0597 0.190 -0.981 0.021 28 15 9
-3162.3284 2866.2576 791.5486 0.190 -0.981 0.021 40 27 19
-2456.7568 2752.2544 326.1606 0.293 -0.922 -0.252 90 36 12
-2451.7375 2754.4082 321.4391 0.526 -0.805 -0.274 103 47 24
-2446.2200 2755.9485 316.6422 0.517 -0.810 -0.278 115 57 33
-1795.4410 3864.6611 -690.3226 -0.034 -0.687 0.726 216 169 161
-1755.7166 3856.6431 -715.7632 0.773 -0.569 0.282 88 45 38
-1744.0447 3845.9954 -719.2918 0.759 -0.574 0.309 101 61 53
-1605.0712 3800.2561 -799.8755 -0.197 -0.865 0.462 101 64 56
-1381.2037 3648.9597 -892.7444 0.877 0.126 0.464 251 197 197
-1229.0532 3494.4521 -931.2664 0.953 -0.295 -0.068 47 24 16
-1220.9734 3507.7795 -943.5601 0.919 -0.349 0.182 62 24 23
-1174.1887 3662.2258 -1051.5226 0.638 -0.582 -0.504 236 183 184
-1170.6427 3738.6885 -1090.5253 0.821 -0.186 -0.539 250 190 189
-513.7083 3276.3486 -1354.3075 0.924 -0.375 0.076 231 38 53
-511.0160 3294.6431 -1364.9974 0.913 -0.407 0.017 222 35 48
-3545.4822 2652.9590 1164.8235 0.638 -0.713 0.292 82 39 10
-3358.3311 2954.6973 882.8189 -0.500 -0.786 0.364 127 97 82
-3340.9456 2977.8086 858.9752 -0.410 -0.751 0.518 107 85 72
-3272.9893 2928.1208 832.7644 -0.402 -0.832 0.382 87 68 56
-3233.0601 2897.2969 818.1428 -0.289 -0.781 0.554 60 47 35
-3207.7842 2880.5525 807.5632 -0.218 -0.902 0.373 50 40 31
-3180.9651 2869.9658 792.9024 -0.079 -0.906 0.416 35 22 16
-2474.3032 2758.1848 326.6284 0.481 -0.848 -0.222 84 34 11
-2465.6851 2755.9700 321.3493 0.493 -0.829 -0.265 89 35 11
-2463.9839 2762.2034 317.1159 0.522 -0.843 -0.131 100 44 21
-2457.4746 2762.5549 312.1603 0.507 -0.848 -0.155 112 54 30
-2454.0933 2766.7498 307.6665 0.572 -0.802 -0.171 127 67 43
-2443.6504 2762.2327 302.1466 0.525 -0.807 -0.270 135 77 53
-2569.9341 3210.9333 180.3654 -0.268 -0.946 -0.183 101 64 56
-2378.0759 3241.8174 24.4782 0.606 -0.673 -0.424 12 12 10
-1837.0876 3912.5591 -694.3092 0.992 -0.057 -0.111 248 201 193
-1818.3328 3886.2310 -695.5079 0.277 -0.544 0.792 237 190 182
-1749.2255 3843.5425 -725.9138 0.776 -0.611 0.155 88 45 38
-1735.4963 3827.8926 -728.5246 0.773 -0.547 0.320 101 58 51
-1174.4509 3666.2390 -1063.8378 0.992 0.124 -0.029 242 176 175
-516.2651 3341.6562 -1392.6509 0.797 -0.511 -0.322 219 28 43
-3519.4041 2639.3057 1141.8042 0.615 -0.732 0.295 81 50 31
-3634.7773 2761.1719 1167.9436 0.093 -0.562 -0.822 121 132 147
-3282.4775 2930.4177 827.7861 -0.402 -0.832 0.382 64 50 37
-3255.4402 2912.1545 816.7094 -0.315 -0.749 0.584 44 32 20
-3223.7634 2889.2852 804.4399 -0.315 -0.749 0.584 42 32 23
-3303.3157 3089.7458 766.4731 0.888 -0.422 -0.182 59 41 34
-3396.6233 3192.5364 785.5782 0.449 -0.370 0.814 77 50 43
-2476.7793 2762.2974 316.8363 0.536 -0.823 0.189 87 33 9
-2477.5764 2771.5964 312.9499 0.522 -0.787 0.330 94 38 15
-2466.8105 2766.7681 307.3642 0.460 -0.795 0.395 107 49 25
-2460.8423 2767.7959 302.4861 0.460 -0.795 0.395 121 61 37
-2454.8784 2768.8232 297.6114 0.460 -0.795 0.395 129 71 47
-2444.3237 2764.1714 292.0959 0.478 -0.779 0.407 136 78 54
-2442.3599 2770.1287 287.7887 0.390 -0.690 0.609 136 78 54
-2589.4480 3238.6853 170.5040 -0.307 -0.950 -0.061 102 65 57
-2579.9158 3235.9768 164.8049 -0.307 -0.950 -0.061 104 67 59
-2568.1304 3230.1711 158.9402 -0.317 -0.932 0.177 111 74 66
-2558.5352 3227.3066 153.2699 -0.221 -0.949 0.225 117 79 71
-2393.2354 3254.8960 18.5875 0.408 -0.807 -0.427 14 14 12
-1829.2466 3896.8181 -704.3627 0.234 -0.551 0.801 243 196 188
-1830.5831 3917.0354 -713.1032 0.255 -0.545 0.799 223 176 168
-1821.4768 3913.0637 -717.8820 0.246 -0.548 0.799 192 147 138
-1796.6274 3872.1902 -716.4786 0.287 -0.598 0.748 130 86 79
-1784.6478 3861.1980 -719.9918 0.386 -0.524 0.759 84 41 34
-1520.3125 3877.7515 -922.1103 0.883 -0.264 -0.389 241 191 192
-1172.3739 3751.3010 -1116.8677 0.734 -0.298 -0.610 255 186 189
-1171.3910 3770.6636 -1126.9009 0.763 -0.305 -0.570 255 190 194
-1147.6857 3731.3406 -1125.4028 0.353 -0.766 0.537 249 181 179
-1139.9194 3749.3245 -1139.7554 0.296 -0.856 0.424 251 181 179
-1007.0424 3934.7859 -1326.5416 -0.058 -0.982 -0.181 225 112 98
-525.8411 3342.2578 -1395.0515 0.765 -0.589 -0.261 227 24 43
-462.9283 3076.5007 -1313.4625 0.673 -0.584 -0.454 197 59 56
-3539.1858 2669.8000 1131.2030 0.194 -0.900 -0.390 100 94 98
-3642.3577 2761.2729 1162.6676 0.099 -0.567 -0.818 120 125 138
-3550.0039 3130.6604 916.3746 -0.348 -0.689 0.636 104 92 76
-3272.3491 3110.3962 722.5024 0.547 -0.343 0.763 122 62 64
-2491.7278 2764.9583 316.8687 0.516 -0.841 0.164 83 33 10
-2480.7107 2768.1865 307.2269 0.488 -0.868 0.092 94 38 15
-2473.8330 2768.1233 302.2124 0.490 -0.869 0.066 107 49 25
-2468.9644 2770.5110 297.4871 0.490 -0.869 0.066 121 61 37
-2461.9985 2770.3225 292.4686 0.483 -0.873 0.062 129 71 47
-2458.1826 2774.0044 287.8898 0.784 -0.551 -0.287 137 79 55
-2587.8083 3237.8274 158.7779 -0.322 -0.931 0.174 104 67 59
-2385.6104 3435.4785 -85.0774 0.328 -0.365 -0.871 33 26 26
-1834.9321 3895.2729 -711.2631 0.080 -0.705 0.705 239 192 184
-1836.9037 3916.8979 -720.2697 0.441 -0.437 0.784 219 172 164
-1828.9318 3915.5930 -725.4865 0.441 -0.437 0.784 188 143 134
-1601.4032 3780.3540 -827.0149 -0.226 -0.837 0.498 67 39 29
-1579.4132 3777.2820 -841.6604 -0.004 -0.873 0.487 71 46 42
