ply
format ascii 1.0
element vertex 796
property float x
property float y
property float z
property float nx
property float ny
property float nz
property uchar diffuse_red
property uchar diffuse_green
property uchar diffuse_blue
end_header
-2189.0981 3162.2275 -475.1109 -0.068 -0.823 0.564 205 152 136
-2075.2842 3147.5081 -505.4648 0.724 0.021 0.689 73 34 29
-2099.3691 3300.4790 -555.8611 0.880 0.465 -0.098 84 47 44
-2080.9019 3383.8923 -593.3190 0.450 -0.131 -0.883 68 34 19
-1960.8727 3272.7625 -589.0801 0.877 0.417 -0.238 18 16 9
-2002.6909 3350.8101 -605.4694 0.862 0.405 -0.305 20 14 3
-2051.6150 3440.8293 -624.1542 0.862 0.405 -0.305 31 23 1
-1552.6139 2708.5056 -504.0368 0.765 0.175 -0.620 168 89 47
-1552.9202 2727.0459 -510.9698 0.891 0.157 -0.425 169 90 50
-1555.8840 2741.0864 -515.3577 0.893 0.159 -0.421 169 90 48
-1532.7239 2775.3167 -535.6489 0.524 -0.179 -0.833 167 91 66
-1533.0825 2785.2488 -539.3015 0.812 -0.063 -0.581 162 84 60
-1536.6360 2800.7808 -544.0687 0.818 -0.075 -0.570 157 78 55
-1539.3896 2815.0046 -548.5925 0.821 -0.144 -0.553 141 71 46
-1539.7191 2825.0608 -552.3013 0.436 -0.409 -0.801 120 62 35
-1536.4869 2828.9026 -554.7786 0.683 -0.680 -0.266 119 63 34
-1535.4491 2836.6165 -558.0310 0.842 -0.425 0.331 117 64 34
-1533.3768 2842.5276 -560.9266 0.836 -0.444 0.324 107 54 23
-1531.4965 2858.4373 -567.5526 0.823 -0.484 0.297 96 39 10
-1531.7745 2868.6204 -571.3259 0.967 -0.214 0.139 93 40 12
-1458.7993 2931.0833 -618.0502 -0.043 -0.928 -0.371 50 28 23
-1448.1304 3143.4307 -701.9329 0.711 -0.516 0.477 45 31 30
-1444.2874 3146.5232 -704.3188 0.711 -0.516 0.477 46 32 31
-1439.5538 3147.7231 -706.2684 0.923 -0.209 0.323 46 32 31
-1308.6342 2890.8723 -650.2161 0.928 -0.186 0.324 45 31 30
-1382.3325 3114.2449 -711.6414 0.921 0.334 0.199 43 29 26
-1544.1727 3818.0972 -927.4171 0.449 -0.877 0.171 28 19 16
-1535.1613 3913.5884 -966.4689 0.552 -0.067 0.831 215 192 194
-1528.2230 3926.2295 -973.4526 0.573 -0.602 0.556 222 187 193
-1296.1835 3430.8230 -858.8762 0.384 -0.521 0.762 228 192 198
-1279.3708 3413.2903 -857.5367 0.137 -0.622 0.771 162 145 145
-1271.3621 3405.4087 -857.0770 0.455 -0.703 0.546 51 33 33
-2357.5081 1559.0405 180.1724 0.274 -0.262 0.925 57 39 27
-2342.6990 1561.0594 174.7534 0.639 -0.270 0.721 172 153 140
-2332.7632 1560.5856 171.8136 0.724 -0.096 0.683 205 182 167
-2350.6729 1597.3151 163.4578 0.872 -0.401 0.280 197 171 154
-2345.5217 1604.9534 158.9329 0.979 -0.095 -0.180 197 171 153
-2344.7432 1620.5782 152.7412 0.367 -0.913 -0.179 204 182 159
-2310.1807 1697.7217 112.5250 0.691 -0.146 0.707 201 182 165
-2305.9656 1700.5839 110.1120 0.684 -0.158 0.712 205 186 169
-2299.2222 1701.8063 107.5290 0.707 -0.167 0.688 203 184 167
-2181.5991 1897.0885 -3.7372 0.382 -0.892 -0.242 60 50 41
-2184.9934 1924.1228 -12.9611 0.740 -0.380 0.555 59 50 41
-2180.8171 1926.9705 -15.3565 0.743 -0.394 0.542 79 70 61
-2177.2954 1930.3312 -17.7416 0.743 -0.394 0.542 200 191 182
-2172.9121 1989.1746 -41.5151 0.509 -0.038 0.860 93 77 70
-1842.6150 1974.8907 -139.8032 0.776 0.601 0.190 144 99 96
-2434.4656 3033.6870 -356.9414 0.563 -0.821 -0.094 210 162 158
-2413.0085 3037.9563 -365.3047 0.922 -0.387 -0.002 218 170 166
-2416.6384 3052.1770 -369.5774 0.950 -0.311 0.037 218 170 166
-2405.7925 3049.1543 -371.8329 0.257 -0.648 0.717 218 170 166
-2288.7554 3084.4500 -422.0210 0.805 0.349 -0.480 224 175 168
-2217.8640 3103.4438 -451.5128 0.845 -0.114 -0.523 218 168 161
-2192.8618 3151.7988 -477.7693 0.516 -0.698 0.497 148 95 79
-2080.5085 3149.8076 -512.2943 0.495 -0.096 0.863 58 19 14
-2070.9700 3362.7305 -596.3325 0.385 -0.193 -0.903 59 26 12
-2046.4639 3426.6890 -628.3723 0.862 0.405 -0.305 65 42 10
-1555.6637 2754.3669 -526.6009 0.120 -0.935 -0.333 157 78 36
-1540.8026 2784.5234 -542.7459 0.525 -0.185 -0.831 189 111 82
-1536.9962 2787.2842 -544.9921 0.812 -0.063 -0.581 183 106 77
-1539.7103 2801.3516 -549.4941 0.785 -0.153 -0.600 178 98 70
-1541.9796 2814.7207 -553.8701 0.825 -0.140 -0.548 169 91 59
-1536.9409 2815.3867 -555.7059 0.938 -0.341 0.067 153 83 45
-1535.0852 2821.6140 -558.6589 0.934 -0.348 0.081 152 84 44
-1532.7976 2827.0989 -561.4649 0.934 -0.348 0.081 151 84 44
-1531.4996 2834.3457 -564.6308 0.965 -0.237 0.111 146 80 40
-1529.6270 2840.5986 -567.5989 0.965 -0.237 0.111 142 74 34
-1529.3912 2849.7854 -571.1696 0.964 -0.247 0.096 142 72 33
-1531.9159 2863.9465 -575.7667 0.965 -0.225 0.135 141 74 35
-1534.0698 2877.5198 -580.2566 0.933 -0.331 0.140 129 69 32
-1543.2974 2903.9050 -587.4017 0.713 0.070 0.697 117 65 29
-1325.5931 2901.1685 -654.7267 -0.086 -0.965 0.248 40 26 25
-1334.4852 2940.7019 -666.9816 0.022 -0.897 0.442 45 31 30
-1311.5933 2922.8804 -667.3873 0.918 0.373 0.136 42 28 25
-1335.8113 2985.6885 -683.6880 0.922 0.355 0.157 43 29 26
-1533.4343 3901.5706 -970.2313 0.548 -0.041 0.836 219 195 198
-1510.9241 3860.0583 -961.4999 0.600 0.090 0.795 203 178 181
-1526.5416 3914.2388 -977.2176 0.533 -0.656 0.534 214 177 184
-1295.0337 3421.0562 -862.2037 0.152 -0.724 0.673 228 192 198
-2374.7998 1561.0388 179.0532 0.354 -0.249 0.902 63 45 33
-2335.1575 1554.2246 169.2750 0.513 -0.424 0.746 179 160 147
-2346.5996 1602.9956 154.2145 0.984 -0.133 -0.119 197 171 153
-2351.7393 1611.3800 152.6162 0.599 -0.792 -0.123 199 177 155
-2353.1333 1617.5787 150.6832 0.353 -0.918 -0.180 199 177 154
-2310.9136 1673.3539 116.1860 0.903 -0.048 0.428 204 184 166
-2316.5122 1687.9418 112.3608 0.686 -0.131 0.716 203 184 167
-2307.1155 1687.5037 109.5934 0.667 -0.186 0.721 203 184 167
-2306.0696 1692.3790 107.4039 0.691 -0.146 0.707 193 174 157
-2187.6758 1917.0907 -15.4324 0.735 -0.375 0.565 56 47 38
-2183.4958 1919.9338 -17.8242 0.740 -0.380 0.555 80 71 62
-2179.4451 1922.8728 -20.2123 0.743 -0.394 0.542 173 164 155
-2175.9287 1926.2292 -22.5930 0.743 -0.394 0.542 234 225 216
-2172.9290 1979.7700 -43.9868 0.825 0.157 0.542 70 57 49
-2168.6973 1982.6029 -46.3909 0.768 -0.401 0.499 71 56 49
-2166.3328 1986.9679 -48.7972 0.769 -0.397 0.501 128 108 102
-2161.2661 1989.1028 -51.1954 0.772 -0.404 0.492 183 148 146
-2446.6467 2335.4473 -94.3920 0.929 0.236 0.285 38 16 20
-1545.2804 1576.1742 -85.8181 0.326 -0.738 0.591 45 37 48
-1578.4363 1615.5240 -90.4970 0.980 -0.195 0.031 56 49 60
-2430.2310 3033.6443 -366.2859 0.640 -0.287 -0.713 217 169 165
-2420.6924 3032.2583 -368.7356 0.683 -0.241 -0.690 221 173 169
-2420.8862 3042.3618 -372.5354 0.676 -0.277 -0.683 218 170 166
-2420.3867 3051.6777 -376.2509 0.686 -0.277 -0.672 218 170 166
-2252.3384 3123.4775 -456.1716 0.206 -0.686 0.698 221 168 162
-2188.7070 3151.2698 -486.6647 0.094 -0.796 0.597 186 133 117
-2181.6772 3151.9897 -489.1354 -0.071 -0.826 0.560 166 113 97
-2060.9219 3264.2942 -569.7608 0.568 -0.785 0.248 60 36 28
-2037.4810 3250.4041 -571.7751 0.723 -0.635 0.272 56 32 22
-2038.1156 3273.1179 -580.2554 0.634 -0.648 0.422 41 18 12
-1546.1750 2662.2883 -500.5205 0.885 0.434 0.166 151 72 38
-1567.6431 2751.4995 -527.9009 0.862 0.372 0.344 164 83 40
-1546.8275 2762.3311 -538.5410 0.096 -0.984 -0.147 168 90 54
-1558.0381 2809.4304 -553.0352 0.869 -0.047 -0.493 181 104 68
-1513.4891 2903.8884 -603.0398 0.331 -0.748 -0.575 137 76 37
-1509.9845 2907.3394 -605.4530 0.316 -0.754 -0.575 117 67 39
-1426.0476 2948.1606 -647.2664 0.147 -0.728 -0.670 49 27 22
-1398.0945 3016.6494 -682.1654 0.857 -0.398 0.328 35 20 17
-1432.2333 3234.6306 -754.7887 0.512 -0.008 0.859 42 28 25
-1560.6385 3857.6050 -952.7089 0.300 -0.951 -0.078 38 17 19
-1533.6897 3879.6868 -969.5629 0.361 -0.197 0.911 200 174 177
-1531.5868 3889.2935 -973.8903 0.553 -0.032 0.833 222 198 201
-1509.1135 3847.9299 -965.1053 0.537 -0.003 0.844 201 176 179
-1491.5195 3818.4556 -959.3390 -0.268 -0.950 0.159 213 176 183
-1341.5253 3507.5896 -887.4120 0.888 -0.434 -0.155 229 188 196
-1306.6344 3431.1387 -869.0994 0.543 -0.303 0.783 225 183 192
-2365.7253 1553.3910 173.3795 0.354 -0.249 0.902 151 133 121
-2316.2559 1679.5510 109.6254 0.758 -0.229 0.611 203 184 167
-2323.4031 1689.6107 107.9873 0.933 -0.199 0.300 191 172 155
-2318.9302 1692.3264 105.5563 0.917 -0.199 0.345 211 192 175
-2303.6252 1688.1152 102.4172 0.694 -0.183 0.696 210 191 174
-2186.1025 1912.8596 -20.2876 0.735 -0.375 0.565 79 70 61
-2182.0029 1915.7577 -22.6726 0.740 -0.380 0.555 202 193 184
-2178.0769 1918.7867 -25.0540 0.743 -0.394 0.542 238 229 220
-2174.5662 1922.1393 -27.4303 0.743 -0.394 0.542 174 165 156
-2165.9309 1964.7024 -46.4373 0.919 0.255 0.302 60 45 38
-2175.6853 1985.2300 -51.2804 -0.143 -0.984 -0.108 74 57 50
-2159.9451 1978.6073 -53.6298 -0.146 -0.986 -0.076 80 60 54
-2147.9424 1974.9943 -55.9725 -0.117 -0.990 -0.078 170 140 137
-1806.2451 1834.5852 -108.2639 0.527 0.045 0.849 42 39 56
-1824.1357 1879.7177 -120.0164 0.639 0.145 0.755 70 67 80
-1754.9883 1849.7026 -129.9842 0.482 -0.157 0.862 82 47 57
-2434.9841 3024.4619 -369.3174 0.616 -0.293 -0.731 202 154 150
-2436.2085 3035.7449 -373.2645 0.639 -0.288 -0.713 202 154 150
-2426.9131 3034.6724 -375.7406 0.683 -0.241 -0.690 204 156 152
-2427.0273 3044.6892 -379.5469 0.676 -0.277 -0.683 209 161 157
-2428.9661 3056.9084 -383.6313 0.688 -0.276 -0.671 214 166 162
-2376.6465 3033.9619 -391.0828 -0.184 -0.873 -0.452 227 178 174
-2320.5627 3054.4614 -416.3667 0.998 -0.063 0.021 220 171 167
-2303.5635 3053.1323 -421.1376 -0.096 -0.919 0.383 215 166 162
-2312.9592 3084.9434 -430.4196 0.569 -0.190 0.800 219 170 165
-2246.3127 3193.0566 -492.5880 0.449 0.052 -0.892 212 156 141
-2189.8967 3147.6992 -492.7166 0.169 -0.805 0.569 207 154 136
-2064.8835 3211.0286 -555.8393 0.827 0.370 -0.423 71 33 30
-2065.7112 3266.0469 -576.6839 0.587 -0.771 0.248 53 32 25
-2046.7632 3248.2292 -575.7360 0.938 0.090 -0.334 45 22 14
-2050.4658 3264.6904 -580.8994 0.933 0.097 -0.348 40 15 8
-2051.7634 3277.5669 -585.4349 0.635 -0.694 0.338 38 15 9
-2049.1746 3284.5498 -588.9173 0.461 -0.722 0.516 39 16 10
-2076.0972 3462.4426 -648.7827 0.816 0.323 -0.480 144 81 40
-2115.5181 3537.4539 -665.3068 0.836 0.334 -0.434 147 80 38
-1547.5825 2758.9458 -543.1410 0.791 -0.607 0.069 163 87 44
-1565.8734 2799.3181 -552.9435 0.665 -0.699 0.263 165 87 44
-1562.6865 2803.2446 -555.4394 0.659 -0.698 0.279 168 90 48
-1559.9679 2807.9751 -558.0983 0.750 -0.660 0.046 175 101 58
-1523.0190 2753.7603 -548.7825 0.765 0.301 0.570 175 101 60
-1527.8431 2780.6221 -557.5864 0.758 0.295 0.581 178 100 57
-1350.8252 3028.7166 -707.7282 0.988 0.150 -0.025 31 17 14
-1316.1517 3117.6868 -752.6224 0.977 -0.213 0.022 35 27 25
-1315.9036 3128.5295 -756.8582 0.978 -0.209 0.024 26 21 18
-1318.9703 3147.1296 -763.0393 0.981 -0.123 0.148 24 20 17
-1549.0948 3851.2314 -961.6039 0.635 0.017 0.772 46 21 24
-1533.0172 3870.4158 -973.9562 0.363 -0.194 0.911 178 152 155
-1529.2109 3875.7441 -977.1821 0.559 -0.033 0.829 223 200 202
-1520.6788 3869.2681 -977.3487 0.595 -0.035 0.803 215 190 193
-1490.1293 3807.4553 -963.1309 -0.278 -0.946 0.168 225 187 194
-1336.1587 3486.9312 -888.0267 0.897 -0.433 -0.088 224 183 191
-1307.4744 3426.5386 -873.7743 0.485 -0.357 0.799 203 161 169
-2369.5300 1542.5836 172.9551 0.356 -0.237 0.904 87 69 57
-2363.5022 1544.4132 170.3885 0.346 -0.254 0.903 148 130 118
-2310.7676 1673.4053 104.4354 0.651 -0.297 0.699 189 170 153
-2319.5535 1684.4717 102.8892 0.871 -0.113 0.478 211 192 175
-2316.4297 1688.0322 100.5533 0.877 -0.111 0.468 197 178 161
-2315.9333 1693.2681 98.3842 0.900 -0.049 0.432 140 121 104
-2314.6072 1697.9855 96.1583 0.900 -0.049 0.432 68 49 32
-2183.7517 1908.0316 -25.1347 0.736 -0.389 0.554 131 122 113
-2180.2107 1911.3564 -27.5087 0.736 -0.389 0.554 226 218 209
-2176.7129 1914.7129 -29.8815 0.743 -0.394 0.542 203 194 185
-2173.2075 1918.0610 -32.2535 0.743 -0.394 0.542 86 77 68
-2163.1226 1978.1248 -58.4933 -0.122 -0.990 -0.076 89 69 63
-2152.8567 1975.9606 -60.8317 -0.117 -0.990 -0.078 156 132 126
-2340.8069 2235.8950 -102.8406 0.949 -0.167 0.268 46 32 47
-1789.9634 1822.6527 -113.9201 0.507 0.015 0.862 42 39 56
-1789.5565 1827.9198 -116.0736 0.554 0.088 0.828 53 50 67
-2440.6023 3026.1230 -376.2445 0.616 -0.301 -0.728 206 158 154
-2442.8381 3038.5947 -380.3553 0.639 -0.288 -0.713 207 159 155
-2434.1138 3038.2229 -382.9074 0.671 -0.267 -0.692 203 155 151
-2433.1892 3047.0247 -386.5816 0.676 -0.277 -0.683 189 141 137
-2398.8188 3055.6904 -400.5362 -0.156 -0.855 -0.494 221 172 168
-2317.8000 3036.1628 -418.0479 0.999 -0.051 -0.002 220 171 167
-2259.2710 3112.1335 -465.3781 0.070 -0.668 0.741 209 156 150
-2187.4246 3139.1453 -497.9735 0.135 -0.825 0.548 207 154 136
-2179.6887 3138.8865 -500.2638 0.135 -0.825 0.548 205 155 138
-2132.9102 3262.7437 -562.3999 0.778 0.495 0.387 94 54 52
-2043.2406 3205.3506 -568.0061 0.779 0.148 -0.609 56 23 18
-2048.5464 3245.4771 -581.8154 0.975 0.150 -0.165 56 31 23
-2055.9553 3278.4431 -592.2184 0.416 -0.751 0.513 57 32 25
-2051.6978 3293.8511 -599.4658 0.774 -0.235 -0.588 52 28 22
-1470.6326 2522.2605 -481.9193 0.923 0.268 -0.276 165 77 37
-1478.3766 2543.1328 -487.5626 0.923 0.268 -0.276 165 77 36
-1483.8571 2560.4370 -492.5316 0.926 0.215 -0.310 163 78 35
-1489.5784 2578.2378 -497.6172 0.931 0.202 -0.305 161 79 35
-1495.0187 2595.6816 -502.6523 0.931 0.202 -0.305 161 80 37
-1499.5978 2611.8059 -507.4455 0.928 0.190 -0.320 162 81 38
-1535.9568 2698.4932 -529.5870 0.913 0.326 0.245 166 85 42
-1540.2957 2714.7285 -534.4971 0.914 0.324 0.243 166 85 42
-1553.1663 2763.7456 -549.3923 0.925 0.293 0.243 162 88 39
-1527.8737 2785.2695 -565.4927 0.745 0.305 0.593 155 90 50
-1527.7709 2794.4487 -569.0585 0.747 0.303 0.592 136 73 36
-1512.5070 2882.2317 -607.5701 0.679 0.174 0.713 109 45 15
-1520.3966 2906.4985 -614.4753 0.739 0.302 0.602 110 46 18
-1525.0984 2945.0972 -627.8832 0.760 0.201 0.618 120 56 32
-1520.9192 2947.4165 -630.0671 0.748 0.184 0.638 119 56 32
-1329.9609 3155.1245 -769.0280 0.917 0.145 -0.371 20 15 12
-1538.5063 3861.6833 -976.6227 0.317 -0.222 0.922 76 50 53
-1507.9797 3844.6677 -979.5026 0.419 -0.837 0.353 224 187 194
-1293.1029 3357.2012 -858.2134 0.972 0.227 -0.069 226 186 194
-1213.1598 3327.7668 -871.5788 0.119 -0.491 0.863 44 33 31
-2324.5430 1673.8748 102.6449 0.682 -0.074 0.727 204 185 167
-2303.8770 1666.3944 99.1863 0.756 -0.236 0.611 194 175 158
-2316.6929 1679.9705 97.8774 0.870 -0.018 0.493 188 169 152
-2312.0291 1682.5436 95.4501 0.874 -0.135 0.467 136 117 100
-2310.1562 1686.8851 93.1968 0.874 -0.135 0.467 55 36 19
-2183.9622 1899.1389 -27.6011 0.840 -0.277 0.467 52 43 34
-2180.8020 1902.7487 -29.9670 0.837 -0.285 0.467 66 57 48
-2178.9956 1907.4158 -32.3257 0.616 -0.712 0.336 86 77 68
-2172.8696 1908.7037 -34.7055 0.580 -0.726 0.370 78 69 60
-2169.9541 1912.5006 -37.0686 0.598 -0.720 0.352 44 35 26
-2165.5588 1977.0303 -63.3567 -0.104 -0.991 -0.085 81 63 57
-2155.5464 1975.0874 -65.6821 -0.114 -0.989 -0.093 93 74 67
-2145.6775 1973.2216 -67.9931 -0.099 -0.991 -0.085 135 115 108
-2324.1057 2203.6895 -102.2383 0.963 0.127 0.239 44 33 50
-2443.8840 3025.0454 -382.8538 0.625 -0.311 -0.716 214 166 162
-2440.4141 3040.6956 -389.9679 0.671 -0.267 -0.692 216 168 164
-2440.4175 3050.6011 -393.7948 0.671 -0.267 -0.692 217 169 165
-2438.2717 3067.9634 -401.1638 -0.173 -0.849 -0.500 193 145 141
-2429.6619 3067.7039 -403.7089 -0.173 -0.849 -0.500 192 144 140
-2417.0901 3062.6704 -405.6261 -0.149 -0.859 -0.490 209 160 156
-2375.6228 3072.4487 -422.1454 0.280 -0.950 0.138 221 172 168
-2346.6416 3056.8696 -425.0289 0.231 -0.827 0.513 221 172 168
-2335.5132 3053.0955 -426.9895 0.393 -0.919 -0.003 221 172 168
-2329.0493 3055.0400 -429.7269 0.355 -0.934 0.027 221 172 168
-2321.0542 3055.0598 -432.1909 0.385 -0.923 0.008 224 175 171
-2296.9263 3044.8037 -435.6405 0.070 -0.871 0.486 188 139 135
-2016.3074 3097.7258 -542.3094 0.302 -0.928 0.218 74 38 37
-2023.5739 3118.6194 -548.1512 0.355 -0.863 0.359 67 32 30
-2046.9475 3184.3474 -566.3708 0.083 -0.852 0.518 54 14 14
-2020.5811 3155.6855 -563.3951 -0.007 -0.883 0.470 53 15 12
-2054.4514 3238.1663 -584.8638 0.993 0.026 -0.116 55 29 19
-2052.0217 3245.2812 -588.3599 0.963 0.087 -0.255 84 57 46
-2056.6912 3274.0527 -598.0441 0.416 -0.751 0.513 100 71 62
-2055.7886 3294.5728 -606.2513 0.768 -0.216 -0.603 97 69 62
-1475.4359 2509.3918 -481.1221 0.851 -0.502 0.150 164 73 31
-1515.3792 2650.9026 -523.5374 0.936 0.286 0.203 166 84 44
-1528.4696 2681.4922 -531.3370 0.914 0.324 0.244 166 84 44
-1533.5618 2698.9075 -536.5026 0.913 0.322 0.250 164 85 42
-1537.8115 2715.0100 -541.4199 0.944 0.310 0.110 165 87 40
-1512.3301 2753.5693 -564.1501 0.559 0.239 0.794 124 69 39
-1509.7426 2758.3000 -566.7733 0.568 0.243 0.786 106 53 26
-1510.8120 2769.4302 -570.7460 0.580 0.263 0.771 106 53 26
-1511.2808 2836.3213 -596.4522 0.665 0.195 0.721 100 44 29
-1506.0511 2855.7947 -605.5846 0.669 0.202 0.715 81 28 10
-1503.0439 2860.0249 -608.1433 0.670 0.199 0.715 80 28 11
-1486.1205 2877.7236 -620.1826 0.736 0.128 0.664 102 35 9
-1481.6423 2889.0737 -625.9448 0.732 0.137 0.667 119 51 26
-1458.4019 2965.5017 -662.6210 0.848 0.250 0.468 102 65 45
-1455.4933 2970.0901 -665.2878 0.817 0.173 0.549 104 65 42
-1296.1920 3005.2546 -727.8207 1.000 0.021 -0.005 40 26 23
-1330.9301 3151.4453 -773.6439 0.915 0.140 -0.378 14 9 6
-1507.1400 3835.0161 -983.6738 0.403 -0.828 0.390 223 186 193
-2372.0959 1528.6359 167.6495 0.425 -0.296 0.856 113 95 82
-2342.0352 1532.5656 156.9403 0.311 -0.520 0.796 183 164 150
-2304.7817 1653.3878 98.6895 0.887 0.198 0.417 204 184 162
-2319.0957 1667.7870 97.4775 0.684 -0.074 0.726 203 186 168
-2298.1660 1660.1445 94.0472 0.855 0.010 0.519 205 188 171
-2310.9314 1673.6517 92.7080 0.882 0.129 0.454 133 117 100
-2309.6458 1678.3461 90.4942 0.903 -0.185 0.387 66 49 32
-2188.5742 1905.8090 -34.7335 0.179 -0.983 0.026 56 46 37
-2180.5566 1905.6484 -37.1209 0.188 -0.982 0.034 50 40 31
-2175.8984 1908.0890 -39.4908 0.191 -0.981 0.019 51 42 33
-2167.1812 1907.3317 -41.8606 0.192 -0.981 0.026 71 62 53
-2192.6965 1983.4691 -63.5992 0.846 -0.528 0.068 47 35 28
-2169.5212 1977.1821 -68.2414 -0.108 -0.990 -0.088 60 46 39
-2148.5981 1972.5488 -72.8369 -0.213 -0.947 -0.239 44 28 22
-2436.6663 3071.0518 -410.9423 -0.157 -0.861 -0.484 209 161 156
-2410.2856 3059.5068 -414.5242 -0.157 -0.862 -0.483 207 158 153
-2389.9463 3054.9436 -418.9686 0.155 -0.875 0.459 219 170 166
-2342.0901 3046.3059 -430.2399 0.385 -0.923 0.008 221 171 167
-2335.8506 3048.5435 -433.0142 0.403 -0.911 -0.088 222 172 168
-2332.0093 3053.7285 -436.1993 0.355 -0.934 0.027 221 171 167
-2324.0188 3053.7659 -438.6552 0.385 -0.923 0.008 211 161 157
-2255.8474 3097.4976 -476.4483 0.070 -0.654 0.753 223 170 161
-2256.0022 3169.4600 -504.3161 0.568 0.107 -0.816 203 147 138
-2047.2256 3117.0466 -547.7739 0.757 0.363 0.544 90 54 52
-2072.2048 3163.6460 -558.2182 0.766 0.409 0.496 75 39 39
-2021.6025 3110.5498 -553.0826 0.248 -0.866 0.434 57 22 24
-2051.6799 3186.0381 -573.1755 0.069 -0.956 0.286 48 8 9
-2041.6780 3181.7546 -574.5699 0.059 -0.943 0.328 49 9 7
-2057.4255 3269.6687 -603.8613 0.416 -0.751 0.513 111 78 66
-2053.7385 3274.9612 -607.0408 0.451 -0.722 0.525 106 74 63
-1464.9845 2488.4963 -481.8502 0.847 -0.452 -0.278 163 71 27
-1506.1417 2631.1653 -524.6179 0.975 -0.011 -0.222 160 82 41
-1511.3877 2648.5945 -529.7759 0.984 -0.013 -0.175 161 83 43
-1499.7100 2745.3533 -570.8778 0.580 0.263 0.771 79 33 14
-1499.1531 2753.5935 -574.2445 0.663 0.331 0.672 84 39 20
-1500.2224 2764.7261 -578.2362 0.674 0.346 0.653 89 44 25
-1501.4561 2776.2039 -582.3117 0.673 0.342 0.655 92 48 27
-1503.0859 2788.4414 -586.5607 0.672 0.356 0.649 98 54 35
-1485.1560 2870.9502 -624.0452 0.605 0.301 0.737 91 24 2
-1328.6968 3128.9736 -771.9399 0.921 0.202 -0.334 17 11 8
-1332.8201 3149.8918 -778.7945 0.915 0.140 -0.378 11 7 4
-1495.9360 3799.5554 -980.9679 0.423 -0.808 0.411 222 185 192
-1498.3362 3820.1021 -988.2048 0.086 -0.907 0.412 229 186 195
-1193.1860 3286.2119 -874.3384 0.111 -0.932 -0.345 42 32 27
-2363.8838 1521.6289 162.1497 0.431 -0.298 0.851 181 160 141
-2325.4419 1658.1113 97.3275 0.379 -0.328 0.865 202 185 166
-2301.3811 1648.6276 93.7095 0.887 0.198 0.417 209 192 174
-2314.2969 1662.1208 92.3800 0.684 -0.074 0.726 177 163 150
-2307.6765 1668.9276 87.7181 0.882 0.129 0.454 60 49 38
-2307.3357 1674.2045 85.5600 0.882 0.129 0.454 56 45 34
-2181.5820 1897.4025 -39.5556 0.534 -0.638 0.555 60 47 38
-2171.5442 1901.7023 -44.2798 0.534 -0.638 0.555 60 47 38
-2166.5391 1903.8464 -46.6354 0.534 -0.638 0.555 68 56 47
-2156.9106 1908.4033 -51.3353 0.887 0.288 -0.361 43 30 22
-2160.8728 1917.6257 -53.7223 0.887 0.288 -0.361 31 19 12
-2170.9065 1931.7216 -56.1621 0.918 0.352 -0.184 20 11 7
-2164.5513 1932.8037 -58.5144 0.860 0.376 -0.346 20 11 7
-2199.9653 1986.2565 -68.5670 0.862 -0.502 0.068 22 13 11
-2153.7717 1973.7257 -77.7234 -0.251 -0.925 -0.286 37 28 34
-2419.3003 3065.3164 -422.0760 0.289 -0.583 0.759 206 156 146
-2356.8821 3049.5496 -434.9022 0.587 -0.594 0.551 219 168 158
-2336.2869 3044.1211 -439.0462 0.387 -0.922 -0.000 225 172 160
-2311.5706 3043.2534 -446.2182 -0.114 -0.929 0.353 214 161 150
-2341.3730 3172.1418 -487.3481 0.493 -0.042 0.869 215 162 147
-2263.2085 3091.8730 -479.8436 0.056 -0.679 0.732 220 167 152
-2254.2241 3090.3223 -481.9696 0.056 -0.679 0.732 213 157 142
-2175.5012 3097.3552 -508.6273 0.399 -0.910 -0.113 203 152 133
-2162.6807 3090.1421 -509.7142 0.416 -0.893 -0.171 195 150 128
-2046.9158 3184.2107 -581.5158 0.072 -0.953 0.295 47 2 3
-2048.8975 3197.7253 -586.1758 0.322 -0.739 0.591 77 31 25
-1650.1237 2780.6162 -544.9308 0.012 -0.990 -0.141 144 68 23
-1507.9231 2621.0564 -526.0096 0.919 0.090 -0.384 137 63 23
-1509.6932 2632.6433 -529.9834 0.946 -0.125 -0.298 142 68 28
-1486.9961 2736.8176 -577.4420 0.673 0.348 0.653 60 17 5
-1488.3109 2748.3262 -581.5236 0.672 0.341 0.658 65 21 7
-1490.0436 2760.6316 -585.7885 0.672 0.345 0.655 69 27 11
-1489.9247 2769.7168 -589.3621 0.668 0.376 0.643 71 34 15
-1494.6300 2787.4326 -594.8303 0.668 0.376 0.643 74 42 21
-1490.4703 2789.4089 -596.8638 0.653 0.353 0.670 80 48 30
-1488.2706 2804.3418 -603.3466 0.628 0.309 0.714 95 61 41
-1484.4329 2806.9021 -605.5095 0.669 0.232 0.706 94 61 41
-1477.8267 2804.4316 -606.5548 0.633 0.052 0.772 83 50 31
-1465.9443 2820.8616 -616.5625 0.288 -0.171 0.942 73 19 0
-1447.0320 2843.5461 -631.1414 0.691 0.305 0.655 87 36 14
-1318.3944 3043.9136 -748.2438 0.993 0.118 0.026 28 23 23
-1362.5940 3212.3247 -800.3881 0.942 0.297 0.155 12 8 7
-1537.8097 3822.9099 -984.8931 0.432 -0.186 0.883 52 33 30
-1530.4773 3819.4771 -985.7843 0.458 -0.139 0.878 73 49 47
-1523.7074 3817.3606 -987.0172 0.422 -0.159 0.893 100 77 75
-1516.4812 3814.0623 -987.9285 0.435 -0.151 0.888 170 149 147
-1511.3076 3815.7849 -990.1713 0.435 -0.151 0.888 215 188 188
-1488.3033 3787.5371 -986.1620 0.598 0.055 0.800 233 184 195
-1200.6809 3261.7231 -868.8183 0.175 -0.405 0.897 59 45 39
-1204.5988 3297.6440 -881.6143 0.272 -0.818 -0.506 50 33 26
-1205.4066 3312.6714 -887.2201 0.342 -0.811 -0.475 51 36 29
-2379.3037 1512.1736 164.7963 0.449 -0.394 0.802 60 41 27
-2345.8743 1499.1293 159.7939 0.587 -0.260 0.767 141 122 108
-2336.4902 1499.0732 156.9805 0.400 -0.368 0.839 185 166 152
-2315.5923 1638.5209 96.1666 0.378 -0.337 0.862 199 182 164
-2327.0127 1650.9664 94.7531 0.380 -0.329 0.864 192 175 157
-2319.2468 1651.6229 92.1501 0.379 -0.328 0.865 208 191 173
-2311.5552 1652.3027 89.5604 0.688 -0.070 0.723 182 165 148
-2308.7688 1656.0157 87.2674 0.688 -0.070 0.723 106 92 82
-2301.2588 1656.7759 84.7012 0.834 0.280 0.476 70 57 48
-2175.5688 1895.8136 -46.6974 0.132 -0.983 0.127 60 47 38
-2168.6179 1896.4464 -49.0448 0.132 -0.983 0.127 60 47 38
-2162.4851 1897.6973 -51.3867 0.143 -0.980 0.139 67 54 45
-2166.0811 1906.5737 -53.7694 0.564 -0.645 0.515 60 47 38
-2162.1785 1915.6631 -58.5009 0.887 0.288 -0.361 42 30 23
-2169.5256 1927.6047 -60.9481 0.920 0.337 -0.200 29 21 17
-2148.1396 1953.5768 -77.5602 0.942 0.288 0.174 34 26 25
-2149.7876 1961.1366 -80.0170 0.938 0.284 0.199 31 25 30
-1721.9130 1821.4032 -154.6852 0.346 -0.316 0.883 212 163 157
-2376.9060 3049.1079 -436.6019 0.810 -0.575 -0.118 210 160 149
-2323.5991 3043.3149 -450.4443 0.120 -0.986 0.115 205 151 139
-2303.3594 3028.1079 -450.6162 0.317 -0.795 0.517 215 161 149
-2295.5789 3028.2793 -453.0341 0.318 -0.802 0.506 215 161 149
-2288.6526 3029.4861 -455.5985 0.326 -0.799 0.506 215 161 149
-2264.0212 3087.8669 -485.8574 -0.022 -0.802 0.596 213 157 142
-2194.6301 3087.5906 -506.7154 0.925 -0.249 0.288 211 149 136
-2088.2949 3093.8574 -541.2932 0.523 -0.430 0.736 83 48 52
-2081.7456 3094.7900 -543.6366 0.522 -0.408 0.749 84 38 54
-2050.7793 3174.0945 -583.9871 0.449 -0.555 0.700 70 36 34
-2048.0293 3191.0967 -591.4630 0.320 -0.741 0.591 87 43 30
-2060.6118 3252.6863 -611.7320 0.931 0.094 -0.353 133 84 55
-1506.2191 2605.2905 -526.2193 0.888 0.143 -0.437 136 63 22
-1509.6335 2619.4985 -530.7405 0.967 0.067 -0.246 137 64 23
-1503.6655 2697.5312 -563.0409 0.246 -0.554 0.795 172 93 50
-1493.3225 2688.8162 -562.7599 0.576 -0.088 0.813 170 94 54
-1478.3451 2772.3303 -599.9247 0.656 0.340 0.674 69 35 12
-1461.6989 2798.6807 -615.2527 0.303 -0.169 0.938 86 34 12
-1198.5436 3274.7820 -880.8362 0.560 -0.121 0.820 63 45 37
-2357.6462 1482.8586 164.0698 0.599 -0.219 0.770 66 47 33
-2353.5962 1485.7209 161.7301 0.599 -0.219 0.770 74 55 41
-2348.9163 1488.2396 159.3361 0.591 -0.245 0.768 90 71 57
-2374.5090 1507.1058 159.6244 0.449 -0.394 0.802 148 129 115
-2339.0156 1492.9604 154.5096 0.580 -0.262 0.772 173 154 140
-2305.6504 1629.8071 90.8024 0.374 -0.345 0.861 201 184 166
-2315.7317 1641.3849 89.2896 0.359 -0.353 0.864 201 184 166
-2306.9587 1641.3944 86.6501 0.540 -0.291 0.790 176 159 141
-2305.8416 1646.1178 84.4615 0.688 -0.065 0.723 82 65 48
-2303.0867 1649.8322 82.1768 0.688 -0.065 0.723 46 32 22
-2164.7595 1902.5574 -58.5229 0.596 -0.371 -0.712 63 50 41
-2172.4617 1914.6866 -60.9670 0.524 -0.331 -0.785 60 47 38
-2164.0945 1914.1838 -63.2836 0.606 -0.190 -0.772 56 44 37
-2168.9041 1924.0986 -65.7280 0.575 -0.268 -0.773 42 34 30
-2385.5845 3044.7275 -440.2308 0.384 -0.706 0.595 202 152 141
-2382.1006 3050.4324 -443.5154 0.821 -0.560 -0.114 206 156 145
-2271.9016 3082.9023 -489.3616 0.149 -0.861 0.486 217 161 146
-2194.6274 3082.5242 -512.4300 0.617 0.076 0.783 200 142 132
-2195.1843 3093.3611 -516.5139 0.605 0.105 0.789 196 143 129
-2089.6846 3090.7017 -547.1677 0.516 -0.427 0.742 65 48 48
-2083.4160 3092.0330 -549.5733 0.522 -0.405 0.751 59 41 47
-2050.1477 3167.8767 -589.3209 0.449 -0.555 0.700 99 75 58
-2046.0299 3172.2910 -592.2896 0.443 -0.548 0.710 99 67 48
-2044.6442 3191.3057 -600.1652 0.450 -0.644 0.619 125 81 53
-2042.8700 3199.2515 -603.8152 0.929 0.072 -0.363 134 83 54
-2086.0276 3296.4133 -628.9636 0.752 0.192 -0.630 140 86 56
-1500.7269 2591.9722 -528.4747 0.938 0.140 -0.317 136 63 22
-1500.2682 2599.7600 -531.6675 0.860 -0.156 0.486 137 64 23
-1503.9645 2614.4243 -536.3095 0.846 -0.146 0.512 142 69 28
-1453.4932 2778.8652 -615.9808 0.367 -0.165 0.915 91 36 10
-1447.6145 2777.5115 -617.2160 0.363 -0.167 0.917 82 24 2
-1443.5547 2779.4690 -619.2037 0.365 -0.167 0.916 73 14 0
-1433.4919 2798.7163 -629.7774 0.993 0.099 0.068 83 25 1
-1435.7498 2812.5068 -634.5088 0.998 0.063 0.018 85 27 2
-1436.5673 2823.6611 -638.6388 0.824 -0.476 -0.306 86 28 3
-1434.8094 2830.0032 -641.6548 0.746 -0.662 -0.064 84 27 2
-1433.0170 2836.2996 -644.6633 0.769 -0.635 0.075 85 27 2
-1334.6282 3102.3914 -778.6071 0.981 0.111 -0.160 13 9 8
-1351.4384 3151.7817 -792.9316 0.966 0.152 -0.209 13 9 8
-1348.2734 3179.1650 -804.6245 0.655 -0.613 0.442 9 8 6
-2354.2600 1478.6249 159.0862 0.573 -0.258 0.778 72 53 39
-2348.8645 1480.7578 156.6344 0.599 -0.219 0.770 92 73 59
-2344.3508 1483.3536 154.2639 0.591 -0.245 0.768 155 136 122
-2340.1636 1486.1183 151.9244 0.591 -0.245 0.768 177 158 144
-2324.5410 1633.3287 89.2946 0.404 -0.240 0.883 199 182 164
-2318.1772 1634.8472 86.7955 0.404 -0.240 0.883 195 178 160
-2311.8323 1636.3611 84.3039 0.404 -0.240 0.883 160 143 125
-2302.5383 1636.0432 81.6525 0.540 -0.291 0.790 86 69 51
-2299.3901 1639.4939 79.3533 0.549 -0.515 0.658 66 49 32
-2159.4453 1895.4243 -63.2250 0.507 -0.471 -0.722 65 52 43
-2158.1497 1900.4485 -65.5903 0.507 -0.471 -0.722 67 54 45
-2148.8538 1899.1740 -67.8656 0.648 -0.319 -0.692 67 55 48
-2146.0339 1902.9894 -70.2103 0.662 -0.343 -0.666 51 42 40
-2133.8997 1899.4065 -72.4247 0.652 -0.520 -0.552 51 43 41
-1735.1490 1762.1401 -137.5037 0.490 -0.102 0.866 53 33 43
-2379.7158 3042.6003 -449.1083 0.910 -0.339 0.239 207 157 146
-2356.8054 3044.4941 -456.6983 0.805 -0.586 0.091 169 115 103
-2349.2068 3045.1113 -459.2115 0.009 -0.967 -0.253 202 148 136
-2300.6572 3024.7417 -465.6953 -0.201 -0.948 -0.247 215 161 149
-1991.6152 2977.1868 -539.2969 0.542 -0.103 0.834 31 49 38
-2049.5181 3161.6770 -594.6396 0.449 -0.555 0.700 115 97 65
-2045.6570 3166.4553 -597.6746 0.445 -0.542 0.713 116 89 55
-1507.1907 2598.2144 -534.8016 0.738 -0.143 0.659 138 65 24
-1487.9020 2635.3140 -555.1717 0.998 -0.006 -0.063 164 85 44
-1492.5967 2669.6333 -567.2821 0.390 -0.649 0.653 160 83 39
-1473.1050 2671.7893 -573.9541 0.263 -0.432 0.863 152 96 61
-1449.9141 2712.1465 -596.7726 0.788 0.267 0.555 147 89 62
-1456.3740 2742.0591 -606.6204 0.821 0.365 0.439 146 88 61
-1451.4204 2751.6472 -611.8755 0.659 0.114 0.744 143 85 58
-1445.5210 2750.2341 -613.0816 0.688 0.185 0.702 145 86 56
-1444.1053 2756.9624 -616.1537 0.333 -0.209 0.920 141 80 49
-1441.7002 2761.9023 -618.8173 0.328 -0.210 0.921 131 68 39
-1438.5251 2765.4370 -621.1575 0.391 -0.180 0.902 121 58 29
-1432.4644 2773.0393 -625.9616 0.999 0.043 -0.031 111 48 19
-1430.7794 2779.3435 -628.9471 0.998 0.062 -0.019 112 49 20
-1431.5361 2790.2229 -633.0048 0.998 0.062 -0.019 112 49 20
-1435.1851 2806.5735 -638.3525 0.997 0.075 0.016 114 51 22
-1435.6373 2817.0105 -642.3269 0.823 -0.522 -0.223 114 51 21
-1435.0160 2825.4731 -645.8446 0.514 -0.850 -0.115 112 49 19
-1431.6643 2828.8005 -648.1560 0.686 -0.699 -0.203 112 47 17
-1329.1084 3084.1948 -779.3534 0.358 -0.384 -0.851 14 10 9
-1345.5732 3132.6462 -793.5117 0.996 -0.042 -0.081 13 9 8
-1351.1477 3156.7129 -801.3224 0.996 0.012 -0.090 13 9 8
-1352.3226 3170.9065 -806.5599 0.999 0.049 -0.025 12 8 7
-1347.0906 3170.5107 -807.9672 0.875 -0.168 0.454 9 8 6
-2375.1365 1482.2524 158.2276 0.848 0.165 0.504 68 50 38
-2344.9717 1471.2648 153.6094 0.922 0.327 -0.209 108 89 75
-2343.9880 1475.7310 151.5522 0.591 -0.245 0.768 167 148 134
-2339.8101 1478.4940 149.2192 0.591 -0.245 0.768 188 169 155
-2323.9089 1624.9387 86.6212 0.415 -0.241 0.877 192 175 157
-2317.7263 1626.5663 84.1415 0.415 -0.241 0.877 207 190 172
-2306.0608 1624.8357 81.3602 0.401 -0.243 0.883 154 137 119
-2299.7197 1626.3228 78.8889 0.401 -0.243 0.883 82 65 47
-2290.9148 1626.2795 76.2905 0.399 -0.246 0.883 42 25 7
-2296.4021 1635.0262 74.4638 0.550 -0.536 0.640 63 46 29
-2139.2910 1870.7593 -65.3671 0.742 -0.007 -0.670 63 50 41
-2145.2483 1881.3706 -67.7911 0.780 -0.009 -0.626 60 47 38
-2147.0835 1888.8014 -70.1825 0.780 -0.009 -0.626 55 42 33
-2163.1663 1907.4761 -72.7852 0.953 0.297 -0.066 50 38 31
-2167.2881 1916.8121 -75.2505 0.953 0.301 -0.046 21 12 10
-2345.3679 2976.9170 -441.3012 0.409 -0.893 0.186 230 180 169
-2364.1060 3038.5403 -460.0883 0.694 -0.718 0.046 195 143 132
-2358.3406 3041.4158 -462.9373 0.805 -0.586 0.091 199 145 133
-2354.7104 3046.8857 -466.1773 0.009 -0.967 -0.253 201 147 135
-2167.1611 3016.2734 -509.7913 0.380 -0.492 0.783 196 138 125
-1934.8395 2882.5564 -525.9583 0.742 0.428 0.517 15 50 35
-2253.1440 3501.4089 -675.9737 0.880 -0.055 -0.472 135 72 31
-1501.3635 2542.4080 -520.2976 0.235 -0.947 0.220 139 66 21
-1506.2177 2558.5298 -525.2269 0.310 -0.874 0.374 139 66 21
-1490.5518 2541.6741 -523.2192 0.995 -0.084 -0.058 139 66 23
-1498.3497 2605.0645 -545.9544 0.584 0.178 0.792 144 71 30
-1472.1460 2656.7749 -574.1740 0.346 -0.431 0.833 150 86 51
-1435.6171 2736.7744 -616.6405 0.574 0.046 0.817 158 90 56
-1433.6072 2760.9910 -626.8079 0.397 -0.181 0.900 156 88 53
-1433.8193 2770.7607 -630.6059 0.992 0.109 0.065 155 87 52
-1433.1672 2788.4348 -637.7843 0.994 0.107 0.024 155 88 51
-1438.0725 2807.1089 -643.7071 0.996 0.016 0.087 159 92 55
-1439.5460 2819.4573 -648.1495 0.688 -0.712 -0.139 157 90 53
-1439.1497 2828.3501 -651.7816 0.505 -0.854 -0.125 151 83 46
-1433.7903 2827.9001 -653.1957 0.345 -0.931 0.116 147 77 40
-1363.7325 2970.0608 -730.1879 0.740 -0.393 -0.545 146 83 53
-1363.2573 2979.5762 -734.0895 0.741 -0.347 -0.575 144 82 50
-1359.0771 2981.2803 -736.0047 0.742 -0.331 -0.583 142 82 49
-1336.1144 2995.7634 -748.5494 0.734 -0.354 -0.580 55 42 41
-1344.2491 3045.9507 -765.9669 0.207 -0.680 -0.703 47 43 44
-1340.4030 3048.4236 -768.0867 0.193 -0.622 -0.759 38 34 35
-1334.3223 3045.9387 -768.9110 0.250 -0.561 -0.789 29 25 26
-1328.9387 3044.9543 -770.1211 0.360 -0.442 -0.822 23 19 20
-1329.0455 3067.2324 -778.8936 0.359 -0.413 -0.837 14 10 11
-1330.2297 3081.0024 -783.9837 0.295 -0.542 -0.787 16 12 11
-1334.5856 3102.0139 -790.9935 0.988 -0.132 0.079 15 11 10
-1336.0643 3116.6394 -796.3342 0.998 -0.013 -0.055 15 11 10
-1332.5081 3131.2637 -803.1700 1.000 0.016 -0.023 12 11 9
-1332.7650 3201.3848 -830.8052 0.700 0.351 0.622 28 11 11
-1265.1864 3278.6311 -881.4070 0.947 0.319 0.049 144 97 84
-1279.8726 3485.8669 -958.9433 -0.023 -0.981 -0.191 57 41 36
-2372.3293 1473.3153 155.2772 0.824 0.150 0.547 75 57 46
-2369.8745 1477.0375 153.0758 0.848 0.169 0.502 128 109 95
-2369.1077 1481.6569 151.0170 0.886 0.186 0.424 178 159 145
-2337.7014 1469.9668 146.3779 0.570 -0.286 0.770 180 161 147
-2390.6519 1523.7941 140.6664 0.945 0.271 0.183 191 169 147
-2321.9468 1615.7867 83.8848 0.392 -0.255 0.884 200 183 165
-2315.4131 1617.1978 81.3954 0.392 -0.255 0.884 206 189 171
-2308.8999 1618.6044 78.9138 0.392 -0.255 0.884 142 125 107
-2299.0022 1617.9343 76.2562 0.401 -0.243 0.883 75 58 40
-2292.6960 1619.4258 73.8021 0.401 -0.243 0.883 63 46 28
-2176.3096 1902.6603 -72.9189 0.918 0.115 -0.379 57 44 35
-2167.3066 1901.6849 -75.1911 0.894 0.285 0.345 48 35 27
-2167.9441 1908.2500 -77.6069 0.875 0.352 0.332 40 28 21
-2170.3149 1916.2041 -80.0616 0.875 0.350 0.334 21 12 10
-2166.9915 1919.6826 -82.4230 0.898 0.351 0.265 20 12 10
-1654.5485 1648.7548 -126.3112 0.882 0.410 -0.230 37 34 51
-1671.6364 1668.8256 -129.2253 0.826 0.440 -0.351 38 34 51
-2341.9026 2939.2529 -435.1776 0.892 0.340 0.298 216 166 155
-2363.0283 3002.9048 -454.1857 0.581 -0.533 0.615 207 157 146
-2364.4185 3033.9846 -466.1030 0.882 -0.423 -0.206 211 159 148
-2359.4604 3037.8362 -469.0951 0.810 -0.580 0.091 232 178 166
-2360.2302 3048.6658 -473.1632 0.009 -0.967 -0.253 212 158 146
-2360.5125 3058.9409 -477.1556 -0.267 -0.947 -0.177 189 135 123
-2348.6389 3054.3262 -478.8320 -0.185 -0.963 -0.195 175 121 109
-2300.5623 3044.3464 -489.0733 0.392 -0.910 -0.132 214 158 143
-2059.3445 3176.0273 -612.5496 0.176 -0.851 0.496 124 79 25
-2040.0671 3158.1272 -611.1431 0.443 -0.642 0.626 129 76 24
-1515.9847 2536.5867 -519.3975 0.822 -0.387 0.417 134 61 16
-1513.9006 2541.5718 -521.9904 0.837 -0.335 0.432 133 60 15
-1513.3932 2549.0762 -525.1169 0.823 -0.378 0.424 134 61 16
-1507.8120 2573.6538 -536.5141 0.994 -0.025 -0.103 133 60 17
-1489.8763 2638.5144 -567.5386 0.935 -0.036 0.353 154 76 37
-1453.4779 2585.8545 -557.4014 0.396 -0.875 0.277 155 80 38
-1453.5540 2594.5466 -560.8267 0.539 -0.783 0.312 156 80 38
-1447.2720 2592.4705 -561.8586 0.930 0.131 0.343 158 79 39
-1473.0886 2653.9136 -578.6051 0.331 -0.414 0.848 153 85 47
-1447.8367 2735.7656 -618.5302 0.711 0.246 0.659 170 88 58
-1441.0790 2751.2854 -626.6821 0.297 -0.243 0.924 169 96 56
-1440.7139 2759.9377 -630.2219 0.613 -0.007 0.790 169 96 56
-1436.9055 2762.3000 -632.2838 0.650 0.068 0.757 163 90 50
-1436.7161 2771.3284 -635.9208 0.986 0.108 0.130 160 87 47
-1436.1658 2779.7290 -639.4155 0.983 0.182 0.032 160 87 47
-1435.3210 2787.6184 -642.7944 0.983 0.170 0.068 160 87 46
-1437.6426 2801.4468 -647.5938 0.996 0.016 0.087 164 91 50
-1440.9753 2817.2456 -652.8760 0.762 -0.065 0.644 162 89 48
-1443.3553 2831.3450 -657.7656 0.753 -0.021 0.658 155 82 40
-1439.3990 2833.5679 -659.8159 0.745 -0.058 0.665 150 76 36
-1418.3622 2803.4304 -654.0751 0.626 -0.775 -0.083 141 67 29
-1414.5837 2805.8469 -656.1495 0.694 -0.209 0.689 143 69 30
-1417.9781 2821.9414 -661.5309 0.771 -0.161 0.616 150 76 36
-1364.1760 2955.1924 -730.2759 0.589 -0.441 0.677 172 100 59
-1368.9866 2975.7375 -737.0045 0.733 -0.406 -0.546 167 90 49
-1370.5372 2989.5413 -742.0218 0.719 -0.385 -0.578 160 84 43
-1369.1843 2997.2783 -745.4903 0.719 -0.385 -0.578 159 84 44
-1356.6188 2981.2239 -742.8335 0.780 -0.376 -0.501 152 86 54
-1351.0140 2979.8613 -743.9484 0.790 -0.468 -0.396 143 86 62
-1347.4716 2982.8745 -746.1899 0.708 -0.569 -0.419 126 81 67
-1344.6562 2987.4456 -748.8345 0.682 -0.568 -0.461 104 69 65
-1342.1697 2992.7322 -751.6660 0.682 -0.568 -0.461 73 49 49
-1339.7091 2998.0876 -754.5170 0.734 -0.354 -0.580 58 42 43
-1339.9160 3085.8684 -789.2744 0.302 -0.549 -0.779 23 19 20
-1338.7019 3094.3159 -792.9836 0.303 -0.554 -0.775 21 17 18
-1335.6400 3098.6360 -795.6015 0.976 -0.147 0.161 21 17 16
-1320.8821 3076.4978 -791.1792 0.993 0.039 0.110 21 17 16
-1338.3326 3138.7087 -810.7012 0.690 0.267 0.672 24 23 21
-1326.6696 3123.4592 -808.0972 0.977 0.209 0.048 24 23 21
-1322.3818 3147.9319 -819.0707 0.732 0.295 0.614 24 14 12
-1244.4989 3219.8230 -870.5897 0.277 -0.555 0.784 139 92 74
-1174.4729 3100.4766 -843.9330 0.818 -0.218 -0.532 173 125 102
-1170.2905 3101.4294 -845.5463 0.026 -0.929 -0.369 176 128 105
-1165.5570 3100.9219 -846.7430 0.019 -0.931 -0.364 177 129 105
-2371.3792 1460.4128 154.4872 0.796 0.120 0.593 64 52 40
-2370.5298 1464.9529 152.4303 0.796 0.120 0.593 99 86 74
-2366.0222 1472.5800 148.0703 0.848 0.169 0.502 169 150 136
-2340.7935 1464.2360 143.9835 0.914 0.376 -0.150 180 161 147
-2314.7043 1608.8417 78.7534 0.407 -0.258 0.876 202 185 167
-2307.0728 1609.5740 76.2208 0.518 -0.134 0.845 121 104 86
-2301.8789 1611.7588 73.8257 0.392 -0.255 0.884 61 44 26
-2296.3916 1613.7552 71.4196 0.422 -0.234 0.876 43 26 8
-2164.0239 1902.1935 -82.2810 0.895 0.290 0.339 25 13 6
-2159.6597 1904.8212 -84.6088 0.891 0.358 0.279 21 12 10
-2368.4666 3033.9521 -472.8080 0.727 -0.656 0.206 212 160 148
-2362.3618 3036.4224 -475.5842 0.718 -0.670 0.187 217 163 150
-2366.8918 3051.8210 -480.3842 -0.194 -0.959 -0.207 215 161 149
-2338.1885 3046.4358 -486.6693 -0.008 -0.871 -0.491 195 141 129
-2133.2104 2971.5364 -517.0446 0.275 -0.511 0.815 161 114 106
-1515.1467 2522.8572 -519.9207 0.854 -0.160 0.495 134 61 16
-1512.8357 2527.4448 -522.4257 0.854 -0.160 0.495 134 61 16
-1510.3572 2531.7756 -524.8777 0.866 -0.282 0.414 133 60 15
-1510.7605 2540.6892 -528.3078 0.868 -0.349 0.353 128 55 10
-1504.3698 2555.4646 -536.0667 0.983 -0.181 0.037 128 55 12
-1484.9443 2599.9392 -559.4769 0.938 -0.109 0.330 144 69 29
-1482.4497 2604.3733 -561.9747 0.997 0.054 -0.049 143 70 27
-1483.9453 2615.4846 -565.9590 0.997 0.060 -0.045 146 69 29
-1464.5568 2591.6106 -562.1482 0.482 -0.834 0.267 149 72 33
-1454.8369 2583.8171 -561.8998 0.396 -0.875 0.277 155 81 40
-1448.1519 2581.0698 -562.7692 0.395 -0.875 0.281 155 81 38
-1452.9288 2632.4119 -581.8062 0.975 -0.219 -0.020 156 84 45
-1438.6412 2714.5320 -618.6946 0.692 0.097 0.715 175 86 54
-1431.8096 2720.4946 -623.0745 0.289 -0.261 0.921 179 101 60
-1433.3159 2760.2939 -638.4766 0.976 0.034 0.215 163 86 44
-1433.2258 2769.5010 -642.1685 0.984 0.176 0.027 163 86 44
-1433.3429 2779.1343 -645.9692 0.990 0.132 0.039 163 86 44
-1438.4385 2798.0828 -652.0164 0.996 -0.003 0.089 167 90 48
-1434.8816 2810.5344 -658.0179 0.799 0.144 0.584 158 81 37
-1415.4579 2793.0708 -656.7695 0.705 -0.203 0.679 144 66 27
-1410.8824 2793.9443 -658.4609 0.710 -0.193 0.678 146 68 27
-1389.0834 2838.8953 -682.7578 0.855 -0.077 -0.514 172 88 57
-1390.7406 2851.9814 -687.4808 0.855 -0.077 -0.514 171 89 54
-1378.1160 2937.3813 -725.1865 0.801 -0.343 0.490 172 97 49
-1377.4728 2946.3765 -728.9564 0.789 -0.350 0.504 169 95 49
-1369.0403 2939.2756 -728.6058 0.791 0.201 0.578 167 93 47
-1363.9924 2949.4922 -734.1555 0.589 -0.441 0.677 159 80 32
-1366.6672 2965.5127 -739.7479 0.926 -0.236 -0.296 162 79 32
-1373.5719 2990.5281 -747.6791 0.723 -0.391 -0.569 172 89 44
-1372.1637 2998.1509 -751.1274 0.723 -0.391 -0.569 170 88 46
-1345.9448 2963.6711 -745.1001 0.928 0.109 0.357 147 86 62
-1350.9261 2984.8445 -752.0666 0.772 -0.634 0.051 112 64 52
-1346.7960 2986.6074 -753.9813 0.581 -0.644 0.498 79 43 41
-1343.3628 2989.8557 -756.2827 0.586 -0.650 0.484 63 39 42
-1342.8450 2999.4038 -760.2359 0.736 -0.668 -0.111 57 43 46
-1340.3954 3081.2371 -793.5338 0.069 -0.880 -0.469 33 29 30
-1337.9175 3086.8325 -796.4891 0.040 -0.890 -0.454 27 23 24
-1335.2244 3091.9585 -799.3206 0.987 -0.133 0.093 28 24 23
-1333.5425 3133.3374 -816.2878 0.688 0.272 0.673 38 34 33
-1333.3981 3144.4458 -820.7526 0.661 0.290 0.692 38 34 33
-1313.4590 3179.1968 -840.4425 0.771 0.344 0.536 17 8 6
-1177.6208 3090.7964 -845.1395 0.642 -0.674 -0.365 152 101 74
-1177.6766 3102.6880 -849.8572 0.753 -0.295 -0.588 182 132 106
-1170.8567 3096.8262 -849.5262 0.162 -0.682 -0.713 185 134 107
-1167.5155 3099.9392 -851.7468 0.162 -0.682 -0.713 185 135 107
-1132.3466 3090.0278 -858.1286 0.672 -0.038 0.740 59 42 33
-2350.7803 1442.3848 150.0502 0.379 -0.408 0.831 64 50 37
-2366.0369 1455.2321 149.3712 0.795 0.120 0.595 97 83 70
-2365.1824 1459.7522 147.3156 0.795 0.120 0.595 159 144 132
-2355.8262 1474.7739 138.5818 0.837 -0.036 0.547 192 172 156
-2360.5708 1482.3096 136.9561 0.755 -0.449 0.478 190 170 154
-2270.9238 1543.8824 86.1803 0.470 -0.634 0.614 202 180 160
-2299.4543 1565.6926 85.7955 0.615 -0.195 0.764 202 180 160
-2317.3513 1597.2245 78.4217 0.504 -0.155 0.850 203 182 163
-2312.5974 1599.6892 76.0489 0.504 -0.155 0.850 194 177 160
-2294.8877 1626.2584 60.2622 0.883 -0.450 -0.134 69 53 38
-2146.6790 1879.6569 -84.2580 0.773 -0.286 0.567 28 18 10
-2147.0312 1885.9186 -86.6572 0.790 -0.257 0.557 13 3 0
-2362.9814 3022.4104 -477.7101 0.749 -0.626 0.215 217 165 153
-2366.1030 3036.0225 -482.2377 0.736 -0.632 0.243 220 167 153
-2373.3218 3054.6760 -487.5834 -0.194 -0.959 -0.207 217 164 151
-2355.5107 3052.8137 -492.0395 -0.186 -0.961 -0.204 215 161 148
-2308.4526 3034.3945 -498.4190 -0.155 -0.975 -0.161 186 133 119
-2307.5771 3043.1868 -502.1876 -0.052 -0.979 -0.200 198 146 130
-2255.7041 3047.1140 -518.9017 0.427 -0.125 0.896 192 141 126
-2141.1724 3065.8384 -559.8221 0.668 -0.020 -0.744 21 52 55
-2146.6685 3083.3691 -565.2221 0.668 -0.020 -0.744 18 53 54
-1940.0204 2810.9780 -516.7175 0.818 0.391 -0.421 18 53 54
-1217.8639 1898.1434 -362.8228 0.690 0.239 -0.683 109 72 42
-1493.9757 2469.4302 -510.4749 0.620 -0.157 -0.769 139 66 23
-1504.1823 2493.4011 -517.0729 0.890 -0.065 -0.452 137 64 22
-1513.8441 2516.6677 -523.5485 0.773 -0.329 0.543 136 63 21
-1511.8875 2521.7944 -526.1682 0.765 -0.339 0.548 135 63 18
-1512.9586 2531.7153 -529.8196 0.841 -0.326 0.431 135 62 18
-1510.2195 2535.6433 -532.1887 0.841 -0.326 0.431 126 53 9
-1472.7067 2566.8743 -555.6199 0.786 -0.547 0.288 134 59 20
-1471.9523 2574.0833 -558.7206 0.839 -0.508 -0.196 136 62 22
-1452.5924 2567.2424 -561.6395 0.630 -0.643 -0.435 142 66 27
-1446.0619 2564.7468 -562.5491 0.531 -0.815 0.230 151 78 38
-1444.5171 2570.6191 -565.3464 0.569 -0.789 0.233 152 79 39
-1445.0413 2580.0127 -568.9467 0.631 -0.775 -0.037 156 79 40
-1451.0525 2624.7544 -585.0689 0.962 -0.269 -0.053 159 86 43
-1449.5887 2630.9656 -587.9781 0.961 -0.274 -0.036 156 81 39
-1428.9244 2804.0476 -663.1686 0.724 0.076 0.686 156 77 36
-1404.2803 2776.5874 -659.3917 0.074 -0.917 0.393 144 65 24
-1397.7953 2773.7561 -660.1537 0.079 -0.913 0.400 150 71 28
-1389.9127 2768.2090 -660.2388 0.433 -0.850 -0.302 152 73 32
-1376.8864 2771.6487 -665.4163 0.552 -0.834 -0.009 164 81 47
-1372.4708 2772.6160 -667.0920 0.616 -0.787 0.043 164 81 47
-1366.4823 2789.6201 -675.6346 0.871 0.034 -0.490 170 86 55
-1376.1515 2847.6428 -695.9954 0.354 -0.362 0.862 173 96 47
-1372.8630 2850.9617 -698.2817 0.386 -0.343 0.857 175 95 49
-1368.4797 2852.0833 -700.0096 0.394 -0.334 0.856 156 76 30
-1366.7562 2919.0288 -727.2618 0.803 0.270 0.532 173 97 48
-1354.4147 2976.3015 -753.7493 0.907 0.109 0.407 133 76 51
-1351.8331 2981.3667 -756.5268 0.590 -0.653 0.476 92 47 36
-1347.8715 2983.4871 -758.5307 0.590 -0.653 0.476 63 32 32
-1348.5027 2995.4670 -763.1332 0.880 -0.474 -0.028 55 34 39
-1345.8829 3000.4968 -765.9078 0.880 -0.474 -0.028 53 41 48
-1343.2610 3005.5315 -768.6849 0.880 -0.474 -0.028 46 40 45
-1340.5563 3010.3965 -771.4185 0.649 -0.755 -0.093 48 47 50
-1338.0769 3015.7620 -774.2863 0.679 -0.729 -0.083 55 51 53
-1336.6942 3034.4009 -782.1374 0.619 -0.656 0.432 56 52 54
-1322.1487 3090.2700 -808.7075 0.685 0.269 0.677 41 37 36
-1327.6675 3114.0991 -816.6175 0.688 0.280 0.670 43 39 38
-1330.5029 3143.3855 -827.4915 0.677 0.295 0.674 53 48 46
-1186.5496 3095.9373 -850.5616 0.173 -0.791 0.587 148 98 70
-1179.1040 3088.5791 -849.7954 0.630 -0.585 -0.510 150 99 71
-1181.2821 3105.9172 -856.0872 0.753 -0.295 -0.588 175 124 98
-1175.9127 3103.8481 -856.8281 0.165 -0.680 -0.715 180 128 101
-1172.2750 3106.2288 -858.8413 0.162 -0.682 -0.713 180 130 102
-2368.6643 1429.5631 154.8187 0.384 -0.247 0.890 64 43 29
-2365.2827 1447.4999 146.6441 0.689 -0.217 0.692 121 98 83
-2292.9912 1559.3984 80.7868 0.691 -0.345 0.635 199 182 168
-2315.8442 1588.4838 75.7564 0.670 -0.014 0.742 190 173 160
-2310.8325 1590.7872 73.3779 0.504 -0.155 0.850 192 175 163
-2076.3276 1898.3688 -118.0372 0.058 -0.971 0.233 46 43 55
-2066.4097 1896.2410 -120.0627 0.955 0.177 0.240 56 54 66
-2333.0425 3049.9956 -505.3478 -0.217 -0.948 -0.232 211 158 142
-2317.0205 3040.0781 -506.0213 -0.160 -0.974 -0.162 204 154 137
-2293.8740 3031.0312 -509.1119 0.481 -0.165 0.861 161 119 100
-2194.3660 2992.9705 -522.7325 -0.176 -0.965 0.194 175 146 134
-2139.0811 3038.0610 -556.8620 0.945 -0.187 -0.268 22 49 37
-2158.4397 3074.1326 -565.7083 0.918 0.057 -0.392 20 50 42
-1506.0721 2492.2598 -521.7250 0.697 -0.202 -0.688 145 73 34
-1513.8741 2512.5806 -527.6094 0.687 -0.451 0.569 143 73 36
-1512.0184 2517.8540 -530.2628 0.749 -0.339 0.569 143 73 33
-1508.8684 2521.0999 -532.4787 0.749 -0.339 0.569 141 72 32
-1460.2289 2542.0508 -554.9989 0.930 -0.264 0.256 113 41 5
-1460.5527 2550.9504 -558.4738 0.888 -0.386 0.251 117 47 10
-1456.1190 2560.4062 -563.5527 0.616 -0.666 -0.421 118 47 10
-1450.6719 2559.7485 -564.8701 0.599 -0.696 -0.396 123 52 15
-1450.6085 2568.0930 -568.2348 0.545 -0.793 0.272 136 66 29
-1451.3181 2577.7751 -571.9116 0.543 -0.840 -0.012 140 72 32
-1450.0568 2584.1719 -574.8430 0.629 -0.777 -0.036 149 78 39
-1453.9037 2625.2290 -590.1910 0.976 -0.217 -0.027 156 82 42
-1440.3090 2654.3743 -605.8250 0.385 -0.527 0.758 162 82 44
-1437.9191 2787.4575 -659.8878 0.932 -0.258 0.254 176 98 59
-1410.8278 2774.6704 -662.6235 0.074 -0.917 0.393 145 67 28
-1399.2035 2771.6106 -664.7706 0.079 -0.913 0.400 141 64 24
-1393.4463 2770.1272 -665.8469 0.416 -0.838 -0.355 141 63 24
-1392.1659 2777.1633 -669.0402 0.300 -0.792 -0.532 147 70 31
-1384.6506 2772.2612 -669.2557 0.523 -0.807 -0.274 147 71 33
-1378.7731 2770.4492 -670.2352 0.552 -0.834 -0.009 146 71 32
-1372.7556 2768.3259 -671.1302 0.593 -0.729 -0.342 147 72 33
-1365.5210 2763.7966 -671.4139 0.597 -0.743 -0.302 155 81 42
-1370.0347 2900.1887 -724.7998 0.993 -0.105 -0.059 148 76 34
-1368.6169 2907.4409 -728.1196 0.990 -0.112 -0.083 152 80 34
-1353.1793 2906.1956 -732.1011 0.839 0.210 0.502 177 98 50
-1349.7416 2909.2688 -734.3315 0.832 0.231 0.504 170 91 42
-1351.0149 2922.1721 -739.1364 0.857 0.283 0.430 164 88 41
-1353.3018 2968.5574 -757.0740 0.905 0.109 0.412 89 48 30
-1351.2676 2974.7612 -760.1523 0.906 0.113 0.407 61 33 26
-1351.1257 2985.0281 -764.3107 0.846 0.077 0.528 52 36 39
-1313.8798 3032.7163 -794.2459 0.926 0.077 0.368 36 30 32
-1302.9746 3019.1594 -791.9747 0.966 0.002 0.258 35 31 32
-1304.0203 3076.7646 -814.7720 0.998 0.012 0.056 57 47 48
-1300.9098 3208.0383 -868.3184 -0.282 -0.780 0.558 30 19 16
-1182.3906 3079.3196 -851.1014 0.570 -0.652 -0.500 136 91 69
-1182.1481 3090.3596 -855.5992 0.630 -0.585 -0.510 139 96 73
-1183.4674 3105.4756 -861.2780 0.842 -0.242 -0.483 159 114 92
-1180.7172 3110.1836 -863.9643 0.165 -0.680 -0.715 166 121 99
-1177.0613 3112.5532 -865.9758 0.162 -0.682 -0.713 171 127 105
