ply
format ascii 1.0
element vertex 786
property float x
property float y
property float z
property float nx
property float ny
property float nz
property uchar diffuse_red
property uchar diffuse_green
property uchar diffuse_blue
end_header
-2419.7322 3350.6726 17.6509 0.199 -0.444 -0.874 37 36 44
-2385.9402 3462.5686 -29.4698 -0.068 -0.732 -0.678 48 47 61
-2453.4070 3603.5530 -43.0916 0.847 0.223 0.483 52 55 65
-2415.9763 3610.6152 -60.7399 0.577 -0.810 -0.102 213 195 206
-2432.4570 3646.3271 -64.4436 0.976 0.215 -0.008 215 192 204
-2517.2791 3818.8911 -80.1840 -0.047 -0.966 0.255 211 185 186
-2535.8513 3884.9050 -91.9743 0.420 -0.423 0.803 140 114 115
-2454.0334 3828.3250 -109.2654 0.865 -0.067 0.497 131 106 109
-2449.8599 3847.9182 -116.7917 0.381 -0.795 -0.471 141 116 119
-2445.6606 3854.5603 -120.5005 0.387 -0.848 -0.362 145 120 123
-2436.0627 3853.0010 -124.0298 0.383 -0.858 -0.344 155 130 133
-2429.4631 3855.9641 -127.6492 0.363 -0.863 -0.352 163 137 140
-1911.7623 4491.9331 -530.8427 0.427 -0.653 -0.626 230 201 206
-1623.0830 4032.8853 -515.1779 0.958 0.208 0.195 227 188 189
-1681.1033 4206.3652 -542.3314 0.955 0.272 -0.120 220 181 182
-1708.2520 4289.5137 -555.6205 0.956 0.292 0.034 221 181 181
-1873.1819 4714.9199 -612.7884 0.881 0.231 -0.413 223 176 175
-1830.5498 4829.7373 -664.4478 -0.197 -0.702 -0.684 198 137 120
-1659.3269 4524.0371 -645.2766 0.335 -0.610 0.718 198 140 138
-1658.5848 4540.0488 -650.3177 0.426 -0.480 0.767 188 130 128
-1637.4028 4647.5088 -690.8849 0.730 -0.430 0.531 95 38 39
-1607.0649 4636.8735 -700.3540 0.781 -0.223 0.583 73 40 37
-1603.4855 4645.5444 -704.4048 0.779 -0.232 0.582 87 40 42
-1604.3099 4666.9521 -710.3895 0.921 -0.299 0.249 117 56 63
-1590.0701 4644.8354 -709.7725 0.551 -0.825 0.122 135 56 69
-1582.5579 4642.0625 -712.0759 0.556 -0.817 0.152 147 60 76
-1571.9900 4630.2827 -712.9877 0.528 -0.527 -0.666 152 67 82
-1569.2874 4641.4492 -717.4116 0.330 -0.827 -0.456 163 83 96
-1565.6473 4649.9004 -721.4228 0.334 -0.827 -0.453 211 137 149
-1560.4651 4653.8096 -724.7326 0.334 -0.827 -0.453 218 144 156
-1554.8447 4656.4014 -727.8351 0.562 -0.734 -0.381 170 95 107
-1538.7148 4666.2280 -737.4453 0.326 -0.945 -0.021 177 99 112
-1537.1747 4681.0840 -742.4764 0.291 -0.642 0.709 222 154 165
-1526.0259 4666.7925 -742.8873 0.131 -0.669 0.732 218 170 174
-1491.2009 4618.6035 -743.1223 0.253 -0.442 0.861 213 172 176
-1350.4346 749.8948 338.9256 0.815 0.288 0.504 42 39 30
-2912.4626 1575.8840 740.2787 0.433 -0.900 0.048 70 65 59
-3095.5635 1684.7174 783.7577 0.967 -0.234 -0.099 67 62 57
-3101.9556 1693.9146 783.6723 0.720 -0.342 -0.604 65 60 56
-3090.7783 1701.0691 776.9196 0.725 -0.311 -0.614 66 61 55
-3013.3899 1769.6382 724.5130 0.861 0.487 -0.151 83 74 67
-3025.0845 1788.3436 723.7986 0.861 0.486 -0.152 83 74 67
-3025.1096 1801.1606 720.0020 0.804 0.258 0.535 88 79 72
-2915.2080 2060.2703 597.5385 0.988 -0.136 -0.068 165 141 128
-2916.4487 2068.0857 595.7307 0.987 -0.158 -0.008 159 133 122
-2923.1487 2079.3958 595.1451 0.999 0.029 0.028 154 127 116
-2627.5278 2015.2814 491.7989 0.911 -0.164 -0.379 156 119 104
-3623.3040 2743.3210 687.8116 0.049 -0.845 -0.533 144 107 92
-3625.0698 2792.0991 674.0542 0.587 -0.782 -0.209 124 88 72
-3438.7759 2770.4897 603.3452 0.451 -0.537 0.713 107 77 65
-3389.0940 2827.4661 565.8527 -0.304 -0.949 0.082 95 45 21
-3195.4038 2723.1130 516.6588 0.412 -0.746 0.523 122 70 46
-3233.1067 2789.8667 512.4405 0.766 -0.382 0.517 135 77 54
-3251.5562 2880.5806 493.1340 0.487 -0.052 0.872 153 84 61
-3130.0334 2903.2446 436.0905 0.531 -0.246 0.811 139 97 84
-3116.1362 2900.8489 431.0486 0.842 -0.033 0.538 141 102 92
-3110.0505 2905.1824 427.2418 0.860 0.166 0.483 146 109 100
-2471.9023 2709.1768 221.2612 0.143 -0.929 0.342 143 76 53
-2795.7383 3160.7751 221.1947 -0.137 -0.987 -0.085 157 103 104
-2500.7686 3087.6807 120.7854 0.682 -0.444 -0.582 130 94 92
-2598.6443 3329.8320 89.3808 0.710 -0.580 -0.401 17 6 3
-2409.4373 3331.6033 10.5211 0.016 -0.502 -0.865 37 36 44
-2424.3257 3373.3115 4.2965 0.626 -0.779 -0.035 36 35 43
-2401.1699 3353.6987 0.5353 0.663 -0.747 -0.038 32 32 42
-2419.5811 3609.6875 -67.8785 0.966 0.255 0.049 213 194 206
-2531.0493 3871.2534 -99.4221 0.411 -0.425 0.806 101 74 75
-2454.8059 3861.8159 -128.1844 0.769 -0.317 0.555 131 107 110
-2444.3669 3859.0293 -131.6786 0.426 -0.858 -0.286 125 100 103
-2437.1091 3861.0264 -135.2766 0.426 -0.861 -0.279 121 95 98
-1617.6726 4011.8411 -519.3282 0.958 0.208 0.195 226 187 187
-1944.0459 4976.5210 -670.7444 -0.272 -0.951 0.145 201 144 142
-1920.2147 4954.8467 -674.1728 0.825 -0.201 0.529 204 145 140
-1820.9652 4795.0205 -667.7901 -0.286 -0.848 -0.446 192 135 114
-1607.1378 4608.5337 -700.9249 0.886 -0.125 0.447 76 46 40
-1607.9950 4629.7603 -706.8749 0.675 -0.408 0.615 88 50 49
-1597.8905 4619.6973 -708.0693 0.790 -0.265 0.553 101 49 53
-1592.5095 4642.0459 -716.9353 0.694 -0.575 0.433 145 62 76
-1583.6792 4635.4619 -718.6355 0.548 -0.824 0.142 157 64 82
-1578.2019 4638.5537 -721.8215 0.548 -0.824 0.142 158 71 87
-1568.4373 4629.0625 -723.0450 0.562 -0.736 -0.378 214 141 153
-1554.2686 4644.7007 -733.5559 0.509 -0.719 -0.474 192 131 139
-1551.6812 4656.2769 -738.0657 0.507 -0.748 -0.429 182 125 132
-1547.7520 4663.8887 -741.9533 0.333 -0.942 -0.032 152 93 100
-1539.9553 4659.8848 -743.9919 0.439 -0.845 -0.304 168 101 111
-1492.6598 4593.6899 -743.9109 0.191 -0.755 0.627 216 171 177
-613.6100 410.2610 133.6395 0.514 -0.136 0.847 74 67 55
-3010.6013 1702.8190 736.0738 0.289 -0.752 0.592 61 52 45
-3000.7939 1704.1757 731.6253 0.451 -0.750 0.484 62 53 46
-2992.8301 1706.4139 727.6738 0.451 -0.750 0.484 64 55 48
-2998.4172 1746.4076 718.0394 0.863 0.489 -0.128 67 58 51
-3015.5024 1767.6492 718.7430 0.869 0.477 -0.130 71 61 52
-3029.1309 1793.7218 716.5793 0.909 0.391 0.146 74 64 55
-2910.5232 2053.8955 590.0181 0.984 -0.172 -0.044 129 114 107
-2908.4443 2059.5906 587.4610 0.988 -0.156 -0.008 138 123 117
-2911.2749 2068.4087 585.9959 0.991 -0.128 0.050 145 129 123
-2910.5388 2074.9888 583.7282 0.990 -0.136 0.036 153 132 124
-2933.4402 2111.0020 582.4205 0.655 -0.747 -0.117 149 127 119
-2625.5679 2030.7723 479.4359 0.604 -0.797 -0.008 158 125 117
-3543.5945 2738.9607 646.5388 -0.035 -0.939 -0.343 127 91 79
-3300.6548 2801.2739 527.7770 0.437 -0.899 0.032 92 49 30
-3305.8147 2814.7561 525.8800 0.516 -0.856 0.032 113 56 40
-3260.1780 2892.5564 483.8414 0.581 0.124 0.804 150 89 65
-3245.5027 2890.0889 478.5276 0.561 0.092 0.822 148 89 65
-3214.9692 2903.2537 462.0092 -0.203 -0.978 -0.036 137 74 50
-3171.2600 2876.1135 452.0895 -0.116 -0.991 0.066 137 74 50
-3121.8281 2891.4253 427.1387 0.531 -0.246 0.811 178 123 103
-3094.7993 2945.0623 399.9847 0.923 -0.270 0.273 96 54 56
-2482.8767 2707.2317 218.6862 0.007 -0.647 0.763 133 67 40
-2828.3035 3179.7729 220.0511 -0.068 -0.973 0.219 156 103 110
-2597.3721 3322.8176 82.1423 0.687 -0.604 -0.404 24 13 5
-2435.0686 3348.6675 7.5102 0.097 -0.626 -0.773 38 37 43
-2423.0220 3502.1609 -43.2736 -0.157 -0.766 -0.623 39 39 51
-2457.2405 3584.8979 -53.8622 0.818 0.174 0.548 47 47 57
-2419.8789 3604.0442 -74.9810 0.921 0.261 0.289 214 190 197
-2531.1401 3864.8159 -106.9481 0.404 -0.427 0.809 92 62 62
-2515.4104 3867.6733 -114.2862 0.753 -0.471 0.460 127 99 98
-2442.1641 3797.5920 -123.5661 0.818 -0.222 0.530 128 108 109
-2440.8796 3847.1643 -138.8927 0.813 -0.129 0.568 138 117 119
-2436.3997 3866.3906 -146.4787 0.525 -0.775 -0.351 121 98 100
-1860.4531 4490.0259 -570.0876 0.225 -0.746 -0.627 224 192 195
-1803.3351 4371.1191 -558.1439 0.506 -0.061 -0.860 226 191 195
-1847.5548 4615.1680 -612.7598 1.000 0.021 0.010 224 177 175
-1886.5444 4729.2144 -630.7270 0.987 0.159 -0.023 227 176 171
-1911.6189 4809.6523 -644.3994 0.955 0.135 -0.265 229 173 165
-1829.7992 4696.8145 -644.4514 0.265 -0.830 0.491 206 146 136
-1652.5630 4577.5991 -681.9390 0.135 -0.749 0.649 117 59 62
-1656.2955 4606.2383 -688.9487 0.417 -0.328 0.848 106 46 48
-1639.6877 4578.8599 -687.6236 0.254 -0.621 0.742 110 52 56
-1631.8474 4575.5347 -689.8635 0.277 -0.617 0.737 110 50 54
-1618.6337 4575.5625 -695.3198 0.790 -0.263 0.554 102 42 47
-1609.1643 4585.9751 -702.3319 0.877 -0.023 0.481 103 51 55
-1597.7816 4590.9292 -708.5037 0.645 -0.409 0.646 102 44 51
-1596.7197 4606.6099 -713.6221 0.863 -0.175 0.474 116 50 60
-1600.6672 4636.7715 -720.9976 0.990 -0.124 0.063 144 77 87
-1592.1178 4631.0889 -722.8263 0.767 -0.490 0.414 149 70 83
-1583.2014 4624.2456 -724.4598 0.613 -0.753 0.239 154 60 79
-1578.4475 4629.4102 -727.9614 0.757 -0.510 -0.408 154 71 86
-1558.4025 4646.9932 -741.4742 0.509 -0.719 -0.474 122 83 90
-1553.8994 4652.8779 -745.0872 0.469 -0.846 -0.252 174 135 142
-1538.7466 4646.2080 -749.3438 0.246 -0.871 -0.424 130 94 100
-1535.0742 4654.5264 -753.3408 0.189 -0.753 0.630 183 144 151
-1522.0795 4634.6406 -752.7625 0.453 -0.814 0.364 214 171 181
-3004.2358 1696.7434 728.1519 0.475 -0.764 0.436 64 55 48
-2986.3083 1694.1180 721.5788 0.646 -0.762 -0.028 65 56 49
-2989.6497 1701.8779 720.6230 0.527 -0.785 0.326 66 57 50
-2905.8174 2061.5171 578.3266 0.980 -0.185 0.070 128 116 110
-2897.9023 2063.5125 574.4784 0.991 -0.079 0.106 146 128 121
-2918.7122 2083.8145 576.9325 0.650 0.081 0.755 150 131 124
-2928.8564 2111.7117 572.7294 0.600 -0.149 0.786 162 142 135
-2933.1577 2121.6804 571.5051 0.433 -0.547 0.716 163 143 136
-2614.1294 1979.7906 483.0829 0.356 -0.922 0.153 175 148 139
-2538.5334 1980.4915 451.8352 0.834 -0.538 -0.124 152 119 111
-3486.6333 2657.2791 638.0875 0.831 -0.556 -0.005 145 111 99
-3342.4207 2829.3813 527.2542 0.597 -0.761 0.255 88 48 30
-3113.6804 2879.6892 418.2499 0.531 -0.246 0.811 196 139 118
-3097.8193 2885.0935 410.1168 0.864 0.019 0.503 125 70 50
-3097.6868 2923.4075 398.5697 0.190 -0.753 0.630 103 48 28
-3012.7986 2858.2375 383.2655 0.922 -0.278 0.271 101 47 32
-3069.4121 2946.8262 379.9362 0.825 -0.378 0.420 24 66 67
-3057.3398 2945.7288 375.3089 0.924 -0.244 0.294 9 75 80
-2790.1001 3144.5017 205.9643 -0.097 -0.993 0.071 160 109 118
-2600.9590 3321.6990 75.1565 0.724 -0.582 -0.371 24 13 6
-2446.4678 3346.9695 4.1468 0.172 -0.413 -0.894 32 31 37
-2450.9971 3363.9075 0.9257 0.051 -0.522 -0.851 38 37 43
-2448.4312 3461.8193 -29.4974 -0.097 -0.631 -0.770 31 33 46
-2443.8242 3560.2263 -60.9071 0.828 0.189 0.527 46 46 56
-2405.5073 3565.6643 -78.2700 0.849 0.232 0.474 204 185 189
-2409.6162 3583.3965 -81.9020 0.856 0.238 0.458 215 188 195
-2546.4131 3841.7102 -103.2211 0.649 -0.746 0.150 182 152 152
-2534.6482 3850.4360 -110.6689 0.649 -0.746 0.150 96 66 66
-2529.4475 3855.7817 -114.4075 0.647 -0.745 0.162 78 48 48
-2524.9678 3862.1831 -118.1669 0.669 -0.725 0.162 92 62 62
-2517.8169 3864.6516 -121.8433 0.663 -0.731 0.161 127 99 98
-2519.0889 3879.5574 -125.7922 0.713 -0.673 0.198 146 118 120
-1890.7146 4552.8813 -585.7543 0.258 -0.582 -0.771 222 190 193
-1843.6122 4475.2217 -581.7984 0.411 -0.211 -0.887 227 187 189
-1907.4707 4771.3965 -644.4205 0.964 0.188 -0.190 226 173 168
-1916.9258 4850.5894 -664.2932 0.406 -0.606 0.684 208 144 134
-1785.6063 4593.6089 -641.1253 0.546 -0.158 0.823 211 145 135
-1783.4307 4642.0005 -656.5341 0.362 -0.851 0.380 202 130 126
-1727.6709 4551.8853 -652.3965 0.303 -0.700 0.647 179 126 113
-1660.7877 4554.1504 -680.5361 -0.182 -0.770 -0.611 140 90 93
-1651.0723 4545.8867 -682.0461 -0.197 -0.775 -0.601 141 89 91
-1661.4458 4592.4341 -691.7495 0.417 -0.328 0.848 122 66 69
-1655.0160 4593.1909 -694.6165 0.417 -0.328 0.848 96 38 40
-1646.7930 4588.9629 -696.7242 0.419 -0.316 0.851 85 29 32
-1640.4065 4589.7373 -699.5786 0.419 -0.316 0.851 90 33 37
-1612.3337 4585.3076 -709.7758 0.907 -0.130 0.402 121 57 65
-1609.7028 4596.4717 -714.2047 0.908 -0.177 0.380 120 51 61
-1598.4347 4601.8062 -720.4312 0.848 -0.228 0.479 133 59 72
-1603.0690 4633.8706 -728.1465 0.992 -0.120 0.047 150 83 93
-1595.8700 4632.0996 -730.5710 0.622 -0.755 -0.207 175 106 115
-1586.2183 4623.1729 -731.8561 0.570 -0.732 -0.373 193 116 130
-1584.3864 4636.8301 -736.7049 0.559 -0.738 -0.377 175 109 119
-1562.5439 4649.2866 -749.4091 0.512 -0.745 -0.427 91 61 66
-1558.0543 4655.2310 -753.0355 0.477 -0.781 -0.404 114 83 88
-1552.1307 4656.9038 -755.9694 0.256 -0.702 0.664 184 153 158
-1535.9069 4646.9854 -759.6552 0.188 -0.752 0.632 148 116 122
-1523.3569 4628.4790 -759.2567 0.450 -0.717 0.532 199 158 168
-3123.1265 1597.0566 799.6984 0.306 -0.840 -0.448 54 47 39
-2946.9172 1659.9305 708.7034 0.727 -0.534 0.432 72 63 56
-2945.2632 1665.1245 706.4615 0.711 -0.579 0.398 71 62 55
-2891.4766 2056.0112 566.6478 0.980 -0.186 0.065 116 98 92
-2892.8762 2063.9016 564.8416 0.651 0.114 0.751 135 116 110
-2895.5110 2072.6079 563.2946 0.635 0.083 0.768 144 125 119
-2905.4275 2086.0203 563.3061 0.638 0.066 0.767 151 132 126
-2896.5232 2087.3755 559.2571 0.636 0.064 0.769 160 141 135
-2894.2620 2093.0024 556.6364 0.636 0.060 0.770 162 143 137
-2552.0989 1928.4642 466.3389 0.593 -0.282 -0.754 175 148 139
-3419.4158 2641.6790 605.9608 0.726 -0.686 0.047 139 103 91
-3486.5859 2707.7634 613.5038 0.053 -0.987 0.149 139 103 91
-3531.2429 2749.0635 619.3130 -0.101 -0.955 -0.278 129 91 78
-3407.0603 2733.2097 573.3196 0.744 -0.665 0.062 119 83 66
-3282.3337 2759.1096 514.5182 0.425 -0.845 0.325 87 50 32
-3340.6753 2823.3352 519.0119 0.604 -0.764 0.226 88 50 32
-3233.6853 2842.2644 469.5633 0.428 -0.439 0.790 121 59 36
-3222.2874 2842.4417 464.8499 0.440 -0.440 0.783 115 53 30
-3210.5117 2861.2725 454.3593 0.592 -0.010 0.806 138 78 54
-3195.9331 2868.2461 446.2967 0.491 -0.313 0.813 138 74 49
-3107.0742 2869.3091 409.6464 0.529 -0.247 0.812 187 131 108
-3099.5273 2872.3279 405.6508 0.529 -0.247 0.812 127 70 50
-3065.8672 2938.8464 371.8384 0.901 -0.176 0.396 24 65 67
-3057.2639 2940.8508 367.7169 0.896 -0.092 0.434 9 75 80
-2715.8550 3101.0293 179.8498 0.631 -0.351 -0.692 154 102 115
-2717.6812 3123.3159 173.8788 0.621 -0.336 -0.708 147 95 100
-2608.1877 3324.9736 68.3276 0.731 -0.550 -0.404 24 13 6
-2459.1047 3357.8345 -2.5301 0.137 -0.473 -0.870 32 31 37
-2411.3914 3317.6643 -9.9295 0.200 -0.680 0.706 43 42 48
-2461.7312 3473.9470 -36.4556 -0.151 -0.648 -0.746 37 39 54
-2359.7180 3403.5010 -56.9295 -0.202 -0.741 -0.640 38 38 50
-2397.9788 3549.0366 -85.1548 0.831 0.195 0.522 220 199 204
-2518.6501 3807.8308 -113.8253 0.676 -0.301 0.672 157 127 127
-2535.4028 3845.0098 -118.1826 0.498 -0.664 0.558 102 72 72
-2528.1604 3847.3633 -121.8531 0.498 -0.664 0.558 76 46 46
-2520.1770 3848.6057 -125.4916 0.488 -0.680 0.547 80 50 50
-2511.7800 3849.2070 -129.1059 0.497 -0.682 0.537 104 76 75
-2504.1060 3850.8384 -132.7352 0.500 -0.675 0.543 121 93 95
-2482.4180 3844.5806 -139.7162 0.602 -0.652 0.462 122 102 103
-2474.8999 3911.7327 -163.0312 0.769 0.147 0.622 125 103 105
-2442.4150 3954.9348 -189.3349 -0.219 -0.919 0.327 190 168 170
-1899.8065 4531.1060 -584.8531 0.394 -0.280 -0.876 230 195 199
-1882.6337 4559.3687 -600.3934 0.422 -0.309 -0.852 225 185 187
-1882.6703 4576.8091 -605.6354 0.429 -0.303 -0.851 227 181 180
-1928.8467 4796.0024 -652.8267 0.651 -0.611 0.451 226 172 171
-1860.0730 4663.3101 -640.9479 0.222 -0.943 -0.248 216 154 145
-1809.5035 4626.9038 -650.6495 0.237 -0.873 0.427 209 145 133
-1772.0330 4567.7739 -648.1460 0.407 -0.899 -0.163 208 136 130
-1792.7206 4638.3491 -660.9610 0.325 -0.871 0.369 203 130 127
-1715.6388 4529.1836 -659.5707 0.834 -0.040 0.550 175 131 118
-1653.7424 4580.2065 -700.2568 0.417 -0.328 0.848 112 59 61
-1647.3434 4580.9736 -703.1042 0.417 -0.328 0.848 78 25 27
-1606.4954 4633.9019 -735.7589 0.983 -0.174 0.050 184 118 128
-1599.0735 4631.5181 -738.0747 0.622 -0.755 -0.207 171 115 121
-1576.5986 4661.5200 -756.3069 0.546 -0.748 -0.378 148 124 128
-1567.1709 4652.9893 -757.5901 0.493 -0.782 -0.380 98 72 77
-1561.9491 4656.7915 -760.8711 0.676 -0.734 0.070 100 74 78
-1540.9253 4652.0288 -768.0311 0.242 -0.703 0.669 167 137 143
-647.6094 435.6664 136.4453 0.589 0.424 0.688 12 12 5
-3129.5215 1596.9473 795.1677 0.359 -0.824 -0.438 54 47 39
-2874.6521 2069.8521 548.1643 0.567 -0.184 0.803 157 138 132
-2893.6250 2110.4600 543.5891 0.618 0.064 0.784 171 147 141
-3413.9631 2633.4011 597.0409 0.724 -0.690 0.005 143 107 95
-3813.7930 3008.2273 646.2928 0.411 -0.725 -0.553 120 82 69
-3419.5862 2747.2056 564.8599 0.624 -0.773 -0.113 123 88 69
-3220.9651 2836.6877 456.8919 0.459 -0.377 0.804 148 86 63
-3211.3420 2838.2776 452.4926 0.489 -0.279 0.826 133 73 49
-3198.3440 2856.0198 441.8268 0.460 -0.385 0.800 136 71 49
-3192.2686 2860.4893 437.9994 0.487 -0.322 0.812 138 74 49
-3048.0811 2870.4307 376.2851 0.189 -0.744 0.641 115 58 39
-3003.8909 2841.0977 367.1786 0.943 -0.046 -0.330 114 58 44
-3066.1792 2934.3252 364.3004 0.899 -0.185 0.397 38 79 81
-3053.2026 2932.4153 359.5957 0.922 -0.108 0.371 9 75 80
-3053.7383 2942.5854 356.7333 0.912 -0.074 0.402 1 78 92
-2610.3381 2662.6287 261.0076 0.169 -0.817 -0.552 14 73 99
-2628.5947 2688.5886 260.5775 0.126 -0.821 -0.557 42 74 90
-2721.0315 3101.5308 173.1352 0.660 -0.630 -0.408 154 102 114
-2718.5994 3129.4231 163.6967 0.634 -0.731 0.253 147 95 99
-2779.0217 3215.8391 162.1219 0.687 -0.690 0.226 147 95 99
-2791.6409 3240.1963 159.8819 0.620 -0.659 0.425 144 92 96
-2457.7556 3339.5410 -6.1436 0.190 -0.404 -0.895 27 26 32
-2497.0579 3401.4358 -8.8897 0.425 -0.151 -0.892 32 31 37
-2458.9092 3487.3694 -50.4497 -0.087 -0.785 -0.613 40 42 56
-2386.8538 3527.3840 -91.9057 0.795 -0.113 0.597 217 196 201
-2435.3428 3644.0881 -107.5129 0.997 0.081 0.000 218 182 189
-2519.9177 3803.2246 -121.2807 0.816 -0.230 0.530 192 162 162
-2536.0828 3839.4851 -125.6823 0.576 -0.676 0.461 139 109 109
-2529.1062 3842.2219 -129.3517 0.581 -0.686 0.438 92 62 62
-2522.1970 3845.0359 -133.0169 0.583 -0.681 0.444 73 43 43
-2515.6011 3848.2883 -136.6875 0.583 -0.681 0.444 70 42 41
-2461.3171 3781.2258 -138.4756 0.315 -0.910 0.268 84 56 58
-2448.2192 3774.5681 -141.7916 0.212 -0.935 0.284 92 71 73
-2437.5974 3771.4976 -145.1860 0.204 -0.934 0.293 98 78 79
-2450.1877 3960.2449 -197.2298 -0.242 -0.944 0.222 165 143 145
-1900.2739 4574.9956 -607.3187 0.447 -0.574 -0.686 224 188 192
-1915.0497 4698.5029 -638.7122 0.321 -0.909 0.266 226 172 172
-1890.3461 4710.4976 -652.4029 0.940 0.271 -0.206 218 161 156
-1912.7585 4783.8643 -665.5002 0.938 0.263 -0.224 204 142 133
-1799.6589 4628.6772 -664.5418 0.293 -0.785 0.546 207 137 130
-1711.1680 4508.4150 -664.1430 0.223 -0.820 0.528 96 58 43
-1657.8105 4563.6162 -702.5863 0.409 -0.300 0.862 184 141 139
-1648.1439 4555.4438 -704.0467 0.439 -0.287 0.851 163 117 116
-1641.0045 4554.0942 -706.5444 0.437 -0.289 0.852 124 76 76
-1606.5050 4643.0449 -747.5327 -0.200 -0.737 -0.646 107 66 68
-1580.1958 4662.1196 -764.0214 0.550 -0.744 -0.380 66 45 48
-1571.0172 4654.3677 -765.4102 0.493 -0.782 -0.380 92 70 73
-1554.5403 4644.0928 -769.0065 0.221 -0.627 0.747 109 87 90
-3135.6719 1596.7236 790.5521 0.359 -0.824 -0.438 62 55 47
-2867.6829 2054.9744 542.4352 0.556 -0.225 0.800 87 70 63
-2865.9341 2060.8298 539.9442 0.567 -0.184 0.803 137 118 112
-2867.7898 2069.0181 538.2043 0.581 -0.173 0.796 156 137 131
-2867.0110 2075.5310 535.9064 0.583 -0.172 0.794 163 144 138
-2861.5188 2078.9983 532.6245 0.583 -0.172 0.794 171 151 145
-3309.3896 2546.4131 571.9365 0.919 -0.252 -0.302 164 128 116
-3397.2246 2626.1018 583.2922 0.096 -0.991 0.094 140 104 92
-3470.3013 2696.2905 591.5561 -0.170 -0.884 -0.436 133 95 82
-3443.3882 2686.1865 583.7203 -0.169 -0.889 -0.425 133 95 82
-3437.5974 2746.6201 562.9795 0.646 -0.734 -0.208 126 90 73
-3277.0510 2792.3582 483.9714 0.390 -0.701 -0.597 90 51 30
-3196.2839 2830.7102 439.5549 0.464 -0.371 0.804 140 80 56
-3164.6240 2842.2783 423.1988 0.516 -0.283 0.808 146 80 56
-3117.4114 2859.2749 398.8853 0.197 -0.816 0.544 135 69 47
-3034.0730 2844.1018 369.7169 0.030 -0.958 0.286 124 68 45
-2802.6736 3091.4624 200.6194 0.127 -0.835 -0.535 180 158 167
-2786.5979 3218.8391 155.3345 0.707 -0.672 0.220 155 103 107
-2791.9041 3235.1909 152.5089 0.620 -0.659 0.425 142 90 94
-2776.9773 3229.4319 148.2102 0.506 -0.796 0.333 142 90 94
-2760.9514 3222.3826 143.8586 0.456 -0.859 0.232 142 90 94
-2543.4763 3091.6665 95.4758 0.691 -0.279 -0.667 147 103 100
-2397.3450 3387.2878 -53.7414 0.561 -0.555 -0.614 50 52 67
-2450.7083 3470.4973 -57.4326 0.624 -0.757 -0.195 44 46 60
-2386.3884 3520.8208 -98.8247 -0.047 -0.991 -0.124 214 193 198
-2534.0566 3791.7354 -121.4125 0.664 -0.601 -0.446 209 178 180
-2551.8752 3830.1106 -125.8684 0.693 -0.441 -0.570 205 175 175
-2547.8828 3837.2043 -129.6460 0.698 -0.455 -0.553 198 168 168
-2533.1121 3841.5439 -136.9549 0.444 -0.797 -0.410 157 127 127
-2527.8503 3846.7766 -140.6807 0.528 -0.772 -0.355 102 72 72
-2466.4126 3782.3157 -145.9692 0.303 -0.917 0.259 57 30 31
-2454.6321 3777.6389 -149.3218 0.288 -0.926 0.244 67 46 48
-2445.1833 3776.3430 -152.7581 0.280 -0.928 0.247 85 65 66
-2431.3147 3793.8455 -163.7075 0.668 -0.295 0.683 93 73 74
-2419.0635 3788.2119 -166.9597 0.786 -0.153 0.599 107 87 88
-2455.0027 3894.4578 -184.7260 0.714 0.170 0.679 150 128 130
-2458.6836 3913.2791 -188.9621 0.788 0.213 0.578 142 120 122
-2452.4771 3917.0005 -192.6109 0.757 0.172 0.631 130 108 110
-2446.0632 3947.0400 -204.3539 0.735 0.039 0.677 132 110 112
-2442.2034 3954.4309 -208.1681 -0.249 -0.960 0.125 144 119 123
-2428.8235 3946.9333 -211.3105 -0.255 -0.959 0.128 175 150 154
-2369.1428 3946.2607 -235.3011 0.003 -0.879 -0.476 230 205 208
-2274.4065 3807.0605 -231.3420 0.384 -0.434 -0.815 227 202 205
-2188.7959 3956.0747 -311.4027 0.278 -0.160 -0.947 237 213 213
-1867.9458 4439.2598 -588.5389 0.313 -0.714 -0.626 235 200 204
-1914.3843 4564.7544 -607.9072 0.512 -0.609 -0.605 229 194 198
-1904.3524 4558.4448 -610.0538 0.911 -0.385 0.147 229 194 198
-1897.7749 4560.1929 -613.2524 0.841 -0.136 0.524 230 194 198
-1875.4094 4558.9507 -621.9415 0.874 -0.107 0.474 229 176 175
-1872.0107 4568.1689 -626.1249 0.874 -0.107 0.474 223 172 171
-1866.3499 4571.9658 -629.5757 0.880 -0.102 0.464 220 169 168
-1861.3392 4630.1689 -649.3214 0.938 0.275 -0.210 196 140 135
-1875.1127 4718.0356 -670.4802 0.758 -0.650 0.062 206 142 127
-1837.0227 4659.4541 -668.0927 0.311 -0.801 -0.512 208 146 131
-1818.4911 4631.0171 -666.9506 0.261 -0.764 -0.590 208 144 132
-1744.0946 4549.0259 -672.1575 0.044 -0.999 0.008 122 76 63
-1717.0839 4514.6646 -672.6498 0.223 -0.812 0.540 60 28 10
-1651.5337 4555.2979 -711.5916 0.416 -0.322 0.851 190 152 149
-1644.5629 4554.4351 -714.1550 0.357 -0.362 0.861 173 132 130
-1581.5217 4656.0679 -770.6451 0.745 -0.597 0.296 115 92 95
-3118.2874 1592.2853 777.7049 0.276 -0.870 0.409 68 61 53
-2859.2913 2060.1294 530.0743 0.581 -0.173 0.796 103 84 78
-2853.7876 2063.5610 526.8030 0.581 -0.173 0.796 137 118 112
-2852.0078 2069.3982 524.2994 0.576 -0.184 0.797 164 144 138
-2854.1482 2077.7966 522.5951 0.591 -0.148 0.793 180 156 149
-3348.9204 2587.5068 566.4516 0.970 -0.126 -0.207 146 110 98
-3369.2161 2610.7507 567.5364 0.839 -0.524 -0.147 138 102 90
-3418.2036 2654.6038 573.9012 0.708 -0.414 -0.572 138 100 87
-3482.4741 2832.1367 545.5537 0.487 -0.305 0.818 120 85 66
-3303.5603 2789.8210 486.2685 0.950 0.305 -0.068 91 58 36
-3290.5701 2807.7849 475.5308 0.766 -0.296 0.571 90 57 35
-3298.6460 2823.6118 473.9507 0.327 -0.887 -0.328 84 51 28
-3286.3479 2823.3052 469.0799 0.318 -0.829 -0.460 84 51 28
-3280.1785 2827.8484 465.2000 0.398 -0.755 -0.521 85 51 28
-3264.2991 2824.6006 459.7828 0.368 -0.772 -0.518 87 49 27
-3257.8813 2828.8987 455.8775 0.501 -0.843 0.195 99 46 21
-3242.2175 2825.7212 450.5258 0.444 -0.891 0.093 107 49 25
-3231.8145 2826.7424 446.0140 0.425 -0.903 0.060 116 56 32
-3215.0210 2831.9590 437.6392 0.400 -0.906 0.137 124 66 42
-3182.3455 2814.6382 429.7454 0.287 -0.948 -0.134 129 71 47
-3100.8252 2849.9172 386.0473 -0.012 -0.998 0.059 133 76 53
-3084.0195 2844.9766 380.7739 -0.018 -0.998 0.053 132 75 55
-2808.4033 3082.2644 196.9424 0.192 -0.834 -0.517 147 154 162
-2802.2019 3085.9451 193.3133 0.192 -0.834 -0.517 166 156 168
-2746.0176 3037.7583 185.3686 0.971 -0.010 -0.240 182 152 170
-2724.1436 3094.7712 159.1025 0.643 -0.588 0.491 172 121 130
-2740.3992 3132.5188 154.1209 0.428 -0.901 -0.073 160 107 112
-2774.8496 3200.8149 147.1419 0.912 -0.357 0.199 159 107 111
-2780.4114 3217.3708 144.3241 0.715 -0.664 0.218 147 95 99
-2763.4719 3219.8906 136.7151 0.460 -0.864 0.204 147 95 99
-2766.7847 3234.0964 133.7080 0.691 -0.690 0.215 146 95 98
-2554.4329 3089.0786 92.3325 -0.147 -0.977 -0.156 147 103 100
-2588.7268 3148.5947 87.9755 0.467 -0.844 -0.264 147 103 100
-2593.1328 3163.9539 85.0570 0.790 -0.609 0.076 148 104 101
-2463.3806 3458.8562 -57.5098 -0.166 -0.982 0.091 50 52 67
-2440.6763 3520.4302 -85.5059 -0.083 -0.983 -0.161 43 43 55
-2538.7969 3792.1221 -128.9841 0.664 -0.601 -0.446 214 183 185
-2557.3230 3831.4661 -133.5373 0.693 -0.441 -0.570 208 178 178
-2549.6675 3833.2881 -137.1850 0.698 -0.447 -0.559 202 172 172
-2543.7754 3837.6343 -140.8928 0.444 -0.797 -0.410 196 166 166
-2538.3093 3842.5894 -144.6147 0.444 -0.797 -0.410 188 158 158
-2532.5330 3847.0862 -148.3218 0.528 -0.772 -0.355 163 133 133
-2527.3022 3852.3723 -152.0500 0.528 -0.772 -0.355 117 89 88
-2471.5830 3783.5017 -153.4815 0.309 -0.918 0.249 81 54 55
-2456.5845 3774.1140 -156.6653 0.282 -0.925 0.257 58 37 39
-2497.3489 3847.1118 -162.5332 -0.063 -0.983 -0.170 56 36 37
-2490.9592 3850.5867 -166.1754 -0.103 -0.982 -0.156 71 51 52
-2423.0791 3787.7988 -174.3763 0.668 -0.295 0.683 91 71 72
-2417.7507 3792.5410 -177.9776 0.799 -0.150 0.583 102 80 82
-2401.2144 3793.0850 -184.8195 0.764 -0.129 0.632 155 133 135
-2447.7168 3889.8269 -195.6324 0.787 0.222 0.575 155 133 135
-2448.1550 3903.6697 -199.6888 0.789 0.221 0.573 143 121 123
-2432.3040 3932.2346 -214.8236 0.756 0.048 0.653 131 106 110
-2436.1067 3951.5334 -219.1904 -0.256 -0.959 0.124 135 110 114
-2424.7502 3947.1626 -222.4382 -0.136 -0.972 -0.194 161 136 140
-2412.7930 3941.7725 -225.6169 0.079 -0.871 -0.485 202 177 181
-2405.9487 3944.3765 -229.1762 0.079 -0.871 -0.485 234 209 213
-2248.4163 3849.3606 -263.7132 0.993 0.001 -0.120 226 200 203
-2298.7744 3959.4932 -277.0646 0.927 0.057 -0.370 226 200 201
-2326.0674 4032.4607 -288.3616 0.263 -0.720 -0.642 225 199 200
-2173.6680 3855.7129 -295.8312 0.427 -0.273 -0.862 226 202 202
-1937.1172 4626.4722 -627.0381 0.336 -0.935 -0.118 231 196 200
-1916.0663 4594.4175 -625.7333 0.724 -0.686 -0.076 232 196 200
-1905.9508 4587.9219 -627.8303 0.754 -0.657 -0.030 234 193 196
-1879.6285 4542.8394 -624.6693 0.871 -0.104 0.479 233 185 186
-1872.6832 4543.5474 -627.6897 0.871 -0.114 0.478 230 178 176
-1863.2129 4538.1704 -629.8685 0.873 -0.143 0.467 223 173 172
-1859.6080 4546.8027 -633.9637 0.873 -0.143 0.467 218 167 166
-1880.6429 4614.9287 -646.3062 0.964 0.231 0.133 212 161 160
-1883.5586 4639.6528 -652.6902 0.955 0.245 -0.166 199 149 148
-1876.5289 4640.3325 -655.7359 0.835 0.179 -0.520 189 138 135
-1824.0673 4635.7544 -675.5142 0.262 -0.766 -0.588 204 140 128
-1748.5149 4551.2295 -680.1649 -0.117 -0.957 -0.265 82 45 27
-1710.7902 4506.8638 -681.8262 0.402 -0.898 0.180 54 33 15
-1652.4490 4548.4062 -718.0825 0.136 -0.779 0.613 183 152 146
-1646.9087 4551.4487 -721.2496 0.128 -0.785 0.607 180 148 143
-1580.3162 4642.6499 -776.0236 0.666 -0.681 0.304 191 165 170
-1567.5223 4624.3071 -775.5787 0.682 -0.702 0.204 183 160 164
-1558.2341 4616.0669 -776.8082 0.725 -0.605 0.328 221 194 199
-1544.2803 4632.0801 -787.3385 0.331 -0.502 0.799 222 193 198
-3101.0715 1576.0251 768.6321 0.234 -0.738 0.633 75 68 60
-2843.1890 2060.2747 516.1681 0.365 -0.753 0.548 105 85 79
-2840.2278 2065.3247 513.4259 0.361 -0.754 0.549 145 121 114
-2835.3220 2069.1113 510.2904 0.583 -0.173 0.794 161 136 129
-2833.2065 2074.7190 507.7169 0.593 -0.157 0.789 171 146 139
-2836.6304 2083.9751 506.2490 0.584 -0.147 0.799 181 154 145
-2834.0425 2089.3025 503.5717 0.106 -0.821 0.561 179 152 143
-3411.4636 2681.6174 553.6710 -0.218 -0.917 -0.334 136 98 85
-3371.3267 2670.6538 540.9059 -0.226 -0.966 -0.122 136 98 85
-3276.7732 2745.8389 479.7948 0.947 0.299 -0.115 110 75 56
-3290.8083 2822.1904 461.9750 0.320 -0.837 -0.444 81 52 28
-3100.3184 2835.4175 381.3385 -0.010 -0.782 0.623 146 81 59
-3078.0752 2835.2444 372.4505 0.433 -0.741 0.514 133 75 55
-2792.5759 3070.9922 185.2458 0.716 -0.438 0.543 150 149 163
-2759.0613 3046.3333 179.3511 0.891 0.154 0.427 187 166 186
-2747.6777 3044.4604 175.3507 0.253 -0.756 0.604 191 156 179
-2745.2605 3051.8887 172.0965 0.413 -0.701 0.582 197 149 163
-2768.9783 3189.2229 139.4298 0.346 -0.937 0.053 166 114 118
-2777.2798 3208.7095 136.7789 0.652 -0.596 0.468 154 102 106
-2738.5718 3229.2908 114.8950 0.658 -0.720 0.223 143 98 95
-2661.9666 3175.0085 100.7817 -0.272 -0.962 -0.025 142 97 94
-2603.4329 3150.0029 84.9365 0.692 -0.613 -0.382 147 103 100
-2596.7114 3152.6021 81.4360 0.567 -0.816 -0.109 147 103 100
-2594.8918 3160.8140 78.1813 0.790 -0.609 0.076 148 104 101
-2621.2920 3308.0503 43.5501 0.760 -0.546 -0.353 23 7 1
-2446.4102 3545.8743 -99.8274 -0.189 -0.743 -0.642 44 42 51
-2525.2437 3766.3486 -135.8865 0.854 -0.407 -0.324 221 190 192
-2509.7517 3794.6694 -150.8164 0.336 -0.816 0.470 207 177 177
-2501.5522 3795.4778 -154.3607 0.345 -0.809 0.475 206 176 176
-2492.5300 3795.0488 -157.8557 0.352 -0.867 0.354 178 150 149
-2479.4937 3788.6914 -161.1423 0.331 -0.895 0.300 151 123 125
-2464.8027 3779.8118 -164.3192 0.299 -0.922 0.245 117 96 97
-2505.6155 3852.7878 -170.3379 -0.103 -0.982 -0.156 76 56 57
-2496.5930 3852.3950 -173.8440 -0.103 -0.982 -0.156 60 40 41
-2417.1111 3772.4202 -181.2186 -0.075 -0.972 -0.225 72 52 53
-2432.5942 3847.1062 -197.9447 0.804 0.075 0.590 167 145 147
-2430.6943 3857.2119 -201.8137 0.804 0.075 0.590 154 132 134
-2420.1721 3919.9026 -225.3071 0.749 0.048 0.660 137 112 116
-2414.8662 3951.6511 -237.1958 0.072 -0.877 -0.474 169 144 148
-2288.2930 3881.7825 -266.6054 0.945 -0.122 0.302 225 200 203
-2281.7214 3897.5596 -274.0951 0.968 0.060 -0.244 226 200 203
-2289.9021 3937.8877 -283.1989 0.954 0.066 -0.293 226 200 201
-2236.8777 3902.9917 -293.7903 0.087 -0.974 -0.208 225 199 200
-2221.6963 4027.2583 -338.0779 0.339 -0.796 0.501 210 184 185
-1944.8057 4635.4927 -636.2813 0.361 -0.924 -0.123 232 197 201
-1907.7371 4583.2095 -635.1161 0.796 -0.605 -0.024 233 193 195
-1860.0363 4487.5596 -624.8989 0.585 -0.657 0.476 233 185 186
-1852.5195 4486.7056 -627.6580 0.662 -0.631 0.405 231 178 177
-1850.5146 4498.9678 -632.2319 0.785 -0.507 0.356 223 172 171
-1870.5342 4581.5288 -649.5543 0.959 0.262 -0.113 204 153 152
-1878.5214 4618.3530 -657.6591 0.957 0.243 -0.160 200 149 148
-1809.9745 4469.5947 -639.5021 0.651 0.004 -0.759 196 145 141
-1845.8567 4662.9238 -684.4853 0.563 -0.803 -0.197 197 133 121
-1840.9464 4668.7017 -688.2345 0.450 -0.671 -0.589 198 134 122
-1656.3446 4549.6279 -725.8502 -0.100 -0.788 -0.608 181 155 148
-1648.9261 4565.7661 -733.7913 -0.109 -0.780 -0.616 188 164 156
-1624.0092 4588.6772 -750.8474 -0.091 -0.843 -0.530 135 84 89
-1602.1887 4658.0996 -780.9510 0.215 -0.531 0.820 87 62 63
-1593.4293 4651.8286 -782.5452 0.195 -0.556 0.808 152 127 131
-1583.8816 4643.1616 -783.7198 0.359 -0.476 0.802 187 161 168
-1560.5403 4612.9941 -783.8325 0.696 -0.631 0.343 221 194 199
-1539.3356 4607.4390 -790.6491 0.277 -0.687 0.672 173 144 149
-1528.7181 4594.8579 -791.0511 0.285 -0.663 0.692 210 170 182
-3099.3237 1572.4235 761.9500 0.232 -0.734 0.639 80 73 65
-2828.8423 2061.4819 502.6926 0.367 -0.750 0.550 119 95 89
-2822.2380 2064.1333 499.2307 0.609 -0.167 0.775 156 132 126
-2826.1899 2073.6936 497.8607 0.584 -0.150 0.797 186 161 152
-2816.9709 2074.6218 493.8842 0.585 -0.148 0.798 180 155 147
-2811.7292 2078.1509 490.6965 0.585 -0.148 0.798 176 151 143
-2811.7725 2085.1794 488.5437 0.582 -0.152 0.799 177 152 143
-2814.1616 2093.7908 486.8414 0.572 -0.160 0.805 175 151 144
-3445.3796 2757.2688 534.6423 0.198 -0.941 0.273 127 91 72
-3507.8850 2890.3147 518.5827 -0.293 -0.929 0.226 116 81 62
-3278.9529 2742.9868 472.4385 0.201 -0.940 -0.276 114 79 60
-3286.8662 2776.9224 465.1284 0.978 -0.202 0.042 98 70 47
-3275.1877 2833.4595 442.9984 0.194 -0.927 -0.322 86 36 13
-3166.6621 2830.0056 400.6267 0.392 -0.765 -0.511 145 81 57
-3151.7336 2827.0129 395.5755 0.374 -0.781 -0.500 146 80 57
-3147.1055 2851.4270 386.1854 0.141 -0.782 0.607 151 85 64
-3128.8599 2845.5061 380.7104 0.119 -0.585 0.802 151 85 64
-3113.0400 2841.5564 375.5979 0.119 -0.585 0.803 151 85 64
-3038.5774 2843.4758 345.2012 0.136 -0.953 0.271 172 121 99
-3053.0305 2913.1636 329.4703 0.936 -0.223 0.272 9 74 78
-2539.2688 2715.7825 184.7754 -0.011 -0.999 0.036 135 71 43
-2811.4346 3075.3577 182.6932 0.432 -0.415 0.801 67 90 103
-2751.4111 3033.4766 171.5992 0.894 0.118 0.431 191 177 199
-2750.3484 3042.2866 168.4537 0.298 -0.777 0.555 195 166 190
-2744.8408 3046.4941 164.9502 0.404 -0.704 0.583 200 153 171
-2738.4124 3049.7317 161.3775 0.408 -0.716 0.566 198 147 164
-2724.6963 3156.6118 122.8887 0.697 -0.655 0.293 158 106 112
-2720.1768 3161.9917 119.4186 0.698 -0.659 0.278 158 106 112
-2688.3875 3137.4121 114.2837 0.872 -0.485 0.072 157 106 110
-2705.6318 3166.6816 112.1489 0.838 -0.423 -0.346 144 98 96
-2678.3184 3146.8186 107.3492 0.348 -0.818 -0.458 143 98 96
-2683.3901 3162.7388 104.4640 0.301 -0.950 0.078 143 98 95
-2626.2588 3150.2327 85.4580 0.206 -0.893 0.399 143 98 95
-2626.4006 3160.6885 82.2866 0.609 -0.720 -0.332 147 103 100
-2606.8284 3148.7346 78.1434 0.589 -0.803 -0.094 147 103 100
-2602.9761 3154.6213 74.7841 0.609 -0.605 0.513 147 103 100
-2600.2815 3161.8401 71.4768 0.661 -0.556 0.504 148 104 101
-2453.9233 3400.9619 -60.9322 0.570 0.103 -0.815 37 39 54
-2474.7205 3485.4448 -78.6920 -0.142 -0.987 0.078 49 51 64
-2464.9023 3483.7634 -82.1027 -0.142 -0.987 0.078 48 48 60
-2411.7771 3527.0249 -116.7232 -0.063 -0.424 -0.903 212 199 201
-2536.3018 3801.1304 -151.5110 0.379 -0.594 0.710 213 183 184
-2522.2034 3793.5483 -154.8130 0.394 -0.570 0.721 215 185 186
-2514.1191 3794.5759 -158.3661 0.395 -0.573 0.718 212 182 183
-2505.0647 3794.1604 -161.8618 0.395 -0.580 0.713 200 170 170
-2498.9561 3797.9954 -165.4910 0.383 -0.764 0.519 205 177 176
-2485.3855 3790.8982 -168.7313 0.419 -0.827 0.376 196 169 170
-2472.5422 3784.7761 -171.9818 0.362 -0.867 0.344 168 146 146
-2502.2405 3854.2078 -181.5317 -0.103 -0.982 -0.156 103 82 83
-2378.0356 3783.1658 -209.3113 0.542 -0.762 0.354 146 124 126
-2414.5439 3904.4197 -232.1356 0.757 0.076 0.649 139 114 118
-2374.7949 3881.8005 -241.0618 -0.074 -0.968 -0.241 125 101 105
-2309.0090 3869.1206 -263.4780 0.297 -0.735 -0.609 195 170 173
-2303.1902 3872.8901 -266.9708 0.298 -0.728 -0.617 218 193 196
-2298.6387 3878.7075 -270.5887 0.341 -0.614 -0.712 225 200 203
-2299.6833 3906.9729 -278.8975 0.502 -0.346 -0.793 226 200 203
-2315.3005 3946.0205 -284.7024 0.371 -0.451 -0.812 226 200 203
-2271.1311 3953.7769 -304.7763 0.102 -0.984 -0.143 224 200 201
-2258.8831 4029.1167 -332.9397 0.538 -0.607 -0.585 188 165 165
-1801.6295 4340.7026 -612.1594 0.644 -0.559 0.522 232 186 186
-1811.9160 4465.5303 -646.5823 0.551 -0.075 -0.831 201 149 146
-1858.8660 4667.9409 -690.2842 0.431 -0.868 -0.245 201 135 126
-1723.9180 4540.4082 -704.9224 -0.045 -0.787 -0.616 44 31 17
-1710.6672 4541.4404 -710.5447 0.599 -0.572 -0.560 49 37 31
-1653.9922 4570.1904 -742.1058 -0.107 -0.759 -0.642 150 129 121
-1597.0857 4633.5688 -784.4509 0.178 -0.558 0.810 119 92 94
-1590.9150 4634.7109 -787.2733 0.188 -0.558 0.808 87 62 66
-1567.8358 4605.5752 -787.5153 0.348 -0.489 0.800 219 195 198
-1562.1669 4607.9346 -790.5127 0.828 -0.561 0.014 208 181 186
-1545.6923 4597.3984 -793.8538 0.933 -0.339 0.125 178 153 157
-589.4341 385.7519 122.7003 0.242 -0.665 0.706 82 78 69
-2814.0920 2062.3582 489.2059 0.599 -0.154 0.786 105 90 83
-2807.2334 2064.8081 485.7125 -0.061 -0.915 0.399 154 139 132
-2797.4575 2065.3179 481.6583 -0.072 -0.940 0.334 166 151 144
-2795.9814 2071.2937 479.2162 0.577 -0.163 0.800 169 154 147
-2791.3066 2075.1548 476.1554 0.589 -0.144 0.795 171 155 149
-2792.7246 2083.0776 474.2628 0.626 -0.127 0.770 186 165 158
-3240.7759 2619.4827 486.4286 0.394 -0.800 -0.452 128 85 71
-3270.2444 2704.3496 471.8462 0.331 -0.943 0.018 120 81 64
-3301.8140 2737.6094 474.1103 0.201 -0.940 -0.276 120 81 64
-3293.6665 2740.5732 469.9438 0.201 -0.940 -0.276 120 81 64
-3285.4136 2771.2051 457.1523 0.976 -0.219 0.000 107 71 53
-3284.9834 2780.1797 454.1968 0.965 -0.196 0.176 107 71 53
-3474.4583 2938.3289 480.6499 0.615 -0.535 0.579 107 71 53
-3149.9521 2811.5427 390.6528 0.335 -0.836 -0.435 115 52 36
-3125.3931 2809.8225 381.3987 0.329 -0.884 0.334 128 63 48
-3154.0752 2843.1492 382.4912 0.177 -0.860 0.479 138 72 57
-3119.4287 2832.9019 371.8621 0.102 -0.589 0.802 150 83 68
-3074.4512 2822.8987 357.0401 0.476 -0.704 0.528 142 68 50
-3068.6814 2827.3198 353.3691 0.498 -0.765 0.409 139 70 50
-3055.1672 2853.2288 339.9459 0.547 -0.272 -0.791 109 69 42
-3054.8809 2862.4182 336.9812 0.547 -0.272 -0.791 107 70 44
-3103.4338 2962.8760 325.1681 0.559 -0.351 -0.751 1 73 80
-2534.9917 2707.1758 177.9440 0.006 -0.997 -0.080 136 73 42
-2777.6514 3035.7439 172.7272 0.529 -0.263 0.806 31 61 92
-2743.3872 3020.2710 163.8716 0.896 0.118 0.429 145 145 173
-2748.5454 3035.4788 161.2097 0.342 -0.676 0.653 190 171 198
-2730.1487 3036.1589 153.6669 0.215 -0.769 0.601 202 155 181
-2705.0815 3059.4575 136.4492 0.382 -0.723 0.575 183 143 166
-2725.9373 3152.8206 115.7987 0.476 -0.879 -0.014 171 119 139
-2721.1790 3157.9348 112.3158 0.698 -0.659 0.278 171 120 137
-2682.3677 3125.7019 106.8471 0.873 -0.482 0.080 170 119 134
-2714.6611 3171.4590 105.5229 0.835 -0.380 -0.398 154 105 109
-2704.4153 3170.5188 101.7312 0.729 -0.571 -0.377 154 106 108
-2637.7505 3147.7812 82.2163 0.289 -0.910 0.296 150 104 104
-2481.3923 3454.1924 -75.1506 0.383 -0.813 -0.440 26 28 43
-2479.2834 3462.8086 -78.6640 0.085 -0.922 -0.377 33 35 50
-2425.1709 3551.5693 -127.7644 -0.071 -0.467 -0.881 210 191 197
-2481.1072 3678.5059 -144.8490 -0.197 -0.855 -0.479 214 188 194
-2507.0908 3790.6826 -169.2920 0.605 -0.548 -0.579 210 180 184
-2504.3740 3799.4548 -173.0960 0.713 -0.515 -0.476 212 182 184
-2474.3953 3781.0835 -179.3447 0.362 -0.867 0.344 201 175 174
-2465.2871 3780.3894 -182.7592 0.363 -0.867 0.341 187 162 161
-2319.2146 3852.6035 -263.3763 0.434 -0.369 -0.822 143 116 121
-2317.1021 3875.4895 -271.3177 0.291 -0.685 -0.668 147 120 126
-2311.9915 3880.4409 -274.8904 0.288 -0.741 -0.607 142 115 122
-2307.8831 3887.0139 -278.5668 0.342 -0.622 -0.704 150 123 129
-2183.6570 3839.3782 -313.2982 0.555 -0.180 -0.813 132 113 114
-2184.9211 3854.7300 -317.5568 0.555 -0.180 -0.813 133 113 115
-2261.5886 4026.7078 -340.3515 0.532 -0.611 -0.587 151 132 134
-2257.6218 4033.7837 -344.1275 0.532 -0.611 -0.587 139 118 120
-1873.2838 4640.5142 -685.5153 0.255 -0.672 0.695 205 146 142
-1820.6138 4617.3481 -699.3199 0.613 -0.341 0.713 180 122 117
-1727.7463 4541.1753 -712.7014 -0.041 -0.785 -0.619 48 32 23
-1657.5878 4534.3164 -738.5344 0.270 -0.929 -0.255 76 66 64
-1657.1571 4551.2227 -743.9505 -0.109 -0.766 -0.634 82 70 69
-1659.4823 4575.7412 -750.6298 -0.107 -0.761 -0.639 82 69 68
-1604.3124 4625.6504 -788.0994 0.174 -0.562 0.809 166 129 135
-1597.3795 4624.6323 -790.5466 0.178 -0.558 0.810 189 156 162
-1567.8765 4595.9185 -793.3973 0.348 -0.489 0.800 202 171 179
-1564.4977 4604.9438 -797.5436 0.876 -0.471 0.105 188 157 165
-2787.6516 2062.3845 471.3944 0.577 -0.163 0.800 151 137 134
-2780.1284 2064.3298 467.8027 0.794 0.096 0.600 179 164 160
-2781.0337 2071.8706 465.8116 0.800 0.085 0.593 186 167 160
-3138.5801 2844.3708 366.9236 -0.022 -0.990 0.137 138 75 60
-3126.3062 2843.4624 362.3361 -0.022 -0.990 0.137 144 79 64
-3064.7869 2856.9016 333.7354 0.587 -0.250 -0.770 110 69 41
-3061.4189 2882.4031 324.4508 0.908 -0.410 -0.088 72 58 43
-2739.1111 3010.9646 156.4834 0.935 0.046 0.351 98 111 137
-2747.4355 3029.4028 154.0399 0.274 -0.745 0.608 168 161 187
-2739.4045 3030.9675 150.3655 0.271 -0.752 0.601 193 159 185
-2730.8323 3031.9419 146.6602 0.277 -0.740 0.613 198 157 183
-2870.1709 3272.1082 127.0984 0.680 -0.541 0.494 188 140 162
-2852.8018 3264.1096 122.6989 0.746 -0.612 -0.261 188 139 161
-2729.1584 3151.1865 108.8303 0.476 -0.879 -0.014 178 130 151
-2687.9260 3126.7000 100.1004 0.830 -0.522 0.195 178 129 146
-2490.5305 3426.4836 -71.6651 0.700 -0.121 -0.703 41 43 58
-2481.1538 3436.7910 -78.5986 0.736 -0.024 -0.677 38 40 55
-2489.1572 3458.7351 -82.2620 0.942 -0.250 -0.222 29 31 46
-2484.6082 3464.1304 -85.7489 0.087 -0.921 -0.379 33 35 50
-2481.5391 3494.5168 -96.4373 0.379 -0.510 -0.772 41 39 52
-2472.7961 3505.8926 -103.4522 0.287 -0.904 -0.317 43 39 53
-2440.5576 3567.1108 -135.3254 -0.071 -0.468 -0.881 215 196 202
-2447.9343 3613.2803 -146.7880 0.439 -0.869 0.228 216 196 201
-2464.6416 3698.0232 -166.5705 0.820 -0.567 0.079 219 188 193
-2477.8582 3729.4636 -171.1252 0.926 -0.373 0.053 216 185 190
-2487.2397 3755.5403 -175.5298 0.877 -0.437 0.201 217 186 191
-2475.6260 3776.4844 -186.6662 0.478 -0.541 0.692 209 182 181
-2432.3423 3775.9368 -203.6712 -0.080 -0.977 -0.200 135 109 108
-2363.6318 3786.4434 -234.2115 0.599 -0.734 0.320 123 103 105
-2375.4214 3843.3591 -247.2724 0.567 0.036 0.823 135 114 121
-2331.9841 3879.5269 -275.7817 0.485 -0.396 -0.780 144 117 124
-2315.8320 3866.7666 -278.2141 0.626 -0.365 0.689 145 118 125
-2273.0481 4053.3145 -353.3341 0.456 -0.663 0.593 133 113 115
-2263.4990 4050.8159 -356.3445 0.461 -0.672 0.580 174 152 155
-2042.2915 4853.7642 -694.3832 0.238 -0.939 -0.250 233 201 204
-2010.9381 4798.6367 -689.6429 0.018 -0.936 -0.350 233 197 198
-1938.5870 4646.4585 -670.9230 -0.047 -0.963 -0.267 228 188 189
-1875.3333 4531.6406 -660.2374 0.148 -0.682 -0.716 214 172 173
-1830.7380 4476.4019 -660.7170 0.637 -0.093 -0.765 206 166 166
-1822.8689 4474.4785 -663.2402 0.608 -0.319 -0.726 210 166 164
-1839.2731 4548.6396 -679.8448 0.361 -0.732 -0.578 207 150 147
-1832.0361 4601.0522 -699.0523 0.381 -0.803 -0.459 192 132 126
-1810.4136 4582.7417 -701.9257 0.505 -0.580 0.640 176 122 116
-1785.0756 4537.0391 -697.7360 0.452 -0.616 0.645 163 118 112
-1780.0999 4542.0957 -701.2863 0.438 -0.739 0.512 150 117 110
-1782.3470 4565.3774 -707.6510 0.150 -0.979 -0.138 142 118 111
-1774.5537 4563.3594 -710.1146 0.140 -0.980 -0.143 141 117 107
-1743.1229 4518.6450 -708.6505 0.368 -0.930 -0.020 83 56 47
-1734.7021 4550.0205 -721.7711 -0.041 -0.785 -0.618 51 34 26
-1596.4464 4612.2095 -796.0164 0.264 -0.460 0.848 205 170 177
-1587.0090 4603.9009 -797.1717 0.247 -0.482 0.841 227 194 203
-2774.7634 2064.3022 458.4369 0.800 0.085 0.593 161 141 135
-2769.2700 2067.5691 455.2435 0.830 0.084 0.552 170 150 143
-2770.2007 2075.1311 453.2432 0.818 0.063 0.572 177 154 148
-3298.4602 2838.0256 423.0673 0.116 -0.692 -0.713 97 61 45
-3067.5171 2826.4302 335.4523 0.487 -0.707 0.512 134 72 49
-3059.6262 2829.0188 331.5240 0.487 -0.707 0.512 120 64 39
-3079.6943 2874.6089 325.1770 0.166 -0.909 0.382 112 68 43
-2734.4497 3001.2869 149.1026 0.937 0.035 0.347 59 82 107
-2746.7988 3023.8286 146.9230 0.274 -0.745 0.608 116 121 144
-2737.7219 3024.3052 143.1875 0.283 -0.737 0.614 185 163 186
-2727.9277 3024.0020 139.4128 0.261 -0.738 0.622 190 161 184
-2738.9497 3105.5674 118.2262 0.755 -0.412 0.510 192 148 170
-2801.7964 3182.9390 118.8290 0.674 -0.591 0.444 193 148 169
-2868.1848 3264.6289 119.4789 0.685 -0.513 0.517 193 148 169
-2868.3057 3275.4783 116.1293 0.807 -0.557 -0.195 193 148 169
-2729.0603 3145.9482 101.6741 0.493 -0.870 -0.005 189 144 165
-2642.6313 3132.7710 71.6523 0.338 -0.917 0.212 158 117 124
-2634.5579 3133.9578 68.0908 0.306 -0.918 0.251 148 107 113
-2647.8669 3296.2744 22.5215 0.065 -0.994 -0.087 29 9 0
-2482.9465 3366.3015 -64.5669 -0.014 -0.729 -0.684 37 36 42
-2517.7771 3422.4111 -68.3754 0.378 -0.911 -0.165 43 42 48
-2517.2295 3432.9912 -71.9047 0.389 -0.915 -0.106 47 47 54
-2514.2036 3440.3816 -75.4146 0.386 -0.908 -0.165 49 50 62
-2496.0166 3450.6541 -85.8170 0.876 -0.225 0.426 45 47 62
-2493.3838 3458.5793 -89.3390 0.989 0.034 -0.147 37 39 54
-2489.5227 3464.8953 -92.8422 0.535 -0.788 -0.304 35 37 52
-2469.7488 3723.9265 -181.7677 0.996 -0.060 0.068 223 192 197
-2424.4128 3670.6621 -183.0008 0.951 -0.283 -0.128 224 194 196
-2471.8210 3751.9485 -189.7236 0.558 -0.743 0.370 221 191 193
-2481.5405 3778.7339 -194.2711 0.544 -0.674 0.500 216 188 187
-2464.3618 3791.5947 -205.0856 0.235 -0.947 0.218 209 181 180
-2453.5066 3788.2615 -208.3307 0.172 -0.967 0.188 205 177 176
-2445.1990 3788.6521 -211.7354 -0.170 -0.932 -0.322 190 162 161
-2319.8562 3866.5654 -285.6562 0.646 -0.320 0.693 144 117 124
-2332.1304 3899.5164 -291.1249 0.302 -0.922 -0.243 158 131 138
-2269.3108 3943.6218 -329.7561 0.036 -0.803 0.595 122 102 104
-2266.0361 4048.0869 -363.7620 0.213 -0.622 0.754 178 157 160
-2239.4263 4029.8596 -368.5679 0.159 -0.647 0.746 224 198 201
-1982.8308 4723.5068 -687.1570 0.257 -0.933 0.250 234 198 199
-1933.5449 4643.1108 -681.4548 -0.081 -0.982 -0.171 219 177 178
-1892.5978 4563.7241 -672.7740 0.150 -0.680 -0.718 215 173 174
-1824.1028 4451.7422 -664.7706 0.646 -0.156 -0.747 213 173 173
-1837.5286 4605.4985 -707.6132 0.377 -0.708 -0.597 188 132 125
-1777.7043 4527.0474 -706.6837 0.488 -0.711 0.507 149 117 110
-1761.5930 4539.0308 -716.8017 0.111 -0.992 0.057 110 83 76
-1746.7681 4518.8906 -716.3524 0.640 -0.760 0.112 89 62 53
-1743.7759 4564.2852 -731.7494 -0.019 -0.782 -0.623 53 36 30
-1632.5000 4555.8535 -773.0744 0.359 -0.344 0.868 78 75 72
-1617.4299 4606.0400 -794.7439 0.317 -0.377 0.870 98 70 75
-1571.6320 4587.3403 -806.9831 0.118 -0.993 0.029 227 194 203
-2760.2017 2058.1384 447.4033 0.849 0.044 0.526 154 134 127
-2759.0479 2064.2717 445.0197 0.849 0.044 0.526 169 146 140
-2757.8916 2070.4172 442.6316 0.849 0.044 0.526 156 133 127
-3231.2361 2555.9849 476.0769 0.578 -0.815 0.035 154 116 106
-3260.4236 2603.3833 472.6472 0.710 -0.307 -0.634 151 107 94
-3308.8352 2860.6956 410.7406 0.406 -0.685 -0.606 101 65 49
-2713.9724 2760.8030 208.1577 0.170 -0.551 -0.817 127 72 63
-2723.3792 2965.6733 147.4055 0.922 0.324 -0.213 31 79 109
-2747.6555 3019.8040 139.9258 0.289 -0.733 0.615 58 76 97
-2740.0679 3021.8228 136.3058 0.332 -0.757 0.562 175 167 186
-2730.6165 3021.8845 132.5683 0.322 -0.747 0.582 181 166 184
-2721.3438 3022.0957 128.8542 0.378 -0.826 0.419 185 164 183
-2710.9150 3021.0625 125.0767 0.380 -0.821 0.426 189 162 183
-2707.8455 3037.5828 118.6719 0.274 -0.759 0.591 195 160 184
-2768.6545 3204.5935 90.0512 0.592 -0.654 -0.471 193 156 174
-2771.2224 3217.9014 86.8748 0.626 -0.634 -0.455 192 156 169
-2640.4138 3104.8950 70.9688 0.742 -0.431 0.513 192 156 168
-2614.6140 3137.0691 50.6976 0.065 -0.833 -0.549 175 134 130
-2491.0952 3360.1599 -68.0776 0.008 -0.707 -0.707 32 31 37
-2509.4194 3417.1975 -78.8133 0.402 -0.905 -0.139 48 48 55
-2511.1401 3430.7053 -82.3860 0.333 -0.941 -0.061 53 54 67
-2495.8647 3456.1143 -96.3888 0.981 0.055 -0.184 43 45 60
-2491.3572 3461.5730 -99.8793 0.996 0.052 -0.075 36 38 53
-2472.6665 3505.6333 -121.0934 0.388 -0.405 -0.828 34 32 45
-2451.2295 3593.8345 -157.2746 -0.102 -0.817 -0.568 206 189 195
-2449.2180 3602.9763 -160.9420 0.389 -0.899 0.201 210 191 195
-2433.2991 3677.3372 -190.5982 0.973 -0.200 -0.118 228 198 200
-2431.7051 3687.3320 -194.3698 0.973 -0.200 -0.118 225 195 197
-2454.9749 3784.0105 -215.6310 -0.172 -0.929 -0.327 216 188 187
-2452.1750 3792.5811 -219.4288 -0.170 -0.932 -0.322 217 189 188
-2371.7478 3837.4741 -265.1909 0.415 -0.891 -0.186 132 111 118
-2370.3730 3848.3325 -269.1479 0.421 -0.907 -0.014 136 115 122
-2210.7664 3865.1042 -337.2109 0.657 -0.054 -0.752 125 107 111
-2272.9963 4039.0188 -367.4445 0.215 -0.549 0.808 142 123 127
-1887.3903 4542.5303 -677.5416 0.259 -0.840 -0.476 217 177 177
-1847.9001 4466.0166 -669.0049 0.724 -0.023 -0.689 227 187 187
-1830.8091 4579.8467 -711.5395 0.373 -0.549 -0.748 185 134 128
-1828.3434 4591.3823 -716.1385 0.376 -0.803 -0.463 178 129 122
-1814.0028 4573.4873 -716.1500 0.336 -0.906 -0.259 170 124 118
-1811.0793 4601.5835 -726.1392 0.483 -0.812 -0.328 148 119 110
-1800.7057 4593.3374 -727.6257 0.433 -0.829 -0.355 129 107 99
-1759.7189 4525.2124 -722.3170 0.428 -0.636 0.642 107 80 73
-1749.8302 4552.9121 -734.9215 0.881 -0.227 0.415 67 45 39
-1722.8843 4536.5771 -740.3825 0.631 -0.776 -0.001 48 40 34
-1667.9102 4498.5039 -750.0305 0.161 -0.672 0.723 68 60 58
