ply
format ascii 1.0
element vertex 784
property float x
property float y
property float z
property float nx
property float ny
property float nz
property uchar diffuse_red
property uchar diffuse_green
property uchar diffuse_blue
end_header
-4116.0889 3607.9089 2215.0879 0.018 -0.256 -0.967 209 205 196
-4318.8511 3956.4819 2287.9902 0.265 -0.879 0.398 36 33 28
-3675.5383 3497.1340 1909.9008 0.475 -0.847 -0.238 41 45 36
-3083.4829 3051.9468 1567.0305 0.233 -0.914 0.331 177 76 70
-3221.2673 3230.6865 1629.7668 0.885 -0.448 -0.124 208 143 143
-3246.7532 3279.6760 1637.7549 0.772 -0.636 0.024 237 215 210
-3242.9531 3286.3823 1633.3831 0.773 -0.634 0.009 221 209 201
-4572.0586 5017.9961 2236.8643 -0.160 -0.433 -0.887 233 213 202
-3346.8584 4221.7285 1498.9498 -0.165 -0.600 -0.783 192 157 137
-3415.7556 4452.1504 1498.2998 -0.379 -0.843 -0.382 187 151 129
-3422.3916 4524.8008 1486.7823 0.535 -0.549 0.643 189 148 128
-4185.6699 5750.9326 1780.7484 -0.025 -0.461 0.887 171 131 105
-3691.6643 5341.3096 1503.3242 0.673 -0.211 0.709 123 86 67
-3394.4946 5797.5928 1176.9131 -0.017 -0.702 0.712 85 54 39
-3380.6179 5887.6152 1146.0709 0.263 -0.856 0.445 27 22 9
-3443.6912 6074.4463 1150.9501 0.341 -0.389 0.856 26 22 11
-3383.2075 6034.7031 1114.6206 0.783 -0.228 -0.579 36 29 19
-3381.5403 6055.7964 1108.5818 0.783 -0.228 -0.579 41 33 23
-3202.9548 6056.7393 974.4600 -0.124 -0.826 -0.550 91 71 60
-3194.2451 6064.4956 966.1684 -0.079 -0.803 -0.591 79 59 48
-3165.3501 6082.2935 940.4617 -0.107 -0.826 -0.554 63 49 40
-3156.3350 6089.4727 932.0721 -0.117 -0.819 -0.561 67 53 44
-3152.9324 6108.0439 925.3046 -0.144 -0.795 -0.590 75 61 52
-3152.5200 6132.8081 919.3735 -0.140 -0.810 -0.569 81 67 58
-2759.7078 5837.1724 691.9491 0.084 -0.932 -0.352 47 40 34
-2747.6477 5836.0449 683.1622 0.009 -0.992 -0.126 47 40 34
-2312.0598 5205.1504 499.7745 0.430 -0.795 0.427 32 23 18
-2736.7542 6699.6890 478.9278 -0.531 -0.762 -0.372 51 37 28
-1838.5720 5284.7090 126.6804 0.602 0.143 -0.785 32 19 13
-1755.1642 5373.3433 44.0173 0.889 0.038 -0.456 240 197 214
-1752.2012 5424.5708 30.1657 0.404 -0.894 -0.192 234 190 207
-1837.0983 5802.4487 8.0372 0.102 -0.671 0.735 216 175 191
-1699.3969 5906.7368 -118.8904 0.695 -0.605 0.390 252 231 231
-1671.0416 5873.8218 -132.6794 -0.639 -0.562 -0.525 167 73 84
-3986.7268 3436.0510 2143.8438 0.634 -0.270 -0.724 212 207 199
-4104.9756 3555.9998 2204.8555 0.781 -0.055 -0.622 211 207 199
-4127.2231 3587.8235 2214.2126 0.704 -0.170 -0.689 214 209 201
-4133.8784 3605.3425 2215.1780 0.018 -0.574 -0.819 212 208 200
-4161.0137 3642.0024 2227.0850 0.033 -0.181 -0.983 198 194 185
-4409.0874 4009.7751 2328.4602 0.247 -0.161 -0.956 38 35 30
-3762.0969 3577.0771 1943.3834 0.244 -0.714 0.657 38 42 33
-3095.9849 3018.3127 1572.8929 0.909 -0.209 0.361 161 100 93
-3085.2668 3046.8667 1558.3252 0.231 -0.910 0.345 177 74 68
-3229.3044 3231.9268 1623.7140 0.984 -0.171 -0.039 201 133 134
-3253.5459 3279.4971 1630.9539 0.849 -0.516 0.111 240 213 209
-3236.2688 3271.5833 1619.8363 0.952 -0.162 0.259 218 203 195
-3391.0706 4270.0513 1506.8234 -0.052 -0.566 -0.823 192 157 137
-3438.4229 4487.7168 1492.3702 -0.052 -0.869 0.492 189 149 129
-3945.7314 5354.4243 1673.4078 0.061 -0.837 0.543 183 142 117
-3849.8289 5369.0840 1598.2656 -0.219 -0.640 0.737 112 79 56
-3670.7710 5314.7144 1476.7061 0.670 -0.216 0.710 166 129 110
-3608.5645 5375.6675 1416.1730 0.542 -0.830 0.134 208 162 139
-3400.2905 5836.4395 1154.6589 0.416 -0.315 -0.853 55 35 16
-3357.6003 5992.7314 1086.8789 0.493 -0.456 -0.741 41 33 22
-3350.2166 6051.3721 1067.9099 -0.004 -0.582 0.813 116 96 87
-3185.7705 6129.3574 926.9474 0.961 -0.187 -0.205 94 80 71
-3207.1025 6198.0640 927.1646 0.851 -0.319 0.417 100 86 77
-3108.3953 6230.2607 845.9027 -0.253 -0.937 0.242 68 61 53
-3054.5320 6169.6758 819.4747 0.989 -0.065 0.134 68 61 53
-2988.6182 6108.3892 784.1879 -0.433 -0.901 -0.029 49 46 37
-2947.8921 6099.7251 755.6909 -0.440 -0.886 -0.149 51 48 39
-2864.8369 6382.0962 628.7968 0.090 -0.715 0.693 32 22 15
-2235.3821 6107.6943 220.5590 0.144 -0.971 0.189 31 19 12
-2223.9980 6234.7407 182.9151 0.798 -0.561 0.220 35 23 17
-1704.2090 5895.1411 -128.2936 0.695 -0.605 0.390 255 246 245
-4043.0208 3469.4324 2164.9277 0.426 -0.419 -0.802 210 207 201
-4111.7046 3554.6145 2196.5303 0.781 -0.055 -0.622 200 197 191
-4136.5186 3588.7529 2207.1692 0.470 -0.316 -0.824 192 189 184
-4157.2773 3619.3142 2215.6060 0.011 -0.558 -0.830 144 141 135
-4197.3325 3667.9565 2234.2756 -0.106 -0.369 -0.923 111 108 102
-3804.6157 3600.5408 1956.4591 -0.210 -0.881 0.423 34 32 27
-3745.6331 3563.9702 1920.8539 0.251 -0.966 -0.054 35 31 27
-3085.6204 3040.2832 1548.9254 0.653 -0.678 0.337 167 68 54
-3229.4045 3203.5220 1618.5743 0.988 -0.157 -0.009 176 73 68
-3233.9111 3240.1174 1613.4719 0.978 -0.054 0.201 219 158 155
-4341.5308 4593.0518 2127.9104 0.661 -0.529 -0.533 213 198 188
-4250.8989 4536.5410 2073.2734 0.256 -0.959 -0.120 216 202 192
-3476.2466 4327.2983 1542.9171 0.530 -0.651 0.543 194 161 145
-3441.8167 4311.8013 1520.7793 -0.108 -0.848 0.519 193 158 135
-3404.3179 4276.9497 1500.8280 0.087 -0.514 -0.854 189 153 129
-3284.2114 4324.8833 1399.9965 -0.179 -0.976 0.125 220 133 126
-4044.8406 5481.1768 1700.6907 0.178 -0.972 0.153 185 138 114
-4070.3884 5536.9683 1706.8665 0.415 -0.886 0.208 187 137 115
-3671.0896 5359.2852 1449.6522 0.794 -0.446 0.413 125 84 62
-3614.3455 5370.0493 1404.7643 0.542 -0.830 0.134 197 156 134
-3473.1997 6044.1943 1143.2834 0.148 -0.380 0.913 26 20 5
-3373.0408 5932.0386 1094.4066 0.125 -0.947 0.295 41 36 18
-3341.6992 5944.9937 1067.9913 -0.004 -1.000 -0.004 59 50 34
-3319.2322 5926.8198 1055.4113 -0.084 -0.932 0.352 113 93 82
-3334.5955 5979.4512 1054.7090 -0.193 -0.664 0.722 106 83 72
-3202.0632 6193.9263 906.0493 0.817 -0.235 0.526 107 93 84
-3034.9194 6108.0962 801.0318 0.937 -0.040 0.348 73 64 57
-3015.2957 6092.6904 789.9352 -0.253 -0.961 0.110 72 64 57
-2969.2668 6046.8735 766.1486 -0.206 -0.949 0.240 71 65 59
-2948.4919 6054.4507 748.8729 0.021 -0.683 0.730 71 65 59
-2920.9495 6047.2725 729.9557 -0.191 -0.942 0.276 70 64 58
-2883.2607 5991.4312 714.7205 -0.064 -0.652 0.756 70 64 58
-2860.6230 5968.0151 703.2260 -0.015 -0.681 0.732 71 64 57
-2794.1282 5899.4214 669.4196 -0.058 -0.733 -0.678 61 47 34
-2826.6929 6077.9170 652.4394 0.459 -0.806 -0.372 73 41 35
-2872.3647 6236.0522 649.9647 0.353 -0.930 0.101 58 40 27
-2726.8213 6263.0508 534.9730 -0.292 -0.701 -0.651 40 29 13
-1780.5833 5407.2139 26.0631 0.566 0.089 -0.820 230 197 205
-1823.4686 5608.2339 11.5811 0.460 -0.008 -0.888 207 171 182
-1718.6429 5883.0625 -130.3458 0.682 -0.609 0.406 255 252 253
-1709.6403 5885.9033 -137.7297 0.683 -0.606 0.407 255 248 252
-2824.7949 1878.3431 1614.7144 0.639 -0.727 0.251 198 190 179
-2817.7769 1891.1025 1606.4989 0.740 -0.622 0.256 210 202 191
-4005.3340 3331.9495 2155.5532 -0.026 -0.649 -0.760 212 209 200
-4179.3125 3631.9629 2215.2129 0.000 -0.560 -0.828 54 51 46
-3809.2666 3597.2656 1947.3328 -0.210 -0.881 0.423 35 32 27
-3767.8123 3567.0205 1923.4821 0.360 -0.794 0.489 36 31 27
-3761.8000 3572.4353 1917.7328 0.386 -0.591 -0.709 36 31 27
-3230.4741 3197.3625 1609.0942 0.988 -0.157 -0.009 159 55 50
-3666.7358 3745.9136 1806.2997 0.370 -0.921 -0.122 211 202 191
-4336.5112 4576.9775 2111.6560 0.666 -0.540 -0.515 214 197 187
-4360.9595 4836.8394 2069.1743 0.062 -0.753 0.655 175 149 132
-3459.4360 4309.3398 1520.0497 -0.015 -0.869 0.494 193 159 145
-3443.4236 4303.1416 1509.5557 -0.106 -0.846 0.523 190 154 132
-3282.6755 4311.6318 1387.6831 -0.207 -0.973 0.102 214 125 119
-3884.0740 5258.2236 1615.0500 0.452 -0.856 0.252 190 138 116
-3739.0962 5273.8442 1503.2734 0.035 -0.676 0.736 143 112 92
-3612.7078 5352.9204 1390.5348 0.503 -0.823 0.265 181 140 118
-3359.7854 5843.4829 1087.2831 0.779 -0.253 -0.573 53 44 27
-3357.8508 5863.1040 1081.2557 0.779 -0.253 -0.573 53 45 28
-3372.6057 5913.4614 1080.4944 0.109 -0.956 0.273 61 53 36
-3398.6653 6008.8306 1077.6476 0.249 -0.968 -0.033 74 64 47
-3387.5994 6012.2651 1068.5920 0.235 -0.972 -0.028 80 68 52
-3368.7866 6025.2866 1051.5187 -0.001 -0.602 0.799 89 65 55
-3338.5413 5992.6611 1036.5839 0.007 -0.595 0.804 76 52 42
-3345.4822 6029.8569 1033.0698 -0.017 -0.644 0.765 67 43 33
-3257.4248 5887.4609 1000.6654 -0.327 -0.845 -0.422 60 36 26
-3291.6316 6000.4526 999.7775 -0.400 -0.774 -0.491 49 25 15
-3233.6536 5937.7749 971.1807 0.659 -0.595 0.459 69 48 37
-3279.1523 6049.8013 978.9401 -0.444 -0.867 0.227 73 53 42
-3187.3210 6093.6499 900.2054 0.939 -0.320 0.130 78 64 55
-3162.5530 6094.5078 881.5325 0.780 -0.248 0.574 89 75 66
-3106.4570 6133.6465 830.5507 0.925 -0.162 0.344 76 67 60
-3093.7896 6133.3018 821.1836 -0.293 -0.883 0.367 76 67 60
-2963.5955 6040.7173 745.7145 0.361 -0.475 0.803 85 78 72
-2837.2341 6080.7832 642.1106 0.458 -0.822 -0.339 86 50 44
-2751.7095 6358.5908 513.4163 -0.227 -0.809 -0.543 47 32 16
-1803.5200 5366.9463 37.9327 0.595 -0.552 -0.584 191 146 151
-1781.2332 5325.6982 30.9481 0.653 0.051 -0.756 182 140 147
-1790.7646 5415.7744 17.0111 0.566 0.104 -0.818 208 180 185
-1713.2635 5870.1558 -146.9548 0.698 -0.496 0.516 250 246 249
-1707.3051 5884.0449 -154.6439 0.784 -0.502 0.366 254 244 249
-2819.6855 1888.6257 1600.2383 0.777 -0.577 0.254 210 202 191
-2824.6538 1898.3752 1601.6377 0.652 -0.744 0.143 204 196 183
-4440.1426 3585.7529 2406.3767 0.946 -0.143 -0.289 214 210 199
-3820.7332 3600.8394 1941.6775 -0.207 -0.881 0.425 35 32 27
-3764.1057 3555.4045 1910.2351 0.479 -0.744 0.466 36 31 27
-3094.9868 3036.3442 1534.5065 0.653 -0.621 0.433 139 41 25
-3235.0669 3226.5679 1593.9298 0.983 -0.174 -0.059 211 146 143
-3233.6497 3235.6646 1590.7292 0.983 -0.174 -0.059 231 188 182
-3228.1086 3251.0308 1582.9800 0.780 -0.600 0.176 211 202 191
-4349.1572 4565.6245 2107.5369 0.661 -0.537 -0.523 212 200 188
-3472.2490 4330.4238 1510.1639 -0.155 -0.875 0.458 186 150 128
-3286.9937 4306.5596 1377.8726 -0.207 -0.973 0.096 194 114 105
-3293.7373 4331.2061 1377.0801 -0.138 -0.950 0.281 192 129 112
-3841.2002 5202.3589 1579.1965 0.497 -0.784 0.372 185 135 112
-3817.3127 5186.7798 1565.0872 0.414 -0.814 0.407 163 116 93
-3807.8772 5191.7310 1556.8948 0.402 -0.817 0.413 142 104 77
-3904.9519 5349.5791 1591.9369 0.576 -0.785 -0.230 131 96 68
-3816.9246 5317.2583 1534.0248 -0.508 -0.859 -0.071 137 102 74
-3778.4768 5318.0581 1505.2123 -0.570 -0.695 -0.438 128 97 77
-3506.8284 5270.6182 1314.1628 0.837 -0.321 0.443 95 53 29
-3530.1655 5386.8628 1304.1208 0.854 -0.503 -0.132 203 167 141
-3506.8606 5369.5347 1290.8574 0.812 -0.347 0.470 183 147 121
-3496.7637 5434.0532 1268.1237 0.571 -0.678 0.463 170 134 108
-3480.1606 5489.0620 1242.7893 0.696 -0.599 0.396 140 109 89
-3447.0320 5623.6665 1186.3789 0.275 -0.602 -0.750 122 89 74
-3388.1711 5854.5200 1088.1112 0.764 -0.328 -0.555 105 90 75
-3375.9443 5855.4302 1078.7939 0.778 -0.252 -0.575 79 65 50
-3350.2297 5948.6392 1037.6664 -0.184 -0.903 0.388 129 107 96
-3358.8704 5988.5547 1034.6852 -0.075 -0.662 0.746 120 98 87
-3328.0457 5954.8228 1019.6921 -0.037 -0.659 0.752 108 84 74
-3343.2068 6007.2422 1018.6163 -0.021 -0.651 0.759 98 74 64
-3281.9534 5963.6528 983.2946 -0.347 -0.655 -0.671 49 25 15
-3233.2324 5918.6724 957.6313 0.664 -0.588 0.461 65 44 33
-3207.0913 6088.6299 898.0853 -0.272 -0.962 0.017 58 44 35
-3177.1748 6054.1538 883.9439 0.929 -0.343 0.138 61 47 38
-3109.1780 5967.8076 853.6862 -0.123 -0.524 0.843 62 48 39
-2980.6985 5805.6714 796.2750 0.950 -0.208 0.235 56 46 40
-2983.0513 5834.9395 791.1237 0.951 -0.201 0.237 56 47 40
-2981.0088 5930.0757 767.1652 0.963 -0.132 0.234 66 57 50
-3001.1553 5997.5068 766.2604 0.967 -0.174 0.188 66 57 50
-3019.0066 6086.5068 758.5598 0.948 -0.065 0.311 65 58 52
-2962.8401 6019.1621 732.6277 0.361 -0.475 0.803 65 58 52
-2897.9788 5957.4727 698.8892 0.263 -0.509 0.820 64 57 51
-2213.0303 6093.8325 156.7948 -0.111 -0.940 0.324 49 32 24
-2064.6416 5843.8330 105.2840 -0.421 -0.260 -0.869 69 44 37
-2060.6951 5862.9829 97.8295 -0.410 -0.262 -0.874 92 67 60
-1996.6481 5792.8540 66.6873 -0.416 -0.388 -0.822 213 172 176
-1824.7714 5593.3042 -14.2084 0.551 -0.829 -0.094 254 240 245
-954.1276 2807.5320 -5.3652 -0.138 -0.738 0.660 255 249 254
-4402.0132 3523.6902 2378.6611 0.967 0.039 -0.251 213 209 198
-4415.5933 3546.2546 2383.3813 0.996 0.055 -0.074 214 210 199
-4414.2285 3578.2888 2374.7412 0.988 -0.128 -0.091 212 208 196
-4334.8281 3520.7737 2329.4265 0.998 0.066 0.008 214 210 199
-3783.1602 3566.7012 1908.5198 0.065 -0.949 0.308 35 30 26
-3239.2637 3223.6956 1585.9753 0.149 -0.632 -0.760 201 137 134
-3235.2695 3230.0134 1581.5029 0.149 -0.632 -0.760 226 183 177
-3231.2473 3246.9746 1574.4763 0.646 -0.753 0.128 210 201 190
-4312.0156 4455.8979 2089.8645 0.052 -0.989 0.138 211 202 189
-4357.7959 4564.7544 2097.9727 0.671 -0.525 -0.523 209 196 184
-4334.7734 4614.0928 2069.1182 0.177 -0.982 0.070 188 171 161
-4760.5693 5157.8745 2256.1008 0.850 -0.292 -0.438 205 181 169
-4715.8140 5157.5630 2222.9150 -0.308 -0.715 0.627 188 166 152
-4276.6079 4732.1460 1997.7894 0.976 -0.207 -0.075 179 152 135
-4296.7368 4787.1411 1999.6565 0.999 0.019 -0.047 194 167 150
-3915.8533 5370.3779 1577.7607 0.851 -0.525 -0.002 147 112 84
-3885.4685 5364.7778 1556.5134 0.566 -0.602 -0.563 112 77 49
-3549.5859 5343.2217 1312.0328 0.682 -0.206 -0.702 158 116 92
-3591.5378 5449.7227 1317.8568 0.734 -0.223 -0.642 185 144 119
-3648.9690 5561.6929 1333.8821 0.746 -0.338 0.574 186 149 123
-3567.5300 5451.9121 1299.4941 0.587 -0.663 0.466 171 135 109
-3518.9004 5475.3970 1257.7642 -0.120 -0.954 0.275 152 116 90
-3493.6338 5475.1909 1239.0364 0.554 -0.679 0.482 195 163 143
-3463.7439 5467.1641 1218.7344 -0.079 -0.948 -0.309 94 63 45
-3454.0105 5619.4561 1175.2476 0.299 -0.594 -0.747 101 68 53
-3463.4558 5657.1904 1173.2839 0.359 -0.654 -0.666 139 106 91
-3433.1853 5626.9438 1157.9888 -0.604 -0.584 -0.543 156 123 108
-3396.1670 5851.5947 1076.9998 0.746 -0.350 -0.567 108 88 74
-3385.3796 5855.1221 1068.1434 0.721 -0.309 -0.620 94 74 61
-3318.4353 5871.8042 1014.4222 0.309 -0.810 0.498 140 116 106
-3297.1814 5879.1602 996.8762 0.055 -0.629 0.776 118 94 84
-3215.1592 5889.7393 933.4030 0.635 -0.595 0.494 49 29 18
-3269.6865 6142.7974 913.6839 0.981 -0.183 0.062 56 37 25
-3043.2458 5865.2900 811.4653 -0.163 -0.544 0.823 43 29 20
-2958.8940 5742.6196 777.9810 0.664 -0.408 0.626 28 18 12
-2957.4851 5763.8696 771.8754 0.735 -0.411 0.540 28 19 12
-3041.7644 5986.4019 781.5334 0.940 -0.262 0.220 28 19 12
-2969.1799 5886.2051 751.4440 0.962 -0.152 0.226 25 16 9
-2974.8071 5922.9502 746.8786 0.967 -0.143 0.212 25 16 9
-2989.9714 5979.9492 744.5793 0.875 -0.284 0.392 25 16 9
-2983.9011 5992.6655 737.0410 0.929 -0.276 0.245 24 17 11
-2974.3953 5998.1768 728.6647 0.971 -0.168 0.170 24 17 11
-2899.9294 5890.9800 698.8438 0.941 -0.307 0.141 24 17 11
-2888.0979 5891.0146 690.0430 0.942 -0.308 0.134 23 16 10
-2872.3420 5882.5669 680.3449 0.955 -0.281 0.093 23 16 10
-2874.4812 5912.6304 674.7780 -0.220 -0.781 0.584 23 16 10
-2848.3442 5881.6055 662.7398 -0.220 -0.775 0.592 23 16 9
-2926.8044 6239.3481 635.8860 0.109 -0.926 -0.362 110 71 66
-2781.1494 5966.5630 592.5793 0.623 -0.562 -0.543 98 68 58
-2205.9124 5865.5376 189.1399 0.916 -0.346 -0.204 33 17 9
-2199.2363 5876.5425 181.5588 0.914 -0.342 -0.218 39 22 14
-2197.9924 5902.9990 174.3364 0.905 -0.359 -0.230 45 28 20
-2151.5640 5921.6616 135.3903 0.848 -0.510 0.144 50 32 24
-2162.3215 6015.0933 121.1430 0.923 -0.383 0.021 55 30 23
-1775.2056 5202.4663 26.9049 -0.326 -0.919 0.223 178 145 146
-1780.4501 5247.4429 20.0956 0.688 0.089 -0.721 182 150 151
-1833.4774 5596.3984 -23.5667 0.540 -0.837 -0.094 255 249 252
-1700.6000 5908.7319 -196.6668 -0.574 -0.650 -0.498 46 28 18
-480.6616 1591.9760 -75.6515 -0.700 -0.668 0.252 255 99 116
-4394.5986 3488.3950 2367.6848 0.964 0.039 -0.262 206 202 190
-4425.7808 3547.6121 2376.5891 0.994 0.072 -0.084 212 208 197
-4544.7568 3660.4126 2437.7476 0.980 0.009 0.197 222 218 207
-4542.3623 3669.7253 2433.7339 0.989 0.024 0.144 217 213 202
-4444.4985 3608.1079 2375.9402 0.984 -0.162 -0.078 210 206 195
-4543.3013 3716.3804 2423.2212 -0.535 -0.820 0.204 204 201 192
-4149.8179 3449.4167 2195.4658 -0.557 -0.582 -0.593 195 190 184
-4813.9673 4178.7725 2512.9153 0.576 -0.411 -0.707 37 34 29
-4793.0107 4172.5889 2498.8550 0.598 -0.388 -0.701 36 33 28
-3800.3010 3576.0256 1905.7686 -0.037 -0.951 0.307 34 29 25
-3247.5659 3225.2070 1580.0234 0.161 -0.620 -0.768 176 110 107
-3243.7080 3231.6748 1575.6078 0.161 -0.620 -0.768 224 181 174
-3242.5537 3241.0591 1572.4967 0.158 -0.624 -0.765 214 194 183
-3247.8020 3257.3696 1572.4714 0.471 -0.862 -0.187 206 198 185
-4371.3379 4569.2734 2090.7444 0.664 -0.545 -0.512 191 177 166
-4277.3291 4721.9624 1984.3225 0.974 -0.209 -0.088 192 165 148
-4289.6152 4751.8999 1986.2439 0.997 0.020 -0.081 192 165 148
-4297.1768 4776.4761 1985.9486 0.999 0.019 -0.047 188 161 144
-4310.8979 4808.3931 1988.4594 0.999 0.025 -0.043 188 161 144
-4337.4932 4920.5210 1981.2491 0.974 0.121 -0.192 190 161 145
-3518.6597 4508.5952 1472.7876 -0.032 -0.989 0.148 180 146 121
-3290.8481 4289.8638 1356.3433 -0.155 -0.985 -0.075 195 139 122
-3876.8550 5300.5757 1548.2281 0.669 -0.644 -0.371 159 124 96
-3893.3376 5362.1880 1545.6528 -0.550 -0.723 -0.417 147 112 84
-3813.4160 5517.6909 1449.0049 -0.539 -0.760 0.364 154 113 91
-3618.8521 5437.7271 1323.8850 0.483 -0.290 -0.826 181 139 115
-3616.8552 5454.7061 1318.3243 0.508 -0.277 -0.816 188 146 122
-3700.5334 5628.5146 1338.6404 0.878 -0.253 -0.406 179 142 116
-3556.2610 5439.0752 1277.1296 0.447 -0.784 0.432 179 143 117
-3516.9639 5396.1260 1258.2969 0.342 -0.928 -0.149 180 144 118
-3489.3206 5452.8022 1224.1738 -0.097 -0.935 0.341 186 154 134
-3448.5710 5426.7485 1200.2045 -0.063 -0.965 -0.254 114 83 65
-3437.1365 5428.3330 1191.3414 -0.063 -0.965 -0.254 134 103 85
-3451.1816 5513.9160 1181.1989 0.673 -0.251 -0.695 99 68 50
-3476.6387 5663.4829 1164.1494 0.368 -0.649 -0.666 173 140 125
-3376.4250 5513.5591 1125.8286 0.258 -0.385 -0.886 184 151 136
-3347.9736 5885.3037 1015.4095 -0.219 -0.613 0.759 127 99 88
-3032.2522 5824.4761 795.8146 -0.171 -0.554 0.815 50 36 27
-2943.2024 5692.3638 761.4962 0.614 -0.522 0.592 26 16 9
-2921.2810 5671.5332 750.2390 0.814 -0.478 0.329 25 16 9
-2990.9568 5862.6392 756.0122 0.937 -0.341 -0.074 25 16 9
-2942.2192 5860.6548 720.3344 0.235 -0.870 0.434 22 13 6
-2930.8508 5886.7563 705.6300 0.854 -0.460 0.242 20 13 7
-2868.6953 5880.5239 661.0192 0.764 -0.547 -0.342 21 14 8
-2836.1599 5835.6660 647.6611 -0.175 -0.819 0.547 21 14 7
-2853.2505 5949.5024 632.9895 -0.115 -0.545 -0.830 40 26 13
-2789.7383 5965.4268 582.0488 0.625 -0.556 -0.549 114 77 69
-2655.5425 5689.3354 548.8316 0.593 -0.147 -0.792 114 78 68
-2926.3127 6678.3105 512.0897 -0.656 -0.725 0.210 81 46 36
-2904.7759 6657.2656 501.1693 -0.656 -0.727 0.201 80 46 36
-1793.7739 5209.1660 24.9160 -0.228 -0.831 0.508 175 147 146
-1806.8746 5278.2559 18.0352 0.003 -0.914 0.405 186 160 159
-2850.2537 1961.0176 1580.5713 0.463 -0.415 -0.783 205 201 190
-4428.2446 3542.3835 2365.6523 0.994 0.070 -0.084 215 211 200
-4525.0620 3636.0432 2414.6367 0.987 0.019 0.160 214 210 199
-4524.8135 3647.1172 2411.7676 0.987 0.019 0.160 216 212 201
-4524.5645 3658.2288 2408.8894 0.987 0.019 0.160 212 208 197
-3149.2678 3013.1013 1546.9075 -0.137 -0.898 -0.417 87 24 16
-3120.3999 3002.8594 1528.0144 0.635 -0.321 -0.703 105 28 27
-3114.9597 3016.8701 1520.5889 0.661 -0.315 -0.681 131 51 33
-3252.8145 3244.6555 1567.4418 0.158 -0.624 -0.765 215 195 183
-4388.1875 4547.7520 2092.2356 0.657 -0.551 -0.514 201 193 180
-4383.9932 4557.9546 2086.6560 0.657 -0.551 -0.514 201 191 179
-4379.7500 4568.1343 2081.0457 0.664 -0.545 -0.512 191 177 166
-4261.2129 4707.8384 1959.3983 0.902 -0.411 -0.131 192 165 148
-4299.4937 4783.8320 1969.3199 0.998 0.021 -0.053 185 158 141
-4338.9224 4910.6479 1967.7695 0.974 0.121 -0.192 168 139 123
-3527.8052 4509.5762 1464.3860 -0.041 -0.989 0.144 180 146 121
-3750.4419 5330.1519 1430.2950 -0.061 -0.985 -0.162 100 69 51
-3807.7820 5474.6055 1437.7317 -0.311 -0.855 -0.414 133 95 74
-3853.7681 5563.9658 1450.1183 -0.569 -0.756 0.323 152 111 89
-3618.8943 5343.7749 1329.5824 0.562 -0.206 -0.801 164 122 98
-3560.0168 5430.0884 1265.0571 0.447 -0.782 0.434 148 112 86
-3545.6702 5467.9287 1245.2590 -0.093 -0.924 0.370 119 83 57
-3535.8137 5472.4106 1236.8739 -0.105 -0.926 0.362 94 58 34
-3506.4617 5633.2783 1176.1359 0.426 -0.690 -0.585 172 139 124
-3499.8652 5643.6079 1168.7471 0.426 -0.690 -0.585 177 144 129
-3487.8772 5666.4199 1154.3389 0.434 -0.719 -0.543 196 163 148
-3122.9585 5123.6387 1015.7191 0.177 -0.545 0.820 189 156 141
-3029.5706 4981.5601 981.0137 0.055 -0.619 0.783 192 158 146
-3039.7388 5018.5957 979.5637 0.317 -0.461 0.829 189 155 143
-3354.0483 5786.7812 1026.0581 0.487 -0.449 -0.749 135 100 91
-3241.9773 5764.1895 948.5480 -0.113 -0.677 0.727 106 82 72
-3250.4128 5826.3408 939.7255 0.304 -0.399 0.865 110 86 76
-3216.5203 5856.2041 907.3878 0.624 -0.599 0.501 50 30 19
-3233.5745 5985.0229 888.7839 -0.318 -0.626 0.712 60 40 29
-3002.2666 5745.7534 775.5141 0.796 -0.376 0.474 50 36 27
-2955.8474 5699.7871 752.2858 0.756 -0.503 0.419 26 16 9
-2850.2471 5578.7886 703.4261 0.680 -0.728 0.085 22 13 6
-2846.9607 5595.5732 696.9231 0.282 -0.749 0.599 22 13 6
-2822.0159 5567.5107 685.2556 0.452 -0.687 0.568 22 13 6
-2795.8328 5583.8687 661.9012 0.432 -0.702 0.566 20 13 7
-2849.2065 5869.6436 632.1369 0.123 -0.670 -0.732 22 16 2
-2866.9824 5933.7100 629.7667 0.035 -0.708 -0.705 28 20 5
-2858.9692 5942.0234 621.8175 0.035 -0.708 -0.705 40 26 13
-2868.1931 5988.1123 617.4731 0.062 -0.713 -0.699 103 83 72
-2899.5657 6190.7808 591.5667 0.515 -0.501 -0.696 122 80 73
-2861.8064 6442.4399 502.5906 -0.373 -0.387 -0.843 94 54 46
-2798.3362 6467.7158 449.4633 0.791 -0.188 -0.583 78 46 39
-1840.9713 5303.3452 22.8486 0.237 -0.821 0.519 180 158 155
-1804.9088 5249.2539 9.2593 -0.320 -0.885 0.337 231 213 211
-1839.5992 5444.8633 -12.4788 0.994 0.081 -0.077 254 252 250
-1972.3055 5959.5908 -39.0084 0.578 0.103 -0.810 253 253 251
-1706.9668 5803.3193 -197.6008 0.396 -0.906 0.150 249 254 249
-2865.7563 1962.5764 1583.2119 0.459 -0.428 -0.778 199 195 184
-2859.5845 1964.0948 1578.2783 0.454 -0.419 -0.786 206 202 191
-4381.9360 3399.6592 2352.3301 0.723 -0.469 -0.507 209 205 193
-4429.3608 3460.2236 2372.5676 -0.430 -0.866 -0.256 204 200 188
-4428.8594 3535.5981 2353.7566 0.994 0.063 -0.090 123 119 108
-4491.2441 3599.7295 2384.1792 0.949 -0.229 0.218 150 146 135
-4509.8052 3626.7625 2391.2852 0.985 0.013 0.170 193 189 178
-4519.6353 3646.4446 2393.7358 0.987 0.019 0.159 214 210 199
-3837.8218 3609.3147 1898.8492 0.265 -0.698 -0.665 36 29 23
-3135.3689 3051.2048 1516.1650 0.801 -0.342 -0.492 146 51 34
-3283.9980 3238.6399 1580.1699 0.393 -0.812 -0.431 150 67 64
-3282.5208 3247.6772 1576.8669 0.397 -0.809 -0.432 176 107 103
-3277.4131 3252.8801 1571.8186 0.397 -0.809 -0.432 226 180 173
-3260.1868 3245.1450 1560.9780 0.157 -0.623 -0.766 217 194 182
-4396.6440 4546.6748 2082.5833 0.657 -0.551 -0.514 188 180 167
-4406.3970 4572.0972 2083.5725 0.687 -0.317 -0.654 189 179 167
-4388.1650 4566.9951 2071.3445 0.664 -0.545 -0.512 191 177 166
-3828.0769 4500.2808 1673.6704 0.247 -0.736 0.630 200 172 158
-3932.4053 5371.4336 1537.6577 0.742 -0.444 -0.502 183 148 120
-3928.5098 5384.9229 1531.4779 0.742 -0.444 -0.502 160 125 97
-3948.6128 5452.3955 1529.8302 -0.537 -0.654 -0.533 149 114 86
-3854.1804 5529.7607 1441.1018 0.018 -0.832 0.554 138 100 79
-3836.0081 5522.3979 1429.4711 0.018 -0.832 0.554 147 109 88
-3805.0474 5495.5981 1413.1425 -0.132 -0.838 0.530 157 116 94
-3649.4277 5436.0063 1312.6936 0.643 -0.171 -0.746 137 95 71
-3558.8428 5413.2739 1251.2982 0.503 -0.759 0.414 117 81 55
-3564.7217 5463.1196 1243.4490 0.642 -0.672 0.369 115 79 53
-3556.4202 5470.1255 1235.5989 -0.092 -0.926 0.366 121 85 61
-3484.6958 5538.6367 1165.8215 0.006 -0.495 -0.869 204 173 155
-3473.1270 5625.2231 1136.0868 0.351 -0.726 -0.592 206 173 158
-3403.4004 5812.8862 1038.6356 0.446 -0.596 -0.668 183 145 138
-3391.0610 5813.5225 1029.3591 0.424 -0.603 -0.676 178 139 132
-3357.5205 5775.9146 1013.7681 0.497 -0.608 0.619 174 134 128
-3192.7607 5746.6289 899.1488 0.670 -0.703 0.239 121 97 85
-3186.6597 5804.8691 880.3906 0.654 -0.417 0.631 61 39 26
-3140.3181 5809.9453 844.8948 -0.361 -0.617 0.700 78 56 43
-3101.9912 5782.6426 823.2446 0.397 -0.640 0.658 52 37 27
-2880.2314 5942.6001 620.1946 0.035 -0.708 -0.705 29 19 5
-2872.2097 5950.9312 612.2269 0.035 -0.708 -0.705 40 26 13
-2876.1445 5985.3882 606.7054 0.023 -0.718 -0.695 103 83 72
-2935.9956 6250.9678 585.9708 0.081 -0.918 -0.388 131 86 80
-2798.8789 6329.0981 465.5047 -0.251 -0.177 -0.952 110 65 59
-2894.1924 6960.4858 381.4872 0.052 -0.214 -0.975 67 47 36
-2124.0261 5624.8647 138.9707 0.326 -0.823 0.466 49 32 24
-1987.1960 5349.6899 105.1529 0.933 0.203 -0.296 56 37 30
-1856.5868 5328.2378 13.8599 0.240 -0.779 0.580 214 196 192
-1812.0215 5248.4727 0.4335 -0.320 -0.885 0.337 255 247 243
-1905.4852 5658.2114 -30.7246 0.528 0.109 -0.842 252 254 251
-3745.3572 2500.7788 2090.9023 0.584 -0.265 -0.767 195 186 171
-4449.1807 3437.6033 2378.9543 0.722 -0.683 0.110 208 204 192
-4423.5249 3448.2903 2357.3870 -0.346 -0.787 -0.510 194 190 178
-4473.7725 3577.4519 2362.5779 0.975 -0.207 0.084 40 36 25
-4473.0684 3587.9495 2359.4673 0.975 -0.205 0.084 75 71 61
-4504.8984 3626.3110 2373.4832 0.996 0.014 0.084 111 107 97
-4537.3394 3688.1846 2382.1458 -0.483 -0.851 0.206 111 108 101
-4456.8291 3629.9519 2337.1169 -0.514 -0.828 0.224 110 107 101
-4366.9507 3563.2144 2287.2759 -0.474 -0.848 0.238 110 107 100
-3214.9751 3037.3374 1567.1207 0.488 -0.714 0.502 77 35 20
-3196.0212 3027.8601 1555.4753 0.465 -0.713 0.525 80 31 19
-3174.0986 3015.2615 1542.4100 -0.297 -0.947 0.121 87 28 20
-3291.6697 3228.8533 1576.4335 0.427 -0.748 -0.508 150 52 47
-3283.7581 3231.0535 1570.0529 0.813 -0.452 -0.367 149 64 59
-3287.3091 3245.3875 1569.1345 0.313 -0.859 -0.406 179 106 102
-3281.6289 3249.9766 1563.8109 0.313 -0.859 -0.406 230 177 170
-3276.7959 3255.4729 1558.8881 0.289 -0.859 -0.422 218 191 179
-3264.4229 3252.9167 1550.3899 0.280 -0.852 -0.443 207 194 180
-4417.2485 4558.7881 2078.6331 0.687 -0.317 -0.654 183 172 159
-4415.5303 4571.7124 2074.1746 0.687 -0.317 -0.654 184 172 160
-4413.8066 4584.6792 2069.7021 0.687 -0.317 -0.654 194 179 167
-4277.4478 4961.4736 1876.0813 0.023 -0.375 0.927 192 164 149
-3489.8584 4098.7681 1507.9279 -0.007 -1.000 0.004 210 182 170
-3589.1638 4553.4995 1468.9497 0.040 -0.614 -0.789 178 142 118
-3563.9146 4535.4316 1454.7799 -0.110 -0.722 -0.683 180 146 121
-3791.0713 5137.5942 1473.7418 0.502 -0.518 0.692 197 158 133
-3793.4363 5159.1992 1470.1536 0.494 -0.538 0.683 198 160 134
-3960.8960 5494.9165 1510.8402 -0.547 -0.683 -0.485 187 153 134
-3912.4294 5443.9092 1487.6709 -0.594 -0.686 -0.420 187 155 136
-3673.7600 5459.1602 1307.8077 0.986 -0.148 -0.083 138 96 75
-3626.2671 5405.0200 1286.1304 0.989 -0.133 -0.070 142 100 79
-3685.4739 5517.8110 1301.9731 0.983 -0.168 -0.068 148 107 86
-3587.6353 5444.2173 1247.9508 0.506 -0.765 0.398 157 121 98
-3505.2900 5536.3198 1164.4585 0.040 -0.477 -0.878 186 155 137
-3391.3301 5470.7666 1096.5566 0.366 -0.627 -0.687 202 169 154
-3400.7534 5791.0869 1024.4393 0.379 -0.556 -0.740 180 140 133
-3186.7539 5672.2476 895.8784 0.695 -0.570 0.438 162 136 124
-3250.7239 5909.0508 884.6236 0.533 -0.722 0.441 82 58 45
-3143.5598 5798.2349 832.9089 -0.361 -0.617 0.700 78 54 41
-3111.9783 5760.5688 818.9046 -0.324 -0.683 0.655 51 28 15
-2954.4360 6056.8213 629.5356 0.978 -0.073 0.197 23 15 3
-2956.7510 6140.7676 610.5217 0.975 -0.080 0.210 104 83 72
-2957.9685 6170.0996 604.1796 0.974 -0.078 0.215 118 88 80
-2947.4810 6173.9443 595.4924 0.822 -0.431 0.372 121 87 79
-2725.5146 6543.3682 340.5273 0.818 -0.469 -0.332 69 48 36
-2757.0688 6653.9805 336.5046 -0.596 -0.803 0.028 69 48 36
-2417.8442 6052.6353 234.6535 0.095 -0.229 -0.969 50 33 23
-1825.1808 5294.7319 -15.5473 -0.347 -0.768 0.538 252 246 243
-1740.9708 5062.1865 -20.2771 -0.138 -0.909 0.393 255 251 247
-3752.5471 2501.0007 2085.3459 0.584 -0.265 -0.767 193 184 169
-3114.4695 2123.2715 1709.4677 0.395 -0.605 -0.691 204 202 190
-4420.1411 3406.7275 2351.4695 0.739 -0.673 -0.029 205 203 190
-4380.6128 3384.6819 2327.8472 0.699 -0.544 -0.465 205 203 190
-4443.7930 3458.0369 2356.1111 -0.346 -0.787 -0.510 186 184 171
-4456.6206 3555.5269 2341.2798 0.952 -0.169 0.255 27 24 17
-4453.9585 3564.2864 2337.1377 0.952 -0.169 0.255 28 25 18
-4460.6128 3592.1353 2335.1030 0.987 -0.148 0.060 28 25 18
-4461.5366 3604.0784 2332.8093 0.927 -0.259 0.272 27 25 20
-4458.1084 3623.5376 2325.4380 -0.471 -0.851 0.231 26 25 21
-4391.3296 3588.0686 2285.0884 0.236 -0.907 0.349 33 32 28
-4376.5645 3586.3669 2274.6375 0.278 -0.895 0.347 34 33 29
-4469.5601 3713.2888 2311.5205 0.984 -0.069 -0.167 34 35 29
-3215.1821 3011.1868 1562.5156 0.703 -0.578 0.415 44 23 14
-3291.6521 3221.5427 1566.4489 0.818 -0.445 -0.365 140 49 37
-3288.5117 3228.7566 1562.3395 0.813 -0.452 -0.367 143 54 41
-3286.2812 3236.9534 1558.6554 0.812 -0.449 -0.372 184 96 82
-3288.9685 3250.3921 1557.2877 0.313 -0.859 -0.406 236 163 150
-3281.5266 3253.1152 1551.1285 0.307 -0.853 -0.422 216 178 161
-4288.0977 4768.6411 1915.0458 0.903 0.110 -0.415 190 163 144
-4387.7402 4983.1030 1935.0236 0.949 0.120 -0.291 131 102 86
-3502.8882 4105.0376 1501.9989 0.061 -0.900 -0.432 217 188 183
-3601.3337 4574.2012 1457.6636 -0.128 -0.721 -0.681 180 146 119
-3785.9866 5340.6553 1402.7827 0.383 -0.911 -0.155 202 169 150
-3603.5173 5354.8955 1264.8464 0.993 -0.106 -0.050 195 158 141
-3614.2681 5391.4302 1263.6659 0.993 -0.113 -0.045 195 158 141
-3638.8616 5449.9185 1267.2131 0.228 -0.807 0.545 195 158 141
-3662.5400 5548.1597 1260.1864 0.788 -0.197 0.584 196 162 146
-3516.8440 5336.6997 1205.5426 0.720 -0.305 0.623 196 162 146
-3528.8840 5538.8721 1164.0608 -0.002 -0.594 -0.805 204 171 156
-3517.2747 5540.5786 1155.0854 0.100 -0.610 -0.786 204 171 156
-3549.3167 5700.1777 1138.9379 0.458 -0.838 -0.297 204 171 156
-3142.2244 5662.2212 848.5646 0.564 -0.558 0.609 97 62 45
-3146.4250 5809.4126 815.0015 -0.432 -0.622 0.654 88 54 37
-3248.3867 6055.8853 828.7150 -0.211 -0.618 0.758 77 52 37
-3117.6299 5896.6914 772.0578 -0.606 -0.774 -0.186 45 37 34
-3119.8696 5925.4971 766.5335 -0.610 -0.741 -0.282 35 30 30
-3043.1860 5796.7793 742.1116 -0.303 -0.664 -0.683 30 26 27
-2963.7498 6135.4751 599.2570 0.968 -0.089 0.234 94 66 60
-2961.0920 6156.2764 592.1193 0.969 -0.088 0.231 122 87 78
-2806.1685 5947.1196 530.1057 0.182 -0.884 -0.431 142 89 76
-2653.0679 6458.6196 289.9614 -0.644 -0.755 0.122 79 55 38
-2384.3167 5912.8882 227.9342 -0.252 -0.761 -0.598 73 48 32
-2471.8735 6231.4961 213.0737 0.594 0.067 -0.802 33 20 8
-2204.8093 5804.5225 122.7134 0.282 -0.835 0.473 65 39 32
-1961.7374 5426.7671 37.7662 0.640 -0.367 0.676 254 224 222
-1930.2688 5476.6523 2.1658 0.780 -0.516 0.354 249 231 234
-3370.7156 2233.4895 1861.0403 -0.046 -0.930 0.366 202 194 181
-3121.1331 2123.9436 1705.0736 0.395 -0.605 -0.691 204 202 190
-3117.9524 2128.2346 1701.6573 0.684 -0.664 0.302 208 206 194
-3114.0247 2131.9683 1697.8317 0.807 -0.570 0.151 204 202 190
-4392.0996 3387.2202 2322.0852 0.811 -0.440 -0.385 205 203 190
-4471.9839 3463.5942 2361.6267 0.335 -0.332 -0.882 204 202 189
-4455.8169 3460.9187 2350.4133 -0.425 -0.725 -0.542 188 186 173
-4415.0444 3437.7830 2326.2507 -0.436 -0.643 -0.630 152 150 137
-4438.8433 3522.2378 2322.5293 -0.272 -0.824 -0.497 31 28 21
-4422.0596 3540.7915 2305.5288 0.932 -0.227 -0.283 28 25 18
-4407.7173 3539.5200 2295.3040 0.991 -0.094 -0.091 28 25 18
-4406.9751 3549.8706 2292.1580 0.942 -0.237 -0.240 26 25 20
-4413.8687 3566.8191 2292.9680 0.873 -0.485 0.040 26 25 21
-4409.5513 3574.1753 2287.9456 0.873 -0.485 0.040 26 25 21
-3229.2581 3008.9209 1562.2288 0.546 -0.691 0.473 40 25 16
-3231.5754 3021.0039 1560.8969 0.480 -0.719 0.503 42 24 13
-3224.1418 3023.2839 1554.8589 0.468 -0.686 0.557 64 36 23
-3158.9175 3025.3884 1506.3785 -0.331 -0.888 -0.319 117 45 35
-3160.4231 3036.8152 1504.6146 0.365 -0.820 -0.441 135 57 45
-3241.4470 3161.6389 1532.8218 0.962 -0.217 -0.169 128 42 29
-3282.6919 3215.3438 1549.6517 0.855 -0.436 -0.282 131 45 30
-3287.3320 3230.7419 1549.1945 0.804 -0.448 -0.390 169 83 68
-3287.7368 3241.7297 1546.7316 0.655 -0.651 -0.385 217 144 131
-4293.9800 4764.3940 1903.9568 0.905 0.109 -0.411 190 163 144
-4305.0513 4793.1060 1904.8826 0.951 0.107 -0.291 188 161 144
-4332.0513 4840.6597 1912.7854 0.890 0.150 -0.430 185 158 141
-4343.7305 4870.4458 1913.8883 0.893 0.154 -0.422 186 157 141
-4304.0410 4937.1499 1867.9509 0.028 -0.372 0.928 137 110 101
-4082.1770 4878.4897 1719.5785 -0.569 -0.821 -0.047 208 179 175
-3658.8057 4591.6821 1480.3800 -0.318 -0.818 -0.480 172 136 104
-3727.3521 4714.8647 1499.8264 -0.251 -0.394 -0.884 178 142 116
-3278.4312 4480.3291 1228.7120 0.684 -0.530 0.502 209 173 153
-3544.9131 4882.7598 1323.5199 0.679 -0.713 0.172 207 172 152
-3656.7368 5135.9644 1342.1168 -0.008 -0.995 0.097 202 169 150
-3557.9861 5571.1489 1160.1842 0.097 -0.637 -0.765 164 131 116
-3568.9832 5610.2158 1158.4540 0.419 -0.580 -0.698 163 130 115
-3376.2478 5434.9717 1060.7861 0.567 -0.370 -0.736 203 170 155
-3200.4546 5686.1167 868.4503 -0.110 -0.768 0.630 118 76 60
-3144.5544 5626.7710 842.2632 0.317 -0.602 0.733 120 81 63
-3144.2407 5763.8340 807.5977 -0.202 -0.540 0.817 113 75 56
-3138.4358 5776.0537 800.2599 -0.432 -0.622 0.653 105 67 48
-3113.7595 5943.5869 740.0284 -0.502 -0.733 -0.460 22 18 16
-2947.5962 6054.0215 590.1236 0.844 -0.394 0.363 63 39 38
-2961.5566 6110.3311 586.2402 0.970 -0.095 0.222 100 70 66
-2808.7300 5932.6587 518.5223 0.225 -0.797 -0.561 147 94 78
-2288.0935 5952.3252 130.8197 -0.432 -0.879 -0.204 52 28 20
-2259.7708 5933.6313 114.6940 -0.511 -0.833 -0.213 66 39 32
-2100.9976 5606.1670 80.2373 -0.133 -0.889 0.437 62 35 28
-3796.3838 2522.7131 2090.4243 0.698 -0.423 -0.577 193 184 169
-4397.6206 3384.8452 2313.1594 0.811 -0.440 -0.385 205 203 190
-4418.3477 3476.1680 2305.2266 -0.416 -0.752 -0.512 44 41 32
-4467.6328 3528.3496 2328.1707 -0.272 -0.824 -0.497 30 27 20
-4456.4370 3529.8313 2319.5789 -0.272 -0.824 -0.497 25 22 15
-4456.9800 3541.2188 2317.0913 0.850 -0.400 -0.343 32 29 22
-4377.5513 3539.2478 2259.3020 0.857 -0.417 -0.304 26 25 21
-4397.6973 3567.6282 2266.8936 0.989 -0.133 -0.072 26 25 21
-4382.8936 3576.9844 2253.6589 0.977 -0.146 -0.157 22 21 17
-3255.1946 3028.2407 1565.1566 0.909 -0.274 0.314 37 26 16
-3265.6899 3048.5906 1567.7015 0.922 -0.250 0.296 38 25 15
-3258.7529 3051.4626 1561.8829 0.919 -0.247 0.308 61 36 22
-3253.5295 3056.0632 1556.8839 0.914 -0.254 0.317 84 42 26
-3204.7820 3036.1309 1526.1616 -0.319 -0.875 0.364 138 53 53
-3172.1497 3032.2285 1503.2031 -0.305 -0.896 -0.323 126 62 51
-3283.9814 3209.4434 1540.3607 0.856 -0.444 -0.263 132 56 44
-3284.5544 3220.5215 1537.9739 0.849 -0.460 -0.262 164 86 73
-3281.7146 3228.0405 1533.9841 0.849 -0.460 -0.262 208 142 129
-3232.4927 3196.8850 1505.7579 0.360 -0.827 -0.432 188 171 155
-4364.1387 4931.7632 1896.5607 0.963 0.104 -0.249 190 161 145
-4314.8364 4922.0708 1862.8362 -0.019 -0.414 0.910 182 154 143
-3656.1626 4592.6094 1462.9587 -0.295 -0.832 -0.469 179 142 112
-3220.3120 4261.8267 1226.9363 0.055 -0.445 -0.894 190 149 127
-3529.0059 5307.1167 1188.5702 0.950 -0.312 0.032 207 173 161
-3494.8394 5331.5850 1157.2961 0.566 -0.768 -0.298 209 175 163
-3468.6904 5309.4194 1143.7239 0.272 -0.847 -0.457 209 175 163
-3470.6494 5332.3872 1139.3409 0.272 -0.833 -0.481 221 188 173
-3301.7883 5458.7510 983.3976 -0.576 -0.813 0.088 201 161 151
-3153.7551 5626.9487 832.1372 0.155 -0.614 0.774 163 125 106
-3146.7441 5636.3354 824.6133 0.570 -0.549 0.612 152 114 95
-3143.3557 5652.5874 818.0079 0.595 -0.494 0.634 123 85 66
-3171.6143 5751.9712 813.5593 0.719 -0.104 0.687 96 58 39
-3143.0100 5743.7583 794.6493 -0.202 -0.540 0.817 91 53 34
-2943.7400 5974.3140 589.9854 0.896 -0.168 0.411 31 16 19
-2929.6277 5969.7710 580.7803 0.867 -0.196 0.457 40 20 22
-2927.6863 5991.2627 573.9091 0.931 -0.263 0.253 69 45 45
-2935.7302 6034.4053 568.8787 0.928 -0.289 0.237 106 77 73
-2658.2131 5754.9292 436.0476 0.704 -0.372 -0.605 152 99 81
-2068.7937 5025.7749 188.2851 0.733 -0.652 0.196 87 60 41
-2312.3276 5936.1084 136.3025 0.175 -0.947 0.269 31 17 8
-2296.6809 5922.9727 128.1489 0.330 -0.912 0.242 34 18 10
-2280.6345 5967.6938 105.0397 0.002 -0.979 0.205 66 39 32
-1930.4670 5263.5312 26.5200 0.654 -0.520 0.550 255 229 226
-1901.2350 5232.9272 12.8238 0.348 -0.758 0.551 247 219 216
-2893.7405 1963.5627 1561.2496 0.733 -0.590 -0.338 194 192 180
-4487.5962 3494.4756 2337.4749 -0.382 -0.852 -0.359 120 118 105
-4477.4780 3496.8545 2329.4551 -0.417 -0.825 -0.381 92 90 78
-4450.0767 3484.8076 2312.4619 -0.444 -0.836 -0.322 43 41 29
-4479.6606 3531.2056 2322.2732 -0.443 -0.800 -0.406 25 22 15
-4475.9761 3539.0254 2317.5752 -0.293 -0.843 -0.451 23 20 13
-4383.3594 3471.8286 2266.9072 -0.410 -0.759 -0.506 26 23 16
-4377.2920 3477.4497 2261.0256 -0.266 -0.692 -0.671 27 24 17
-3298.8501 3045.5059 1581.4448 -0.642 -0.755 -0.130 28 33 19
-3245.8357 3012.1707 1551.1310 0.961 -0.244 -0.129 38 25 16
-3250.4187 3055.9954 1543.2859 0.947 -0.278 0.160 114 47 38
-3235.8074 3070.8918 1528.7750 -0.412 -0.848 0.333 141 65 60
-3212.1929 3056.6611 1515.1143 -0.422 -0.840 0.341 133 71 60
-3182.7981 3036.3779 1498.7664 0.172 -0.951 -0.256 126 72 59
-3223.9053 3129.0918 1505.1796 0.955 -0.168 -0.246 153 90 79
-3241.3235 3157.5408 1510.6671 0.971 -0.228 -0.077 151 87 76
-3265.9001 3193.6614 1519.4373 -0.031 -0.953 -0.300 170 105 95
-3505.2390 3653.6228 1577.1876 -0.237 -0.621 0.747 211 183 158
-4207.1597 4765.9961 1807.0275 0.181 -0.392 0.902 187 159 145
-4224.0737 4802.0640 1810.1984 -0.074 -0.470 0.880 185 157 146
-3886.3140 4579.1919 1619.7482 0.027 -0.530 -0.848 210 181 177
-3778.1086 4726.0547 1502.9442 -0.082 -0.465 0.881 185 149 117
-3489.1177 5307.7871 1142.5502 0.602 -0.701 -0.381 213 179 167
-3484.1516 5339.3799 1130.8368 0.652 -0.740 -0.166 211 178 163
-3411.6812 5484.4990 1040.6554 0.661 -0.407 -0.630 182 149 134
-3452.1008 5595.0659 1042.0017 -0.302 -0.415 -0.858 206 170 156
-3383.5352 5563.0610 999.9561 -0.624 -0.764 0.163 215 175 165
-3345.9160 5519.3687 983.5673 -0.632 -0.758 0.159 205 165 155
-3312.7153 5525.4766 957.6855 -0.532 -0.750 -0.394 205 165 154
-3142.9189 5589.7070 816.8860 0.636 -0.148 0.758 154 116 97
-2928.1597 5946.9893 568.2418 0.867 -0.196 0.457 44 25 27
-2925.1511 5966.0605 561.1630 0.931 -0.263 0.254 74 50 51
-2427.6646 6015.5356 184.0922 -0.256 -0.627 -0.736 87 62 46
-2311.2776 5939.3862 118.2999 0.305 -0.933 0.190 34 18 10
-2291.1987 5914.1714 110.0369 0.107 -0.868 0.486 51 27 20
-2340.0305 6137.8564 88.6307 -0.083 -0.649 0.757 71 44 37
-1861.4094 5148.6270 -9.1129 0.798 -0.423 0.429 239 218 220
-1868.9829 5280.9810 -37.3966 0.962 0.049 0.267 255 241 245
-1745.7041 5842.3789 -271.2035 -0.370 -0.892 0.261 253 249 246
-4511.8135 3507.3843 2337.9353 -0.367 -0.847 -0.385 117 115 102
-4516.9370 3522.4580 2337.7959 -0.452 -0.892 0.004 89 87 75
-4485.8643 3507.4675 2318.9397 -0.451 -0.892 0.002 69 67 55
-4499.5010 3529.6824 2323.1838 -0.454 -0.821 -0.347 43 40 31
-4510.0396 3549.4075 2325.8047 -0.448 -0.801 -0.396 25 22 15
-4456.7490 3515.6282 2295.5464 0.366 -0.929 0.048 24 21 14
-4415.3477 3491.6357 2271.4587 -0.251 -0.701 -0.667 26 23 16
-4396.7832 3486.7629 2259.1406 -0.266 -0.692 -0.671 25 22 15
-3298.2563 3047.9941 1569.0046 -0.636 -0.762 -0.120 34 22 14
-3277.9612 3037.5698 1556.8521 -0.122 -0.980 -0.157 38 20 13
-3185.0188 3041.7183 1487.8225 0.103 -0.991 0.087 116 70 58
-3175.6089 3051.8091 1478.3403 0.334 -0.859 -0.388 176 126 117
-3169.4084 3065.2781 1470.3342 0.907 -0.315 -0.279 185 134 125
-3247.1631 3156.5315 1503.6637 0.970 -0.228 -0.080 208 156 150
-3276.7666 3197.8533 1514.6571 -0.021 -0.957 -0.290 193 143 136
-3267.0935 3198.1104 1507.5177 -0.023 -0.952 -0.305 206 161 151
-3400.0525 3540.2778 1516.5271 -0.234 -0.618 0.750 214 186 165
-3328.8740 3472.5681 1481.9365 -0.225 -0.622 0.750 209 182 163
-3613.4277 4287.8228 1479.8302 -0.431 -0.798 0.422 185 150 136
-3440.4829 5538.3774 1030.9761 -0.125 -0.981 0.146 208 172 158
-3384.9585 5486.2686 1003.8101 0.692 -0.362 -0.624 208 170 159
-3112.9854 5628.7012 768.2216 0.390 -0.530 0.753 132 94 75
-3084.9304 5620.5991 749.7963 -0.181 -0.546 0.818 95 57 38
-2927.2532 5925.5322 555.8892 0.869 -0.195 0.455 47 27 29
-2533.0940 6482.8696 123.9943 -0.022 -0.990 0.138 31 17 8
-2319.2456 5996.6729 92.9691 -0.029 -0.913 -0.408 70 45 38
-1997.5615 5385.5894 15.2897 0.358 -0.870 0.340 250 220 218
-1913.9589 5281.3091 -18.9575 0.747 -0.380 0.546 232 211 213
-1757.1212 5854.8003 -281.4857 -0.378 -0.890 0.254 255 251 248
-4244.7373 2856.0051 2298.3818 0.560 -0.665 -0.495 204 198 186
-4417.9976 3465.2441 2266.4473 -0.255 -0.966 -0.035 29 26 19
-4451.2505 3514.6497 2277.8730 0.772 -0.117 -0.625 26 23 16
-3234.5720 2902.4189 1549.0098 0.051 -0.514 0.856 36 33 28
-3191.8311 3041.9041 1481.5491 0.109 -0.991 0.075 105 69 58
-3178.6238 3038.1895 1472.8752 0.933 -0.351 -0.085 102 65 57
-3182.4199 3051.9973 1472.0560 0.334 -0.859 -0.388 146 107 101
-2810.3667 2693.9631 1293.5842 0.949 -0.175 0.261 213 174 169
-3355.4824 3552.2996 1468.2993 -0.222 -0.639 0.737 196 168 148
-3681.8889 4204.4468 1536.9883 0.024 -0.441 0.897 212 187 180
-3952.6709 4623.6865 1625.6309 0.041 -0.533 -0.845 206 177 173
-3932.0583 4613.7798 1613.1617 0.032 -0.520 -0.854 204 175 171
-3764.8145 4685.2969 1472.4993 -0.431 -0.710 0.557 196 160 128
-3343.0000 4263.3472 1274.3248 0.834 -0.552 0.015 186 152 127
-3202.1521 4145.0498 1202.2777 0.449 -0.689 -0.569 184 154 128
-3168.0593 4127.1567 1182.0459 0.322 -0.811 -0.489 187 153 128
-3205.6401 5369.1392 886.5752 0.818 -0.282 0.501 199 157 143
-3232.2017 5436.9385 888.3350 0.932 -0.194 0.306 199 157 143
-3086.1406 5260.4126 827.6218 0.789 0.070 -0.610 194 152 138
-3114.8052 5438.7578 802.1760 -0.016 -0.907 0.420 187 145 129
-3101.4177 5479.0391 781.9319 -0.398 -0.880 -0.258 182 144 125
-2926.9502 5855.5093 556.7130 0.860 -0.191 0.474 24 18 15
-2929.0691 5884.8799 550.6236 0.868 -0.186 0.460 21 5 8
-2551.2825 5678.7432 328.4755 -0.241 -0.683 0.689 142 91 70
-2525.1416 5642.9531 318.7008 -0.242 -0.728 0.642 142 91 70
-2500.6624 5610.7295 309.2113 -0.531 -0.838 0.125 142 91 70
-2339.3977 5998.3154 90.7390 -0.029 -0.913 -0.408 50 26 19
-2344.6716 6072.1865 75.3827 0.077 -0.922 -0.380 62 35 28
-2314.2976 6019.1382 67.0051 0.159 -0.806 0.570 59 32 25
-1928.3680 5329.1855 -35.3000 0.055 -0.843 -0.536 248 228 230
-1920.3822 5333.5186 -42.2554 0.009 -0.872 -0.489 248 227 232
-1907.5707 5323.5391 -49.0117 -0.032 -0.826 -0.563 254 235 240
-4248.7217 2853.2515 2289.8240 0.529 -0.683 -0.504 203 197 185
-4511.9346 3503.9775 2310.9890 0.224 -0.966 0.126 97 95 83
-4505.6294 3509.5520 2304.9338 -0.126 -0.961 0.245 83 81 69
-4470.2241 3490.9363 2284.0195 -0.087 -0.931 0.356 65 62 53
-4440.1597 3476.6384 2265.8638 -0.077 -0.940 0.333 35 32 25
-4451.9692 3497.2524 2269.0637 0.544 -0.839 0.007 24 21 14
-4458.7305 3513.7261 2269.6707 0.771 -0.119 -0.626 25 22 15
-4492.2637 3552.7930 2283.8596 0.756 -0.157 -0.635 25 22 15
-3358.1013 2920.8804 1623.2190 0.816 -0.461 -0.348 36 35 31
-3181.0239 2844.2729 1514.2910 0.091 -0.497 0.863 43 38 32
-3126.3674 2800.3879 1485.9757 0.083 -0.506 0.858 43 38 33
-3047.6084 2741.5808 1444.0122 0.066 -0.509 0.858 55 42 34
-2979.1514 2692.0938 1407.1110 0.394 -0.512 0.763 74 43 34
-2948.5488 2670.6663 1390.4327 0.025 -0.561 0.827 79 41 35
-2812.7620 2620.8523 1304.5631 0.850 -0.289 0.440 120 57 52
-2810.5508 2627.1707 1301.2955 0.122 -0.722 0.682 114 68 55
-3209.4741 3063.0972 1477.6492 -0.385 -0.879 -0.282 174 144 140
-3190.5098 3053.4973 1466.3491 0.107 -0.881 -0.460 188 158 154
-3578.3193 4083.2600 1478.9185 0.079 -0.443 0.893 205 180 175
-3551.3328 4064.2424 1464.2428 0.051 -0.443 0.895 206 181 176
-3422.3313 3960.7627 1397.3864 0.077 -0.415 0.907 200 171 165
-3665.6648 4317.7373 1481.0817 -0.467 -0.772 0.431 186 157 151
-3605.8750 4257.6743 1453.2679 -0.483 -0.770 0.416 187 150 135
-3423.3796 4112.8501 1358.2770 -0.591 -0.769 0.244 186 145 125
-3380.2363 4071.7856 1337.6104 -0.588 -0.788 0.185 187 146 122
-3204.1904 5350.9800 873.9803 0.818 -0.282 0.501 199 157 143
-3053.0671 5165.5518 812.4913 0.910 -0.279 -0.306 194 152 138
-3184.8958 5617.0571 790.1649 -0.232 -0.890 -0.394 188 150 132
-3102.5029 5552.4263 747.0809 0.173 -0.847 -0.502 169 131 112
-3094.5281 5559.6641 739.3730 0.170 -0.851 -0.497 162 124 105
-3053.3579 5685.2725 676.4470 -0.407 -0.630 -0.661 20 16 18
-2915.2151 5811.9126 542.5994 0.774 -0.387 0.501 24 17 14
-2936.0608 5880.3887 539.8342 0.055 -0.918 0.392 28 11 13
-2912.3787 5855.4277 529.1244 0.861 -0.213 0.462 45 25 26
-2674.9849 5614.6982 419.2803 -0.089 -0.820 0.565 130 77 61
-2487.7095 6044.7256 170.0969 -0.192 -0.816 -0.545 104 77 58
-2490.3137 6080.2319 162.6855 -0.214 -0.854 -0.475 104 77 58
-2308.2825 5891.3413 79.5859 0.151 -0.951 0.269 57 31 24
-2299.8354 5897.5420 71.8059 0.186 -0.942 0.279 57 30 23
-2320.9929 6043.7168 48.8974 0.950 -0.236 0.205 153 124 118
-1952.5419 5349.9712 -37.6621 -0.148 -0.673 -0.724 232 211 213
-1945.0406 5355.8618 -44.6715 -0.148 -0.673 -0.724 247 227 229
-1916.8170 5356.6240 -65.4341 -0.016 -0.840 -0.543 254 233 238
-1904.8143 5434.6284 -94.6294 0.926 -0.189 0.328 251 241 245
-1913.0477 5518.1187 -110.5196 0.940 -0.148 0.307 251 242 245
-1784.7461 5896.0435 -303.0771 0.255 -0.916 0.310 246 242 241
-1761.6948 5849.5151 -307.6730 -0.395 -0.857 0.331 252 243 244
-4255.8608 2852.7805 2282.9675 0.529 -0.683 -0.504 201 195 183
-4252.6787 2859.2212 2278.9507 0.538 -0.689 -0.485 197 191 179
-4506.7979 3492.6074 2296.3188 0.525 -0.851 0.030 103 101 89
-4511.8794 3507.5732 2296.0579 -0.110 -0.964 0.240 85 84 72
-4475.8105 3488.4507 2274.8823 -0.098 -0.911 0.401 71 69 60
-4445.2065 3473.7375 2256.5151 -0.077 -0.940 0.333 41 39 31
-4462.6533 3499.0220 2262.5190 0.741 -0.123 -0.660 23 20 13
-4469.0454 3515.1733 2262.8982 0.750 -0.117 -0.651 22 20 13
-4515.4209 3564.9648 2283.4619 0.765 -0.141 -0.628 24 22 15
-3409.7681 2953.5837 1641.0034 0.926 -0.343 -0.157 37 36 32
-3331.0757 2898.4731 1598.3435 0.958 -0.255 -0.132 35 34 30
-2954.8296 2628.1599 1396.1792 0.623 -0.211 -0.753 50 41 35
-2972.6526 2679.7793 1395.4951 0.394 -0.512 0.763 98 44 37
-2943.0107 2659.3135 1379.3484 -0.109 -0.660 0.743 109 43 40
-2815.9519 2601.1909 1302.3104 0.962 -0.268 0.051 173 101 95
-2765.4126 2609.3076 1263.4104 0.940 -0.181 0.289 229 205 201
-2818.4451 2681.3591 1282.9308 0.906 -0.217 0.363 213 189 187
-2721.1025 2658.1755 1218.2677 0.048 -0.610 -0.791 166 166 164
-3187.9299 5306.9927 857.5377 0.874 -0.281 0.397 199 157 143
-3044.2183 5134.6802 798.5759 0.926 -0.234 -0.297 194 152 138
-3143.1123 5567.1631 756.1670 0.409 -0.541 0.735 182 143 127
-3110.9700 5573.7227 731.0577 0.187 -0.845 -0.502 156 117 101
-3011.1865 5429.4229 696.6371 0.974 0.213 -0.078 147 109 92
-3080.5229 5674.2559 682.3389 -0.447 -0.833 -0.325 25 9 4
-3091.1121 5717.8926 678.5042 -0.390 -0.855 -0.343 22 10 8
-3116.2048 5813.7305 671.4174 -0.322 -0.941 -0.107 18 11 12
-3178.7007 6134.3315 632.1149 0.813 0.015 -0.583 22 16 11
-2979.4868 5902.2109 548.5999 -0.344 -0.672 -0.656 25 18 13
-2913.8767 5939.8271 490.9413 0.498 -0.844 -0.202 149 107 96
-2662.8384 5520.8179 419.1422 0.390 -0.396 0.831 138 85 69
-2319.7888 5987.0571 46.4086 0.947 -0.224 0.230 143 113 104
-2164.7446 5649.1182 22.9893 -0.335 -0.772 0.540 199 169 161
-2006.6825 5400.9951 -26.3680 -0.040 -0.867 0.497 235 204 202
-1954.7556 5389.9414 -61.2094 -0.105 -0.743 -0.661 204 183 187
-1946.9508 5395.1079 -68.2512 -0.105 -0.743 -0.661 245 222 228
-1902.1587 5375.0713 -95.5292 0.910 -0.240 0.339 247 230 233
-1726.4764 5731.7622 -317.5862 -0.195 -0.788 0.584 253 246 246
-3828.4124 2523.4553 2048.2769 0.556 -0.173 -0.813 188 178 166
-4265.2988 2845.2471 2279.6550 0.550 -0.671 -0.497 183 175 162
-4262.8276 2852.1824 2276.0125 0.530 -0.678 -0.508 199 191 178
-4518.9487 3506.2725 2287.5989 -0.110 -0.964 0.240 85 86 75
-4496.6133 3498.5713 2273.4375 -0.077 -0.958 0.276 70 71 63
