ply
format ascii 1.0
element vertex 804
property float x
property float y
property float z
property float nx
property float ny
property float nz
property uchar diffuse_red
property uchar diffuse_green
property uchar diffuse_blue
end_header
-2237.1938 3480.8225 201.6080 0.429 -0.782 0.452 49 44 48
-2213.6777 3480.8699 190.9975 0.425 -0.792 0.439 210 194 193
-2088.9001 5304.3120 -299.5942 0.738 -0.005 0.674 213 183 181
-1769.6259 5197.8828 -418.1447 0.999 0.001 -0.051 248 229 236
-1781.2341 5275.0752 -431.3004 0.987 -0.155 -0.049 248 229 236
-3287.7410 1972.1017 1026.3160 0.299 -0.872 0.388 74 65 56
-3256.8318 1977.5427 1011.1359 0.539 -0.780 0.317 69 62 52
-3485.6624 2871.1917 899.7054 0.679 -0.627 -0.383 147 103 83
-3489.9568 2884.4883 898.4467 0.645 -0.651 -0.401 151 105 93
-3495.0857 2898.4832 897.3955 0.797 -0.591 -0.127 149 106 94
-3520.0051 2927.8538 901.5441 0.568 -0.812 0.132 147 107 94
-3556.1116 2966.0928 908.5898 0.255 -0.629 -0.734 143 108 94
-3527.7798 2985.2332 891.2837 0.837 -0.192 -0.513 119 104 86
-3512.0542 3014.2808 877.2626 0.626 -0.324 -0.710 79 72 61
-3347.2629 3215.8264 754.9815 -0.085 -0.983 -0.163 143 87 87
-3326.8235 3208.2659 747.6173 0.350 -0.915 0.202 149 92 92
-2610.5007 2567.6187 579.5626 0.877 -0.433 -0.206 154 96 97
-2610.2834 2575.9658 577.4647 0.867 -0.447 -0.219 161 103 103
-2572.3086 2566.7053 562.6356 0.830 -0.428 -0.358 168 112 106
-2531.0806 2587.8877 539.0504 0.901 0.172 -0.399 177 124 110
-2533.8633 2599.1055 537.6114 0.901 0.172 -0.399 160 109 93
-2536.9385 2610.6494 536.2255 0.710 -0.123 -0.694 136 85 70
-2427.8826 2694.7393 467.1141 0.774 -0.395 0.494 115 44 14
-2427.0085 2702.7126 464.8109 0.771 -0.411 0.487 115 45 16
-2422.4282 2715.7671 459.6262 0.815 -0.366 0.450 113 45 17
-2388.9158 2707.2742 446.6164 0.502 -0.464 -0.730 116 48 20
-2422.3147 2760.6958 448.8081 0.302 -0.527 -0.794 124 48 17
-2419.3069 2766.5815 446.0472 0.302 -0.527 -0.794 125 48 17
-2406.8865 2771.4795 439.2975 0.266 -0.638 -0.723 125 48 17
-2312.9104 2723.3354 408.6457 0.668 -0.010 -0.744 124 50 14
-2325.0527 2745.6914 408.7393 0.653 -0.051 -0.755 125 50 14
-2288.7593 2786.6389 382.6327 0.243 -0.966 0.087 149 69 47
-2282.0371 2788.1016 379.2645 0.440 -0.898 0.000 138 58 35
-2726.3455 3397.4482 432.7026 0.313 -0.082 -0.946 214 152 124
-2729.2605 3412.2769 430.4576 0.313 -0.082 -0.946 241 180 152
-2732.1926 3427.1914 428.1998 0.313 -0.082 -0.946 226 170 145
-2738.1436 3445.7825 426.4160 0.230 -0.161 -0.960 221 181 167
-2734.8521 3453.3713 423.1196 0.249 -0.156 -0.956 219 182 170
-2224.1812 3263.8560 239.2770 -0.007 -0.832 -0.554 22 20 21
-2219.0066 3322.6394 222.8666 0.463 -0.878 0.125 18 18 20
-2212.7312 3473.4314 183.9123 0.470 -0.644 0.604 218 204 206
-2096.7812 5333.4165 -313.8840 0.608 -0.033 -0.793 221 190 188
-1891.3748 5494.7856 -444.7706 0.629 -0.154 0.762 246 218 225
-1890.8297 5538.6104 -455.5177 0.973 0.212 0.092 247 218 225
-1902.4260 5595.4043 -463.9224 0.973 0.212 0.092 251 222 229
-1676.0245 5207.9458 -472.7089 0.814 -0.560 0.153 242 199 208
-512.4297 357.3124 166.4474 0.111 -0.851 0.513 74 63 46
-3310.8516 1988.5785 1024.5065 0.518 -0.855 -0.019 74 65 56
-3302.3250 1991.4205 1020.0085 0.741 -0.672 -0.019 74 65 56
-3232.5000 1983.1232 990.7859 0.616 -0.716 0.329 57 53 42
-3181.4570 1998.8301 964.1749 0.132 -0.877 0.462 38 35 28
-3789.8208 2776.9465 1048.6140 -0.248 -0.968 -0.044 91 45 24
-3769.8022 2773.2886 1040.5444 -0.247 -0.968 -0.042 96 49 29
-3758.2161 2805.1462 1027.6830 -0.115 -0.790 -0.603 113 65 45
-3656.7571 2894.1040 960.8677 -0.208 -0.978 0.027 121 70 43
-3586.1843 2892.4390 929.7118 0.087 -0.990 0.112 119 74 53
-3552.0225 2886.9316 915.7637 -0.295 -0.955 0.024 126 81 60
-3490.0989 2879.9854 889.7487 0.656 -0.646 -0.390 147 100 89
-3498.0850 2896.1560 889.4211 0.797 -0.591 -0.127 144 101 90
-3526.6531 2928.3040 894.4451 0.541 -0.838 0.066 142 102 90
-3560.7327 2964.9248 900.8552 0.184 -0.652 -0.736 138 104 92
-3537.7217 2988.2805 884.9347 0.835 -0.175 -0.521 107 95 77
-3295.4844 3207.2747 723.8184 0.483 -0.770 0.418 159 104 102
-3280.2869 3204.2275 717.7574 0.948 0.041 -0.317 163 108 104
-2614.8677 2601.8943 565.4255 0.483 -0.524 -0.701 163 108 103
-2520.5078 2565.3264 532.0478 0.983 -0.154 0.098 165 110 104
-2537.9165 2590.2812 533.8158 0.877 0.112 -0.467 164 112 102
-2539.3184 2600.1921 532.0533 0.905 0.169 -0.390 161 111 100
-2340.9380 2669.7795 426.5685 0.765 -0.104 0.635 130 52 20
-2366.8313 2715.0742 427.2270 0.818 -0.228 0.529 131 52 19
-2402.6353 2762.4841 431.8069 0.900 -0.120 0.419 132 52 19
-2417.3755 2787.4834 432.3711 0.914 -0.035 0.404 133 53 20
-2366.4075 2759.5591 416.3125 0.693 -0.647 -0.319 132 53 20
-2336.2583 2762.7063 402.0722 0.457 -0.769 -0.447 132 54 18
-2763.6035 3424.3987 433.6360 0.917 -0.276 0.290 206 149 121
-2753.1033 3423.4602 429.1670 0.893 -0.323 0.312 201 144 118
-2749.3801 3430.5054 425.8036 0.893 -0.323 0.312 235 179 153
-2741.0283 3432.0530 421.6959 0.285 -0.858 0.427 235 182 159
-2735.2878 3436.6873 418.0117 0.288 -0.878 0.383 220 181 168
-2739.8894 3453.7056 415.9664 0.255 -0.951 0.173 218 182 170
-2714.6401 3457.9399 403.6550 0.114 -0.960 0.256 227 193 183
-2699.6614 3462.8640 395.7700 0.064 -0.847 0.528 216 182 172
-2266.6787 3500.7705 193.0186 0.258 -0.847 0.465 44 39 45
-2241.8323 3475.7249 187.9465 0.425 -0.661 0.618 42 39 46
-2212.4749 3467.0498 176.9105 0.470 -0.644 0.604 216 202 205
-2108.8560 5352.2773 -323.9348 0.608 -0.033 -0.793 222 191 189
-2111.7017 5380.3228 -329.4238 0.626 0.026 -0.780 223 192 190
-2128.8794 5466.0732 -342.4162 0.619 -0.018 -0.785 221 190 188
-2084.2832 5395.0229 -345.2283 0.492 -0.341 -0.801 223 192 190
-2077.7595 5399.4814 -349.2203 0.460 -0.403 -0.791 223 192 190
-1819.7699 5385.7842 -461.2806 0.949 0.159 -0.273 246 215 221
-1914.9963 5760.9067 -509.1378 0.758 0.261 0.597 246 211 218
-1744.2598 5360.8579 -489.0363 0.689 -0.391 0.611 247 210 218
-2037.2711 1077.3209 670.0538 -0.391 -0.881 -0.267 59 56 49
-3247.7817 1973.6027 991.8168 0.661 -0.688 0.298 78 71 61
-3238.5793 1975.9303 987.1537 0.620 -0.715 0.323 70 66 55
-3173.6384 1991.2671 954.5104 0.152 -0.870 0.469 39 36 29
-3748.2219 2724.7939 1032.5157 0.071 -0.797 -0.600 78 40 19
-3836.8416 2916.4626 1025.4996 0.909 -0.153 0.388 119 61 39
-3703.1604 2892.7842 971.7030 0.651 0.053 -0.757 103 52 25
-3277.6377 2996.6162 756.9998 0.805 0.032 -0.592 42 34 21
-3319.6768 3191.5149 728.4540 0.968 0.198 -0.154 137 81 80
-3313.4495 3207.6155 721.7756 0.584 -0.642 0.497 148 92 91
-3295.7830 3202.3965 715.1730 0.483 -0.770 0.418 153 97 96
-2761.5044 3382.2483 433.5945 0.826 -0.237 0.511 214 162 138
-2758.6079 3390.1809 430.3806 0.835 -0.235 0.497 214 162 137
-2754.8787 3397.1541 427.0285 0.965 -0.194 0.179 213 161 136
-2751.7317 3404.8196 423.7677 0.966 -0.194 0.173 182 130 106
-2712.7798 3404.1951 406.5707 0.266 -0.763 0.590 219 182 168
-2714.5447 3429.1218 401.3112 0.448 -0.723 0.526 216 182 172
-2708.2913 3444.5466 394.7850 0.337 -0.693 0.637 218 184 174
-2719.4797 3469.6528 393.6791 0.008 -0.699 0.715 211 177 167
-2703.6101 3461.9421 388.4811 0.005 -0.696 0.718 220 186 176
-2221.5742 3303.9421 212.1108 0.664 -0.682 0.307 13 13 15
-2214.3940 3463.9438 170.1072 0.400 -0.797 0.453 212 199 201
-2204.1619 3460.2717 166.4406 0.422 -0.806 0.415 217 191 188
-2162.2527 5538.7935 -356.3345 0.677 0.011 -0.736 222 191 189
-2132.5068 5484.9209 -356.5170 0.456 -0.351 -0.818 223 192 190
-1993.0848 5211.5581 -352.3136 0.603 -0.179 -0.777 223 192 190
-1991.5576 5228.1172 -357.0099 0.609 -0.189 -0.770 222 191 189
-1998.7120 5267.3745 -363.3448 0.739 -0.098 -0.666 222 191 189
-1879.9514 5392.6138 -446.6133 0.329 -0.607 0.723 206 174 177
-1852.3267 5379.5542 -455.7495 0.389 -0.465 0.795 226 193 202
-1800.0090 5250.1797 -447.6734 0.174 -0.942 -0.287 227 194 201
-1793.3715 5252.4751 -451.1863 0.174 -0.942 -0.287 232 199 206
-1776.3842 5224.5044 -451.9684 0.229 -0.973 0.003 234 201 208
-1906.1570 5793.3008 -532.1215 0.923 0.151 -0.354 237 204 211
-1767.8900 5443.1484 -508.7798 0.826 -0.564 -0.020 243 201 211
-1900.6201 1040.9927 613.6459 -0.246 -0.967 -0.062 48 45 36
-3164.0420 1989.9943 942.5767 -0.036 -0.855 0.518 38 35 30
-3160.6140 1995.3469 939.7501 -0.043 -0.794 0.606 39 36 31
-3757.6887 2687.9023 1035.6511 -0.084 -0.820 0.566 72 34 13
-3776.9290 2819.0156 1012.1981 -0.109 -0.801 -0.589 112 65 45
-3833.6428 2899.1848 1017.7975 0.940 0.001 0.341 119 61 39
-3815.2454 2896.5474 1010.2797 0.696 -0.112 0.709 119 61 39
-3268.3169 2983.8875 746.3500 0.830 -0.090 -0.550 47 32 21
-3266.9678 2992.9233 743.5469 0.785 -0.144 -0.603 48 32 21
-3301.4353 3053.4968 744.0587 0.241 -0.970 0.022 100 61 56
-3299.2864 3062.0535 741.0177 0.542 -0.754 -0.371 107 64 61
-3294.7244 3068.5247 737.4152 0.556 -0.750 -0.359 112 67 64
-3308.5515 3091.0911 738.0435 0.531 -0.722 0.444 123 78 75
-3194.3008 3021.7168 704.2865 0.644 -0.519 -0.562 128 76 75
-3314.2720 3181.5212 718.5184 0.884 -0.018 -0.466 134 76 75
-3294.4180 3196.0115 706.1759 0.428 -0.839 0.337 148 92 91
-3296.5686 3219.7493 701.3386 0.917 -0.001 -0.400 151 96 93
-3085.5181 3119.1174 632.2666 -0.105 -0.495 -0.863 143 93 82
-3080.3508 3124.7136 628.6091 -0.102 -0.491 -0.865 138 88 77
-2408.1316 2908.7173 383.1057 0.321 0.199 -0.926 191 122 96
-2754.2866 3379.5862 421.7826 0.962 -0.233 0.141 215 168 148
-2752.3250 3388.5913 418.7154 0.962 -0.230 0.146 211 165 144
-2748.1772 3395.0562 415.2982 0.966 -0.232 0.111 149 103 82
-2704.3887 3434.1467 386.3362 0.205 -0.591 0.781 213 179 169
-2432.3440 3286.0000 301.7993 0.631 -0.720 0.290 61 22 11
-2238.6160 3267.4285 220.3912 -0.239 -0.946 -0.220 22 20 21
-2247.6135 3472.3281 174.3925 0.355 -0.935 -0.029 30 27 34
-2212.1953 3466.3572 160.1375 0.371 -0.928 -0.026 217 191 188
-1902.9075 5006.9346 -352.9251 0.354 -0.636 0.686 222 191 189
-2002.7281 5287.1650 -377.0129 0.414 -0.602 0.683 221 190 188
-1892.3447 5393.5557 -451.9361 0.229 -0.654 0.721 213 181 182
-1879.4818 5379.0342 -454.0993 0.334 -0.607 0.721 213 181 184
-1872.2341 5380.3438 -457.6339 0.611 -0.212 0.762 216 184 189
-1745.9535 5340.7788 -504.0001 0.730 -0.318 0.605 235 198 206
-3226.5522 1984.9247 963.4761 0.837 -0.488 0.247 67 63 52
-3745.4897 2723.9233 1011.3983 -0.245 -0.707 -0.663 72 31 11
-3733.3376 2784.4187 991.1827 -0.036 -0.988 0.147 108 61 41
-3809.9016 2877.8823 1002.0738 0.696 -0.112 0.709 126 68 46
-3804.8894 2884.5984 998.2111 0.696 -0.112 0.709 125 67 45
-3514.9993 2855.2212 877.3381 -0.235 -0.829 -0.508 124 79 58
-3296.9268 3065.5364 729.3726 0.566 -0.789 -0.242 101 57 54
-3291.3806 3081.6160 722.9760 0.825 -0.556 0.098 102 63 58
-3317.4229 3200.9290 705.2011 0.446 -0.647 0.618 147 91 90
-3301.8542 3197.6501 699.1271 0.449 -0.794 0.410 141 85 84
-2757.4871 3377.7629 414.4064 0.958 -0.246 0.146 198 158 142
-2752.4329 3383.1560 410.8497 0.962 -0.230 0.146 149 110 93
-2709.5085 3389.1123 390.4226 0.218 -0.763 0.609 226 191 179
-2697.4363 3420.1025 377.4833 0.206 -0.575 0.792 212 178 168
-2723.1499 3462.6299 378.4076 0.122 -0.590 0.798 211 177 167
-2710.5576 3458.9341 373.7509 0.122 -0.590 0.798 219 185 175
-2696.9031 3453.8760 368.9593 0.125 -0.589 0.798 182 145 135
-2684.5164 3450.2883 364.3668 0.125 -0.589 0.798 67 28 14
-2440.1582 3290.5562 295.6023 0.716 -0.643 0.272 56 17 6
-2496.2859 3396.2793 294.4553 0.035 -0.866 -0.499 13 4 1
-2246.3469 3261.7532 217.0390 -0.242 -0.948 -0.208 9 7 8
-2248.9031 3276.1956 214.6241 -0.251 -0.893 -0.374 11 9 10
-2252.9309 3474.2109 167.8079 0.422 -0.863 -0.278 35 32 39
-2223.5208 3465.6382 156.9174 0.398 -0.909 -0.123 207 194 196
-2216.6111 3466.9949 153.5316 0.366 -0.930 -0.036 215 189 186
-1900.9819 5110.5269 -389.2690 0.864 0.139 -0.484 231 197 196
-1903.5061 5137.5659 -394.7896 0.886 0.112 -0.450 232 196 196
-1901.4508 5385.1333 -456.4542 0.276 -0.660 0.698 227 195 196
-1878.0005 5362.6421 -461.2956 0.607 -0.208 0.767 227 195 198
-1871.7832 5366.8350 -465.0716 0.607 -0.208 0.767 228 196 201
-1865.5718 5371.0239 -468.8440 0.607 -0.208 0.767 229 196 203
-1777.6753 5204.2964 -466.7622 0.209 -0.977 -0.031 219 186 193
-1763.4849 5248.8013 -483.9540 0.765 0.257 0.590 229 194 201
-3221.7485 1979.1154 954.7333 0.844 -0.477 0.246 67 63 52
-3218.5300 1984.6487 951.9510 0.837 -0.490 0.243 67 63 52
-3214.6343 1989.8136 948.9617 0.837 -0.490 0.243 67 63 52
-3074.7463 1955.0760 895.9781 -0.069 -0.945 0.321 33 30 25
-3787.0405 2631.2395 1042.5150 0.885 -0.248 -0.393 29 19 10
-3861.2710 2698.0833 1058.6801 0.997 -0.004 -0.078 22 12 3
-3698.3782 2746.0989 975.1451 0.189 -0.966 0.177 98 51 31
-3685.6384 2747.1099 969.2892 0.185 -0.966 0.181 101 54 34
-3790.8320 2859.9138 987.7344 0.789 -0.068 0.610 121 63 41
-3773.4258 2857.8684 980.5796 0.805 -0.059 0.591 121 63 41
-3315.1296 3045.1572 732.6702 0.323 -0.934 0.155 85 36 34
-3296.6548 3049.9971 723.3455 0.323 -0.934 0.155 91 41 40
-3345.2490 3145.1919 721.2305 0.992 0.106 0.068 71 37 31
-3322.3789 3189.4275 700.2466 0.394 -0.609 0.688 107 51 50
-3309.3850 3188.5193 694.7528 0.407 -0.611 0.680 127 71 70
-3304.2073 3194.6582 690.9589 0.441 -0.637 0.632 133 77 76
-3306.4150 3207.5298 688.7531 0.664 -0.688 0.294 136 81 78
-3307.0068 3218.9717 686.1890 0.930 -0.016 -0.368 131 76 73
-2786.0400 3394.0027 413.7267 0.965 -0.148 0.218 208 172 160
-2711.8357 3386.2983 382.9745 0.227 -0.757 0.612 200 166 154
-2702.8037 3386.8628 378.8606 0.218 -0.770 0.600 209 175 165
-2693.0415 3397.8274 371.8580 0.640 -0.543 0.543 214 180 170
-2375.4902 3181.2153 285.5887 0.734 -0.397 -0.552 63 23 13
-2476.7456 3343.0024 290.2092 0.367 -0.896 -0.252 46 10 2
-2502.7839 3399.0181 287.8399 -0.017 -0.936 -0.353 13 4 1
-2525.1477 3439.3967 287.7136 0.160 -0.965 -0.207 10 5 1
-2252.1443 3264.2651 210.8084 -0.240 -0.949 -0.205 9 7 8
-2238.1636 3493.2417 148.1323 0.112 -0.325 -0.939 215 189 186
-2240.9814 3509.2749 145.4146 0.198 -0.124 -0.972 216 188 185
-1964.4779 5416.8750 -447.1606 -0.227 -0.725 -0.651 232 198 197
-1956.8274 5417.6860 -450.7274 -0.227 -0.725 -0.651 231 198 197
-1891.5704 5280.9551 -445.6917 -0.210 -0.802 -0.559 228 198 198
-1903.3804 5335.0913 -453.8583 0.222 -0.187 -0.957 228 198 198
-1911.2323 5378.5894 -461.1407 0.193 -0.217 -0.957 228 198 198
-1886.4669 5331.0103 -460.2938 -0.116 -0.657 -0.745 229 199 199
-1882.2812 5340.8770 -464.5714 -0.121 -0.665 -0.737 229 199 199
-1873.8636 5382.4458 -478.5370 -0.175 -0.709 -0.683 230 199 205
-1813.8942 5254.2017 -473.2695 -0.013 -0.958 -0.287 231 198 205
-1804.2532 5247.9009 -475.9568 -0.006 -0.959 -0.283 225 192 199
-3093.8779 1969.8799 892.9412 0.493 0.117 -0.862 33 30 25
-3790.5376 2591.3757 1043.9635 0.283 -0.851 0.443 32 26 21
-3844.2314 2663.4221 1049.6082 0.847 -0.366 -0.386 29 19 10
-3848.6555 2675.9143 1048.4453 0.605 0.004 -0.796 26 16 7
-3771.2795 2781.6438 988.2809 -0.060 -0.998 0.032 100 55 34
-3728.7363 2821.9587 959.6251 0.873 -0.008 0.487 114 56 36
-3715.7031 2832.8127 951.2178 -0.191 -0.976 -0.101 112 55 35
-3696.2761 2930.4822 918.4527 0.137 -0.914 -0.382 104 56 35
-3685.0813 2932.5024 913.0446 0.140 -0.886 -0.443 104 57 37
-3680.0286 2939.0498 909.2045 0.300 -0.426 -0.854 103 56 36
-3680.0530 2949.3831 906.6494 0.296 -0.134 -0.946 104 57 37
-3689.7236 2966.9653 906.5223 0.289 -0.127 -0.949 113 66 46
-3543.8708 2989.8960 836.9040 0.535 -0.287 0.795 24 20 9
-3317.1252 3042.0059 724.5865 0.321 -0.933 0.164 91 36 36
-3308.8308 3045.2539 720.1448 0.323 -0.934 0.155 90 32 34
-3339.1379 3156.1833 705.8849 0.520 -0.614 0.594 63 9 7
-3316.3457 3178.8838 690.2592 0.407 -0.611 0.680 79 23 22
-3305.9788 3180.3301 685.3564 0.407 -0.611 0.680 98 44 42
-3302.6833 3188.1536 681.9696 0.455 -0.618 0.641 120 66 64
-3302.2864 3198.6267 679.1952 0.628 -0.726 0.280 123 68 65
-3311.1794 3217.6179 678.3775 0.932 -0.030 -0.361 118 63 60
-3312.7861 3252.0002 670.5448 0.759 0.144 -0.635 106 51 48
-3317.1851 3267.1196 668.7188 0.759 0.144 -0.635 109 54 51
-3303.8630 3321.5710 649.3600 0.805 -0.131 0.579 102 52 41
-3305.1333 3334.0381 646.8214 0.802 -0.130 0.583 91 41 30
-2786.8848 3389.4175 405.9310 0.966 -0.151 0.208 184 151 142
-2787.3049 3401.2302 403.1822 0.966 -0.156 0.204 155 124 116
-2692.0769 3391.0798 363.9655 0.640 -0.543 0.543 209 175 165
-2489.1724 3353.3687 284.3992 0.324 -0.919 -0.223 46 10 2
-2509.2031 3401.6382 281.1934 -0.017 -0.936 -0.353 13 4 1
-2531.5322 3441.9250 280.9769 0.145 -0.967 -0.208 10 5 1
-2262.2258 3338.8560 188.5354 0.958 -0.199 0.206 16 16 18
-2259.7366 3346.5212 185.5412 0.971 -0.182 0.152 22 22 24
-2265.5002 3388.5229 177.6386 0.710 -0.705 0.005 41 41 43
-2260.1506 3531.9299 139.6872 0.212 -0.082 -0.974 216 188 185
-1917.0952 5361.1523 -464.8500 0.365 -0.068 -0.928 229 197 198
-1929.8672 5418.3784 -473.4610 0.369 -0.069 -0.927 229 197 198
-1974.4434 5610.3062 -501.5782 0.385 -0.051 -0.922 229 197 200
-1801.1031 5226.8491 -482.3410 0.168 -0.985 -0.036 230 197 204
-1788.9307 5213.0649 -484.2535 0.168 -0.986 -0.018 231 198 205
-1802.8728 5452.4419 -537.5782 0.879 0.203 -0.431 228 193 200
-3790.4910 2780.2971 986.8384 0.092 -0.990 0.103 120 77 58
-3637.2627 2995.2932 866.2615 -0.144 -0.974 0.176 102 68 52
-3615.1646 2988.7175 858.2575 -0.098 -0.971 0.218 60 32 16
-3561.5588 2988.6250 834.8812 0.835 -0.133 0.534 28 20 8
-3187.7480 2828.4753 711.7025 0.269 -0.339 -0.901 34 24 15
-3285.1545 2999.5420 711.5011 0.999 -0.048 -0.019 69 27 24
-3297.4871 3020.3369 711.6913 0.187 -0.885 0.426 93 36 37
-3297.0115 3061.3440 701.2430 0.683 -0.516 0.517 54 15 9
-3306.0334 3111.2292 692.7233 0.837 -0.441 -0.324 62 15 11
-3309.5793 3124.9612 690.8419 0.867 -0.392 -0.307 65 14 11
-3321.5576 3167.6963 685.3983 0.448 -0.614 0.650 63 11 8
-3311.9355 3169.8276 680.6659 0.452 -0.603 0.658 57 5 3
-3305.4502 3174.7576 676.6039 0.290 -0.834 0.470 76 24 22
-3299.9775 3180.5942 672.7573 0.455 -0.618 0.641 111 59 56
-3299.7354 3191.1807 670.0079 0.611 -0.739 0.284 111 60 55
-3294.8789 3197.5913 666.2870 0.620 -0.730 0.288 106 55 50
-3315.9028 3260.6836 659.7082 0.851 0.140 -0.506 94 43 39
-2377.8767 2622.4792 409.6275 0.987 -0.039 0.159 97 32 5
-2307.6313 2696.1511 360.5665 -0.181 -0.924 -0.337 184 107 75
-2279.3225 2673.9929 353.7429 0.366 -0.845 0.389 194 117 85
-2277.7585 2681.0261 351.3038 0.337 -0.881 0.332 207 130 98
-2316.4622 2732.4824 355.3482 0.752 -0.033 -0.659 205 131 98
-2742.1421 3377.0396 380.1973 0.364 -0.792 0.490 127 98 92
-2709.2766 3372.1592 367.0699 0.196 -0.775 0.601 136 103 91
-2690.9182 3372.8630 358.8805 0.281 -0.800 0.530 217 183 173
-2691.1155 3384.3530 356.0972 0.640 -0.543 0.543 207 173 163
-2281.9907 3316.3809 194.4841 -0.012 -0.678 -0.735 16 14 15
-2279.1270 3334.6001 188.6842 0.814 -0.366 0.452 28 26 27
-2256.0984 3346.8918 175.5622 0.865 -0.330 0.379 28 28 30
-2258.3943 3372.6335 170.1360 0.778 -0.628 -0.005 41 41 43
-2277.1794 3491.9553 148.5378 0.011 -0.365 -0.931 32 29 36
-2270.9319 3518.1460 139.2700 0.215 -0.084 -0.973 146 134 136
-2280.2839 3567.9626 130.9116 0.214 -0.069 -0.974 215 189 185
-2285.3408 3587.6526 128.2018 0.211 -0.072 -0.975 215 188 185
-3161.8728 1994.6554 900.6885 0.620 -0.677 -0.395 50 46 36
-3848.0112 2647.5920 1034.9846 0.741 -0.580 -0.338 44 33 14
-3892.7917 2724.8269 1035.0537 0.639 -0.665 -0.385 92 78 59
-3676.0027 2746.7310 935.3052 0.410 -0.478 -0.777 83 45 28
-3687.2615 2945.2878 890.3289 0.525 -0.041 -0.850 106 47 26
-3580.0554 2998.2864 830.4106 0.731 -0.325 0.600 28 15 0
-3525.3250 2965.8066 814.7749 -0.246 -0.969 0.033 25 15 0
-3497.2031 2953.9644 805.5236 -0.243 -0.970 0.024 25 14 1
-3229.8062 2888.0164 705.8393 0.054 -0.984 0.173 80 50 39
-3220.7395 2890.3008 701.3239 0.130 -0.991 0.035 80 50 39
-3216.3850 2896.5107 697.8710 0.124 -0.990 0.066 47 16 6
-3276.0420 2987.0022 701.0779 1.000 -0.015 0.019 70 36 26
-3283.3606 3003.4468 700.1292 0.569 -0.783 0.251 76 37 27
-3288.2290 3028.1594 696.0386 0.996 -0.067 -0.066 62 23 13
-3316.0413 3115.0671 686.3015 0.845 -0.424 -0.327 70 29 23
-3308.8599 3119.3276 682.1093 0.824 -0.475 -0.310 67 25 19
-3327.4534 3167.8926 677.9948 0.290 -0.834 0.470 53 10 5
-3316.5293 3168.8718 672.9996 0.290 -0.834 0.470 50 8 2
-3305.6443 3169.8472 668.0225 0.290 -0.834 0.470 65 23 17
-3297.2815 3173.0630 663.5792 0.455 -0.618 0.641 90 47 41
-3295.5896 3182.3066 660.5219 0.466 -0.601 0.649 104 63 56
-3291.0212 3188.9543 656.8662 0.454 -0.604 0.656 104 63 56
-3308.5459 3237.6631 652.2509 0.865 0.152 -0.478 91 50 43
-3275.0547 3283.6777 626.1335 0.868 0.025 0.497 106 66 57
-3281.1804 3311.7773 621.7389 0.598 -0.173 0.783 106 66 57
-3259.2776 3324.4465 609.0349 0.361 -0.501 0.787 101 58 44
-3250.2632 3360.8315 595.9772 0.641 0.025 0.767 105 64 48
-2375.6384 2624.6309 400.6516 0.962 -0.030 -0.272 82 29 7
-2808.1013 3425.5027 387.5082 0.923 -0.266 0.277 126 91 78
-2725.0293 3362.7234 367.1615 0.269 -0.762 0.589 122 87 73
-2684.3584 3370.7349 347.4680 0.610 -0.579 0.541 206 170 158
-2512.0420 3371.4358 272.3790 -0.023 -1.000 -0.004 32 9 1
-2286.0706 3327.5166 185.1712 -0.067 -0.728 -0.682 17 17 15
-2284.7542 3347.9680 179.4621 0.787 -0.323 0.526 19 19 19
-2283.0513 3356.7832 176.5077 0.797 -0.324 0.511 23 22 27
-2275.3193 3357.1370 173.0574 0.804 -0.308 0.508 29 28 33
-2293.4321 3581.4934 124.5809 0.172 -0.147 -0.974 198 183 178
-2294.5447 3595.2849 121.6006 0.169 -0.166 -0.971 203 183 180
-3162.4104 1991.7727 893.7051 0.718 -0.578 -0.389 55 51 40
-3899.9558 2725.0308 1027.8171 0.649 -0.656 -0.385 104 87 68
-3504.6660 2955.1091 798.5498 -0.248 -0.969 0.005 34 18 3
-3465.1602 2944.3447 784.1641 -0.121 -0.966 -0.229 32 17 1
-3327.1448 2894.1345 737.0908 -0.036 -0.990 0.135 34 17 1
-3236.5588 2889.0400 699.1566 0.054 -0.984 0.170 69 39 28
-3225.0237 2889.2832 694.1009 0.134 -0.990 0.045 69 39 28
-3216.4197 2891.9380 689.7050 0.133 -0.990 0.054 47 17 6
-3305.7300 3017.7449 696.5945 0.808 -0.541 0.232 73 37 25
-3301.6909 3034.9016 690.5118 0.994 -0.050 -0.097 67 31 19
-3301.4399 3045.0339 687.8437 0.994 -0.050 -0.097 64 28 16
-3304.1079 3057.7241 685.7933 0.997 -0.045 -0.059 74 38 26
-3318.9551 3123.2473 675.6703 0.848 -0.439 -0.295 80 39 33
-3327.5891 3162.9424 669.3815 0.788 -0.552 -0.272 62 21 15
-3324.2891 3170.7468 665.9811 0.787 -0.545 -0.288 56 15 9
-3313.2710 3182.4058 658.2656 0.581 -0.789 0.202 87 46 40
-3306.0300 3186.6626 654.0552 0.581 -0.789 0.202 102 63 56
-3298.7988 3190.9136 649.8505 0.581 -0.789 0.202 102 63 56
-3249.4641 3309.6704 598.4917 0.611 -0.158 0.776 109 67 54
-2740.3440 3352.7080 367.1863 0.435 -0.461 0.773 123 87 73
-2731.8552 3354.0061 363.1831 0.435 -0.461 0.773 123 87 71
-2686.7920 3356.9031 342.9402 0.280 -0.790 0.545 178 142 130
-2683.5815 3364.2739 339.6882 0.610 -0.579 0.541 195 159 147
-2239.2844 3334.0527 154.9548 0.475 -0.866 0.154 40 39 44
-2292.2200 3501.9961 135.4513 0.242 -0.108 -0.964 38 38 46
-2310.3789 3612.8281 115.3170 0.188 -0.171 -0.967 215 195 194
-3249.0171 2120.1941 890.4893 0.387 0.152 -0.909 35 28 20
-3903.4351 2722.8577 1019.5753 0.606 -0.705 -0.368 120 98 79
-3908.9731 2736.2947 1018.5497 0.032 -0.999 0.023 100 71 53
-3796.0498 2790.4854 956.0906 -0.140 -0.837 -0.528 78 50 36
-3772.5950 2784.4507 947.5099 -0.151 -0.828 -0.540 78 49 35
-3697.7078 2772.4465 918.2679 -0.092 -0.719 -0.689 81 45 29
-3675.4578 2806.2017 900.0987 -0.074 -0.905 -0.419 84 45 27
-3560.9463 2973.8362 808.1355 0.761 -0.608 -0.228 46 24 4
-3228.1978 2887.3376 686.6279 0.054 -0.984 0.170 55 25 14
-3216.1389 2887.1106 681.4858 0.054 -0.984 0.170 49 19 8
-3217.8486 2898.3899 679.3577 0.862 -0.328 -0.387 51 21 10
-3315.2739 3157.6140 655.5146 0.339 -0.634 -0.695 65 26 19
-3318.9832 3171.6750 653.5421 0.357 -0.645 -0.676 68 29 22
-3312.2378 3176.3799 649.4382 0.369 -0.643 -0.671 84 45 38
-3228.5952 3175.3379 613.6362 0.713 -0.421 -0.560 89 50 43
-3229.8809 3263.4844 591.7980 0.639 -0.090 0.764 118 80 71
-3224.4924 3269.3640 587.9808 0.639 -0.090 0.764 116 78 68
-3209.5793 3277.1365 579.5757 0.436 -0.375 0.818 105 65 53
-3146.7930 3271.2747 553.9913 0.599 -0.800 0.012 94 52 40
-2720.2512 3346.1450 351.0461 0.293 -0.753 0.589 123 87 71
-2677.3127 3351.3064 331.2198 0.615 -0.547 0.567 181 145 133
-2282.2327 3333.1650 165.4694 -0.146 -0.981 0.129 19 19 19
-2233.9707 3309.8057 150.5929 0.648 -0.761 -0.001 39 38 43
-2314.5015 3540.4163 126.7339 0.264 -0.022 -0.964 38 39 44
-2306.9785 3601.4983 107.9728 0.103 -0.576 -0.811 218 198 197
-3127.7175 1958.9109 871.3331 0.947 0.006 -0.320 67 63 52
-3132.7021 1968.8406 870.9370 0.948 -0.003 -0.319 66 62 51
-3134.7871 1977.1873 869.7000 0.944 -0.003 -0.330 66 62 51
-3333.2151 2197.6333 898.5934 0.280 -0.001 -0.960 37 28 21
-3825.4417 2630.0852 999.4918 0.997 0.062 -0.049 113 88 70
-3897.5547 2695.0938 1013.8516 0.986 -0.076 -0.147 119 96 78
-3909.2175 2722.1621 1011.9447 0.615 -0.702 -0.360 134 106 90
-3788.7268 2722.0208 960.2382 0.091 -0.944 -0.316 62 30 13
-3815.5017 2759.4570 962.1722 0.327 -0.921 -0.213 56 28 14
-3832.0562 2780.4453 963.9194 -0.196 -0.911 -0.362 69 41 27
-3840.2102 2795.8955 963.4738 -0.141 -0.832 -0.536 79 51 37
-3838.8262 2804.9731 960.5604 -0.124 -0.728 -0.674 78 50 36
-3692.4502 2803.7698 898.0091 -0.211 -0.975 0.074 77 41 25
-3500.8362 2963.0935 775.0209 0.851 -0.129 0.510 39 13 0
-3298.7527 2901.4819 703.9796 -0.086 -0.882 0.464 42 14 2
-3275.1951 2892.0540 696.2718 -0.099 -0.894 0.437 42 14 2
-3201.7502 2851.0442 675.2091 0.879 0.027 -0.476 44 14 3
-3321.8455 3158.4270 648.2538 0.335 -0.677 -0.655 72 33 26
-3325.0413 3172.0254 646.1522 0.301 -0.822 -0.483 70 31 24
-3320.6003 3178.8140 642.5109 0.369 -0.643 -0.671 83 44 37
-3232.9985 3174.3167 606.0406 0.716 -0.420 -0.558 89 50 43
-3235.9941 3253.0586 587.2107 0.370 -0.362 0.856 128 90 81
-3221.8772 3250.6406 581.7662 0.636 -0.095 0.766 130 92 83
-3216.4136 3256.4099 577.9460 0.636 -0.095 0.766 131 93 83
-3210.9514 3262.1772 574.1269 0.636 -0.095 0.766 82 42 31
-3186.0259 3282.2285 558.3005 0.386 -0.901 -0.197 87 47 35
-3178.7830 3286.2339 554.1669 0.386 -0.901 -0.197 87 47 35
-2473.4282 2896.4956 350.8321 0.790 -0.610 -0.060 202 143 125
-2529.8274 2968.2480 356.7209 0.677 -0.736 -0.026 204 147 128
-2607.1489 3063.6445 365.5541 0.999 0.038 0.015 187 138 120
-2277.9055 3321.5322 158.2827 -0.181 -0.968 0.176 19 19 19
-2341.4443 3597.9043 114.9627 0.089 -0.682 -0.726 46 46 46
-2331.9900 3596.0781 111.3692 0.014 -0.851 -0.525 44 40 36
-2309.5803 3599.1746 100.9548 -0.227 -0.897 -0.379 206 187 185
-3871.9956 2664.8210 1000.4626 0.982 -0.093 -0.166 140 109 92
-3895.7493 2699.3452 1001.7517 0.993 -0.019 -0.116 142 111 95
-3904.3801 2714.6597 1001.5085 0.902 -0.144 0.407 142 110 95
-3909.3630 2737.5752 997.7523 0.192 -0.963 0.187 109 76 59
-3896.3145 2739.0203 991.8007 0.192 -0.963 0.187 90 57 40
-3853.2246 2770.2056 965.3609 0.256 -0.948 -0.189 63 33 19
-3853.8113 2780.5449 962.9555 0.205 -0.970 -0.130 66 38 24
-3853.0688 2790.0256 960.2023 0.162 -0.969 -0.185 73 45 31
-3847.2083 2796.0923 956.1375 0.440 -0.631 -0.639 78 50 36
-3850.3574 2808.2319 954.3654 -0.071 -0.702 -0.709 78 50 36
-3706.9011 2799.4944 895.2589 0.570 -0.776 0.272 72 36 20
-3691.0498 2798.2937 888.7883 0.553 -0.790 0.267 72 36 20
-3453.9985 2861.5669 771.1543 0.610 -0.483 0.629 92 39 17
-3581.8862 2980.5767 795.2730 0.841 -0.529 -0.111 65 29 14
-3369.2427 2904.2661 723.9373 0.991 -0.023 -0.132 51 15 6
-3338.5637 2899.4702 712.0491 -0.019 -0.973 0.230 63 27 17
-3299.4656 2887.5627 698.3873 -0.038 -0.831 0.555 60 24 15
-3266.0750 2879.9771 686.0560 -0.111 -0.907 0.407 48 13 3
-3310.3118 3017.4919 669.6462 0.570 -0.257 0.781 72 36 24
-3325.7651 3178.3623 634.9263 0.301 -0.822 -0.483 82 43 36
-3321.5640 3185.3760 631.3278 0.373 -0.653 -0.660 86 47 40
-3248.4258 3130.0767 614.2559 0.261 -0.813 0.521 92 53 46
-3242.3013 3135.1260 610.3394 0.260 -0.815 0.517 100 61 54
-3230.3267 3134.8401 605.2917 0.847 -0.192 -0.496 107 68 61
-3227.0203 3217.5801 582.6212 0.616 -0.310 0.724 86 48 39
-3202.7896 3227.3228 569.7555 0.655 -0.208 0.726 137 99 90
-3202.7793 3238.2056 566.9553 0.648 -0.214 0.731 133 95 85
-3170.4731 3218.2705 558.2605 0.967 0.230 -0.108 90 50 39
-3194.4373 3263.0647 557.0012 0.604 -0.776 0.183 79 39 27
-3186.1855 3277.1077 549.8645 0.295 -0.907 -0.299 72 32 20
-2890.2778 3428.2664 384.4813 0.505 0.251 -0.826 155 108 90
-2849.6763 3405.2085 373.0410 0.720 -0.595 -0.357 155 108 91
-2829.8716 3394.0537 367.4370 0.643 -0.530 -0.554 147 109 91
-2841.4797 3418.6348 366.0864 0.648 -0.638 -0.416 141 106 87
-2835.3706 3423.0525 362.3387 0.687 -0.559 -0.464 134 98 82
-2255.7314 3285.1765 149.8684 -0.126 -0.807 0.576 17 17 17
-2350.7129 3605.3521 108.2334 0.353 -0.640 -0.682 45 45 45
-2351.7466 3619.0493 105.1565 -0.178 -0.928 -0.326 57 53 49
-2316.9092 3603.9036 94.1487 -0.227 -0.897 -0.379 195 175 174
-3915.4202 2737.0522 990.1556 0.157 -0.975 0.159 113 80 63
-3805.3628 2695.0647 954.1293 0.151 -0.948 0.279 64 31 14
-3879.8105 2783.3567 963.0272 0.707 -0.173 -0.685 63 33 19
-3887.7644 2798.6516 962.4636 0.138 -0.982 -0.131 67 38 24
-3867.8464 2805.4270 952.2301 0.162 -0.973 -0.166 78 50 36
-3562.3796 2950.4712 784.6613 0.900 -0.431 -0.072 94 37 20
-3357.8337 2890.5115 713.0353 0.985 0.099 0.144 55 13 6
-3360.1819 2902.3335 710.9813 0.985 0.089 0.149 62 20 13
-3333.8718 2891.0762 702.6841 0.018 -0.814 0.581 66 24 17
-3315.9724 2886.5002 696.2429 0.014 -0.825 0.566 68 26 19
-3343.3696 3114.1233 649.1071 0.195 -0.315 -0.929 111 72 65
-3319.3865 3167.5645 625.0867 0.322 -0.770 0.551 87 48 41
-3319.7200 3178.6218 622.3723 0.660 -0.406 -0.632 87 48 41
-3238.2549 3115.8982 603.8803 0.219 -0.854 0.472 89 50 43
-3228.2498 3117.3899 599.2338 0.233 -0.846 0.480 93 54 47
-3217.4138 3118.0923 594.4374 0.868 -0.154 -0.473 96 57 50
-3232.0500 3141.9973 594.4952 0.865 -0.126 -0.485 100 61 54
-3222.8003 3165.4619 584.4940 0.898 -0.139 -0.417 116 77 70
-2353.3899 2658.3953 345.2083 0.848 0.047 -0.528 84 30 6
-2879.0088 3432.8374 368.9997 0.718 -0.517 0.467 150 104 88
-2848.5422 3409.7144 361.9975 0.603 -0.566 -0.562 142 104 86
-2857.2227 3430.9900 360.1982 0.678 -0.602 -0.423 136 101 82
-2861.2695 3447.0771 357.7657 0.807 -0.562 -0.181 129 93 77
-2524.3352 3359.1362 236.9844 0.644 -0.266 -0.717 27 8 1
-2345.8242 3604.1069 97.6708 0.055 -0.885 -0.462 53 49 45
-2315.5750 3607.8569 83.8189 0.057 -0.865 -0.499 211 185 186
-2376.0339 3723.3105 79.7421 -0.073 -0.571 -0.818 217 182 185
-1757.2351 5081.6348 -534.7134 0.947 0.314 0.065 231 195 195
-3869.0176 2702.7766 969.0629 0.201 -0.743 0.638 120 87 70
-3901.7744 2803.4414 956.8062 0.702 0.183 -0.689 67 38 24
-3898.5464 2811.3628 953.3795 0.139 -0.980 -0.144 73 45 31
-3722.3484 2781.5071 886.4035 0.717 -0.673 0.182 80 44 28
-3742.3018 2805.2178 888.7071 0.638 -0.760 0.122 74 38 22
-3491.3381 2911.1575 754.7447 0.643 -0.041 0.765 82 36 28
-3355.9319 2884.3975 704.2658 0.985 0.099 0.144 59 11 6
-3335.7644 2888.0076 694.7742 0.020 -0.821 0.571 70 23 17
-3269.0247 2873.2554 670.2999 0.001 -0.829 0.559 55 10 3
-3258.4170 2933.7446 650.0874 0.863 0.505 -0.010 69 39 28
-3269.9861 2953.4927 649.8642 0.863 0.505 -0.010 75 43 32
-3275.5754 2988.5491 643.1282 0.582 -0.249 0.774 111 75 63
-3269.7366 3003.9226 636.6581 0.714 -0.464 0.525 113 77 65
-3250.9136 2997.9250 630.2326 0.882 -0.348 -0.319 113 77 65
-3284.9775 3037.5774 634.3798 0.441 -0.190 -0.877 113 77 65
-3241.4746 3113.8250 596.1216 0.217 -0.853 0.475 87 48 41
-3214.3657 3099.8599 588.2516 0.638 -0.605 -0.478 83 44 37
-3221.7085 3117.0120 586.9102 0.868 -0.154 -0.473 80 41 34
-3197.3120 3201.0100 554.7426 0.401 -0.362 0.841 89 51 42
-2359.4683 2695.5955 330.6772 0.899 -0.045 -0.436 139 83 60
-2868.2046 3449.3604 350.6424 0.809 -0.559 -0.181 122 86 70
-2591.0520 3303.4402 270.9985 -0.036 -0.926 0.376 71 25 10
-2534.9070 3344.6313 236.4851 0.612 -0.319 -0.724 59 28 15
-2534.1724 3354.8354 233.5229 0.610 -0.342 -0.715 45 19 7
-2270.8538 3317.0596 131.6536 -0.251 -0.868 0.427 27 26 31
-2345.2798 3585.0317 93.6084 0.169 -0.783 -0.599 40 40 40
-2346.6140 3599.0808 90.5248 0.146 -0.804 -0.577 46 43 39
-2328.0984 3608.1340 80.3199 0.165 -0.794 -0.585 188 168 167
-3875.5623 2771.5808 943.6763 0.687 0.181 -0.704 63 33 18
-3904.3052 2810.6614 945.6085 0.501 -0.223 -0.836 74 44 30
-3895.7090 2815.0105 940.8418 0.497 -0.226 -0.838 79 50 36
-3757.9556 2742.4595 901.6094 0.257 -0.785 -0.563 79 50 36
-3751.2146 2747.6897 897.3961 0.257 -0.785 -0.563 80 50 36
-3727.2043 2780.3958 878.7120 0.704 -0.698 0.136 80 44 28
-3716.5759 2852.5864 855.3664 0.182 -0.961 -0.210 71 41 13
-3534.3840 2939.8445 755.6219 0.410 -0.909 0.076 89 40 28
-3369.6904 2890.7947 698.8724 0.991 0.027 0.131 61 10 5
-3220.4905 2848.4277 646.9211 0.891 0.001 -0.455 42 12 1
-3230.4917 2866.4001 646.4509 0.628 0.020 -0.778 42 12 1
-3247.0015 2889.8569 647.2971 0.708 -0.189 -0.681 42 12 1
-3252.9438 2914.5632 643.3536 0.836 0.490 -0.247 67 37 26
-3237.8862 2981.9519 619.3915 0.718 -0.428 0.549 113 77 65
-3314.4907 3100.0540 620.8983 0.432 -0.683 0.589 111 72 65
-3241.7036 3109.0625 587.8022 0.237 -0.858 0.455 84 46 39
-3168.6711 3190.3628 535.7195 0.644 -0.281 0.711 84 47 38
-3165.5442 3198.1409 532.3671 0.964 0.129 -0.231 73 35 23
-3198.1130 3250.8999 532.3424 0.640 -0.522 0.565 62 24 11
-2365.0535 2697.2661 325.0945 0.913 -0.352 0.204 139 83 61
-2529.7622 2949.1597 328.8668 0.597 -0.606 0.525 146 89 71
-2538.1040 2968.0576 327.4539 0.681 -0.506 0.530 144 96 79
-2787.7551 3340.9155 335.5072 0.790 -0.387 0.474 124 88 73
-2644.8672 3296.6738 286.7118 -0.206 -0.879 0.429 102 66 55
-2526.9661 3318.1404 231.3067 0.730 -0.212 -0.649 64 26 18
-2538.0464 3343.0378 229.4834 0.611 -0.327 -0.721 59 28 16
-2536.9277 3352.7520 226.4736 0.606 -0.331 -0.723 45 20 7
-2538.5630 3365.9683 223.7122 0.607 -0.326 -0.725 27 9 2
-2342.9946 3575.5486 86.3668 0.130 -0.742 0.657 38 38 38
-2356.4299 3607.3108 83.7450 0.092 -0.869 0.486 41 38 34
-3423.5933 2249.5942 880.3835 0.613 0.409 -0.677 97 83 75
-3705.9858 2570.9895 914.7504 0.624 0.293 -0.724 146 110 91
-3730.1946 2595.7148 918.4390 0.622 0.302 -0.722 141 104 85
-3744.4702 2614.2227 919.5826 0.397 -0.750 0.529 136 99 80
-3908.8362 2809.1392 937.5242 0.499 -0.222 -0.837 89 56 40
-3902.0088 2814.6746 933.1989 0.497 -0.218 -0.840 89 56 40
-3902.0427 2824.7964 930.5547 0.497 -0.218 -0.840 86 54 37
-3823.7600 2792.2429 906.1782 0.008 -0.984 0.175 86 53 37
-3728.8591 2777.0771 870.2453 0.704 -0.698 0.136 89 56 39
-3723.4099 2793.0442 863.7598 0.520 -0.807 0.280 73 40 23
-3681.7375 2783.7371 848.6765 0.788 -0.597 0.153 74 40 23
-3571.4045 2754.5732 809.9292 0.553 -0.635 -0.540 68 37 16
-3325.5259 2860.8086 678.6100 0.344 -0.824 -0.451 75 27 16
-3266.1782 2852.0764 655.9413 0.097 -0.893 -0.440 67 19 8
-3282.4683 2884.9353 654.1631 0.436 -0.885 -0.161 46 11 2
-3249.1130 2877.2024 642.1646 0.520 -0.092 -0.849 42 12 2
-3244.7527 2883.4141 638.6993 0.541 -0.067 -0.839 42 12 2
-3250.1917 2897.7639 637.2182 0.892 0.014 -0.451 51 21 11
-3248.7280 2906.4250 634.3278 0.852 0.242 -0.465 84 54 44
-3253.5730 2920.3840 632.6996 0.852 0.242 -0.465 110 80 70
-3258.4482 2934.4287 631.0615 0.852 0.242 -0.465 117 85 75
-3263.7734 2989.2734 618.8972 0.735 -0.483 0.475 118 81 72
-3229.9207 2970.3735 609.6223 0.723 -0.418 0.549 118 81 72
-3250.3645 2998.0828 610.9438 0.599 -0.198 -0.776 118 81 72
-3215.0845 2977.7502 601.4447 0.601 -0.189 -0.776 118 81 72
-3224.7400 2996.2380 600.6504 0.577 -0.140 -0.805 116 77 70
-3249.5522 3028.0281 602.7374 0.620 -0.182 -0.763 116 77 70
-3225.8340 3017.5591 595.5109 0.550 -0.203 -0.810 116 77 70
-3263.7148 3061.0508 600.0214 0.536 -0.825 -0.178 116 77 70
-3311.3091 3123.9568 603.5186 0.420 -0.835 -0.355 105 66 59
-3161.5945 3167.8977 529.0073 0.023 -0.886 0.463 60 30 30
-3158.9304 3176.0513 525.7453 0.510 -0.829 0.229 60 30 29
-3187.2295 3224.4231 524.9440 0.986 0.047 -0.158 57 35 20
-3191.4797 3239.3486 522.8117 0.631 -0.541 0.556 64 42 27
-3184.8975 3265.8350 513.0869 0.627 -0.074 0.776 67 43 29
-3212.2695 3303.3743 514.7407 0.797 0.159 0.583 67 42 28
-2541.8057 3331.1448 225.4458 0.721 -0.345 -0.601 61 26 18
-2545.6614 3347.0349 222.8943 0.750 -0.300 -0.590 52 23 13
-2548.2791 3361.4475 220.2100 0.751 -0.056 -0.658 37 15 4
-2267.5156 3279.3953 123.6689 -0.267 -0.942 -0.204 16 16 18
-2274.7178 3311.2683 118.3271 -0.215 -0.964 -0.156 22 21 26
-2253.4180 3303.6299 111.3745 -0.217 -0.965 -0.146 34 33 38
-2352.4790 3583.2695 79.5972 0.127 -0.763 0.633 37 36 39
-2357.0781 3602.0757 76.5924 0.047 -0.806 0.590 43 39 34
-2996.1411 1985.6774 762.3041 -0.091 -0.645 -0.759 104 90 81
-3893.7122 2784.5728 927.2869 0.603 -0.305 -0.737 94 61 44
-3743.2300 2762.8162 870.0034 0.490 -0.633 -0.599 89 56 39
-3738.8513 2769.6475 866.3656 0.490 -0.633 -0.599 89 56 39
-3740.3291 2790.3823 861.5092 0.810 -0.564 0.159 79 46 29
-3434.9902 2923.4741 698.4750 -0.172 -0.957 0.235 76 28 12
-3332.3262 2861.6982 671.7876 0.344 -0.824 -0.451 75 27 15
-3278.7017 2857.7048 650.3817 0.155 -0.889 -0.432 67 19 5
-3264.3376 2865.5571 642.2921 0.542 -0.048 -0.839 46 11 2
-3257.7563 2889.5806 633.1918 0.558 -0.032 -0.829 42 12 2
-3254.9834 2897.1401 630.0341 0.537 -0.064 -0.841 56 26 16
-3171.6331 2935.4985 584.9942 0.375 -0.890 0.259 118 81 72
-3204.5820 2994.2029 583.2930 0.566 -0.185 -0.804 112 73 66
-3219.9460 3028.0425 580.7923 0.683 -0.178 -0.709 105 66 59
-3242.8821 3068.9194 579.6047 0.677 -0.334 -0.656 100 61 54
-3192.8855 3181.5234 528.9293 0.037 -0.847 0.530 57 31 34
-3171.5471 3172.1904 522.4564 0.055 -0.871 0.487 57 32 32
-3184.0139 3194.6401 521.7498 0.933 0.211 -0.290 56 32 31
-3187.1790 3208.4019 519.4415 0.936 0.212 -0.283 49 31 19
-3194.6917 3226.3521 517.8482 0.992 0.120 -0.047 53 36 23
-3212.2190 3253.9429 517.9037 0.581 -0.549 0.601 59 43 31
-3179.1274 3255.0312 503.7560 0.652 -0.070 0.755 67 49 36
-2384.4668 2691.6523 319.6853 0.849 -0.477 0.227 94 33 12
-2379.6592 2695.3887 316.6850 0.850 -0.480 0.216 123 62 41
-2649.1638 3269.2256 278.0357 0.210 -0.570 0.794 105 71 62
-2541.3018 3325.0293 218.1226 0.971 -0.240 -0.006 61 26 18
-2549.6907 3346.5391 215.9563 0.968 -0.223 -0.115 52 23 13
-2549.8005 3357.8018 213.0282 0.962 -0.171 -0.214 37 15 5
-2546.9558 3365.3948 209.8317 0.970 -0.242 0.034 21 5 0
-2280.4036 3313.5767 111.8711 -0.215 -0.964 -0.156 22 21 26
-2274.4868 3316.3987 108.6477 -0.222 -0.965 -0.138 28 27 32
-2262.2998 3310.4583 105.1119 -0.194 -0.914 -0.357 34 33 38
-2252.4575 3307.7192 101.7128 -0.206 -0.908 -0.366 39 38 43
-2359.4897 3587.3513 72.7018 0.206 -0.564 0.800 39 38 41
-2357.7368 3596.8687 69.4545 0.230 -0.630 0.742 48 44 39
-1539.9840 4348.3604 -471.4984 0.973 -0.029 -0.231 227 192 190
-1743.6453 5017.4844 -562.8877 -0.215 -0.907 -0.361 219 181 180
-3753.3845 2649.3242 894.3439 0.014 -0.853 0.521 111 74 55
-3783.6218 2688.1667 896.6429 0.328 -0.810 0.487 110 74 55
-3905.6917 2798.0059 918.3947 0.226 -0.910 -0.347 101 68 51
-3910.7676 2821.5210 914.2686 0.196 -0.918 -0.344 98 65 48
-4240.5527 3085.7200 981.6733 0.508 -0.679 -0.529 90 57 40
-3746.4788 2770.4182 859.3140 0.490 -0.633 -0.599 89 56 39
-3756.6992 2787.2778 859.1007 0.358 -0.715 -0.601 89 56 39
-3570.2610 2754.6262 790.0092 0.714 -0.197 -0.672 67 36 16
-3579.4968 2780.6353 786.9561 0.704 -0.218 -0.676 69 35 16
-3275.8621 2850.8794 641.6660 0.103 -0.870 0.482 67 19 5
-3281.7517 2875.2095 637.6630 0.437 -0.896 -0.078 46 11 2
-3264.0625 2890.1978 626.3058 0.561 -0.057 -0.826 42 12 2
-3259.7231 2896.4685 622.8311 0.533 -0.069 -0.843 63 33 23
-3261.0215 2907.4241 620.4641 0.572 -0.096 -0.815 95 65 55
-3362.7192 3064.1287 621.2764 0.547 -0.831 0.096 118 81 72
-3224.9282 3048.1492 568.0485 0.759 -0.262 -0.595 103 64 57
-3210.0427 3246.6562 509.1378 0.581 -0.549 0.601 55 44 35
-3137.8989 3188.6411 494.4505 0.997 0.072 0.017 60 49 39
-2549.1584 3329.2998 211.5531 0.973 -0.230 -0.027 61 26 18
-2550.0264 3352.5437 205.7440 0.970 -0.242 0.034 37 15 5
-2271.6245 3284.9436 107.5748 -0.206 -0.883 -0.421 16 15 20
-2279.0457 3317.1482 102.1199 -0.209 -0.907 -0.365 28 27 32
-2267.6133 3312.2876 98.6421 -0.204 -0.908 -0.365 34 33 38
-2258.8093 3311.0269 95.3048 -0.205 -0.911 -0.357 39 38 43
-2254.7385 3316.3564 92.1919 -0.196 -0.912 -0.361 39 38 43
-2351.6697 3569.8477 65.3201 0.222 -0.555 0.802 41 41 43
-2358.8770 3592.3760 62.3450 0.270 -0.591 0.760 54 51 46
-2333.9348 3592.0137 52.0383 0.272 -0.591 0.759 201 181 180
-2763.1667 1420.9049 801.0992 0.542 -0.793 -0.280 40 37 28
-3781.6384 2750.5188 869.1910 0.181 -0.953 -0.242 102 69 52
-4070.9790 2976.6138 929.0111 0.193 -0.981 0.004 89 56 39
-3590.5037 2764.6465 786.0375 0.660 -0.255 -0.706 67 36 16
-3602.2764 2792.5454 783.4802 0.668 -0.294 -0.683 69 35 16
-3603.5151 2822.9309 775.8841 0.361 -0.786 -0.501 67 29 10
-3595.4932 2826.9744 771.4731 0.371 -0.791 -0.486 67 29 10
-3348.5581 2778.2954 681.9089 0.896 -0.240 0.374 94 42 20
-3435.3669 2904.4729 684.2831 -0.344 -0.923 0.170 78 26 5
-3303.6418 2888.4629 633.8481 0.340 -0.882 0.327 46 11 2
-3273.6519 2923.2190 612.1155 0.632 -0.155 -0.759 126 96 86
-3277.0857 2936.0508 610.1166 0.622 -0.177 -0.763 133 100 91
-3295.1729 2961.2190 610.9106 0.759 -0.061 -0.648 125 91 81
-3300.7620 2976.0137 609.2828 0.754 -0.059 -0.654 127 90 81
-3305.3220 2990.0054 607.4421 0.644 -0.275 -0.714 127 90 81
-3263.4873 2995.0652 588.7167 0.415 -0.448 0.792 118 81 72
-3124.6523 3149.6936 489.7817 0.739 -0.558 0.378 45 38 33
-3125.8701 3161.4390 487.1523 0.743 -0.529 0.409 51 46 40
-3112.2456 3159.0657 482.1273 0.754 -0.520 0.402 56 50 46
-3099.0627 3178.2878 471.5213 0.550 -0.807 -0.215 70 63 57
-3095.9307 3185.9238 468.1823 0.581 -0.777 -0.242 72 62 55
-2550.3130 3325.2493 204.3861 0.973 -0.230 -0.027 61 26 18
-2553.0659 3339.7124 201.6690 0.969 -0.217 -0.119 52 23 13
-2551.4204 3348.7546 198.5721 0.969 -0.217 -0.119 37 15 5
-2359.6536 3587.3638 55.2371 0.172 -0.739 0.651 59 55 50
-2335.5754 3588.2708 44.9948 0.104 -0.763 0.638 203 184 182
-3032.0103 2004.5093 749.2982 0.000 -0.683 -0.731 67 53 44
-3654.4368 2604.6074 845.6754 -0.021 -0.867 0.498 112 77 61
-3983.1550 2912.2488 899.0659 0.015 -0.754 -0.657 95 62 45
-4267.2720 3138.5549 955.8370 0.413 -0.862 0.294 95 62 45
-3600.7461 2767.5168 779.7542 0.334 -0.909 0.252 74 43 23
-3612.0330 2795.0793 777.0258 0.435 -0.664 -0.608 76 42 23
-3371.3091 2810.6440 673.2944 0.548 -0.769 -0.329 98 46 24
-3378.5203 2825.9294 672.1749 0.335 -0.904 0.266 90 38 16
-3369.2019 2828.4067 667.6564 0.369 -0.889 0.269 90 38 16
-3369.3625 2838.2710 665.0758 0.422 -0.874 0.240 90 38 16
-3404.0840 2875.2981 669.4991 0.325 -0.891 0.316 90 38 17
-3306.0146 2885.8110 626.1201 0.400 -0.838 0.372 44 9 0
-3274.5884 2870.0591 617.3504 0.100 -0.995 -0.020 40 10 0
-3273.9045 2879.3010 614.5876 0.575 -0.165 -0.801 40 10 0
-3274.4714 2889.5952 612.0595 0.575 -0.165 -0.801 40 10 0
-3275.0398 2899.9241 609.5229 0.575 -0.165 -0.801 58 28 18
-3274.3499 2909.2444 606.7365 0.591 -0.147 -0.793 74 44 34
-3266.7527 2922.7781 599.9628 0.675 -0.547 -0.496 113 80 71
-3280.9409 2944.6077 599.9726 0.790 -0.348 -0.504 117 83 73
-3362.6279 3043.9231 607.1041 0.829 -0.014 -0.560 135 98 89
-3350.3977 3043.9133 602.0488 0.886 0.052 -0.461 118 81 72
-3259.6650 2987.0371 579.7878 0.570 -0.560 0.601 107 70 61
-3278.5549 3096.2012 558.3058 0.113 -0.833 -0.541 111 73 65
-3269.4009 3098.5637 553.8860 0.115 -0.830 -0.546 114 80 73
-3150.9211 3169.5027 485.8509 0.728 -0.670 0.145 40 38 38
-3201.6836 3228.3354 491.0567 0.818 -0.150 -0.555 39 38 38
-3206.6533 3243.9397 488.9247 0.830 -0.138 -0.541 38 38 38
-3225.0100 3272.4104 488.8761 0.820 -0.187 -0.540 51 49 49
-3140.6846 3224.0830 466.9709 0.571 -0.696 0.436 51 49 47
-2601.4658 3251.1355 236.7104 0.063 -0.776 0.628 104 70 61
-2522.2922 3274.2913 197.7534 0.445 -0.500 -0.743 66 25 21
-2542.8608 3310.5688 196.5247 0.493 -0.500 -0.712 61 26 18
-2372.2876 3599.6023 48.4202 0.039 -0.983 0.181 43 39 34
-2363.7859 3599.3091 44.9828 0.039 -0.983 0.181 77 71 65
-2348.8845 3601.6848 38.1827 -0.136 -0.898 0.419 204 184 183
-3047.3340 2061.1238 732.6584 0.559 -0.104 0.823 142 119 103
-3065.4790 2079.4795 735.1788 0.724 -0.067 0.687 145 122 106
-3607.8330 2777.8613 770.1165 0.453 -0.690 -0.565 80 47 28
-3625.1929 2800.0298 771.2848 0.472 -0.626 -0.621 81 47 28
-3408.1426 2864.0486 664.6318 0.731 -0.133 0.669 90 38 16
-3418.0247 2881.6602 663.9501 0.635 -0.299 0.712 90 38 17
-3426.9539 2898.6099 663.0546 0.613 -0.407 0.677 83 35 18
-3382.3733 2873.3875 651.5005 -0.215 -0.891 0.399 78 30 16
-3281.2007 2880.7007 607.8642 0.853 -0.101 -0.511 40 10 0
-3281.3057 2900.4861 602.5699 0.816 0.083 -0.572 42 12 3
-3281.5708 2910.5991 599.9507 0.803 -0.022 -0.596 54 24 14
-3291.2249 2928.5293 599.0892 0.551 -0.154 -0.821 71 41 31
-3283.9426 2932.4529 595.0319 0.808 -0.308 -0.502 84 51 42
-3287.3784 2965.4121 587.5552 0.829 -0.006 0.560 116 79 70
-3341.3235 3021.0820 594.7516 0.878 0.035 -0.477 121 84 75
-3236.7163 2962.6892 567.4269 0.539 -0.630 -0.559 111 74 65
-3233.6919 2970.1519 564.1682 0.525 -0.635 -0.567 106 69 60
-3261.9138 3045.5027 555.4623 0.593 -0.189 -0.783 116 77 70
-3152.5696 3165.9976 477.9273 0.728 -0.670 0.145 36 39 44
-3202.0039 3256.1357 473.9675 0.918 -0.174 -0.357 40 46 50
-3147.4675 3225.4673 459.7828 0.505 -0.611 0.609 41 46 48
-2367.7891 2692.1636 282.5797 -0.138 -0.851 -0.507 135 83 69
-2630.2517 3258.2117 237.9573 0.045 -0.826 0.561 103 69 60
-2621.4753 3258.6785 234.2172 -0.024 -0.890 0.456 103 69 60
-2600.9775 3245.2581 229.3966 0.063 -0.776 0.628 103 69 60
-2531.3035 3334.7534 176.5608 0.665 -0.300 -0.684 15 3 1
-2374.0674 3596.0369 41.3224 0.065 -0.976 0.206 43 39 34
-2365.6521 3595.8743 37.9008 0.065 -0.976 0.206 77 71 65
-3030.4646 2040.4314 723.5727 0.556 -0.113 0.823 117 94 78
-3034.5994 2050.1870 722.6224 0.559 -0.104 0.823 129 108 91
-3042.0325 2061.9832 722.4713 0.687 -0.065 0.724 140 117 101
-3052.5098 2075.6897 723.0502 0.787 0.050 0.615 151 124 111
-3059.4004 2087.2744 722.7339 0.775 0.081 0.627 154 122 103
-3546.9668 2626.6106 776.3905 0.730 0.247 -0.637 107 74 57
-3625.5110 2776.2366 768.0187 0.076 -0.854 -0.514 86 55 35
-3599.4373 2767.4639 759.7064 0.241 -0.963 0.122 87 54 35
-3616.9265 2789.6643 760.8570 0.395 -0.762 -0.513 88 54 35
-3489.5474 2833.4434 696.7526 0.090 -0.645 -0.759 95 45 22
-3396.8022 2850.6660 654.0519 0.724 -0.168 0.669 90 38 17
-3406.7900 2878.1729 650.6875 0.688 -0.332 0.645 83 35 18
-3367.1206 2876.4668 634.8837 0.252 -0.957 -0.142 66 18 4
-3218.4729 2796.2800 595.6779 -0.026 -0.995 0.092 46 3 0
-3279.8496 2865.2522 602.1400 0.337 -0.866 0.370 40 10 0
-3287.5959 2881.3538 600.9496 0.854 -0.092 -0.512 40 10 0
-3282.3247 2886.8770 597.2902 0.815 0.090 -0.572 40 10 0
-3288.7673 2902.0215 595.8248 0.815 0.086 -0.574 37 7 0
-3289.3430 2912.3970 593.2470 0.800 -0.028 -0.599 44 14 4
-3291.9009 2924.4465 591.0280 0.798 -0.028 -0.602 54 24 14
-3335.7073 3011.5442 585.3696 0.896 0.023 0.443 101 65 53
-3335.9072 3021.9731 582.6233 0.897 0.025 0.441 110 74 62
-3244.4797 2954.5791 563.4111 0.588 -0.347 0.731 105 69 57
-3238.2202 2959.2737 559.5712 0.565 -0.627 -0.537 98 62 50
-3236.1018 2967.5042 556.4705 0.559 -0.624 -0.546 94 57 46
-3246.8696 2986.8237 555.6462 0.845 -0.347 0.407 91 52 45
-3268.1875 3066.8188 542.6928 0.743 0.076 -0.665 123 84 77
-3210.7761 3036.8181 527.2877 0.690 0.047 -0.722 114 80 73
-3222.2642 3057.2905 526.4462 0.561 -0.564 0.606 113 80 73
-3149.3840 3157.9426 469.2650 0.772 -0.612 0.169 30 41 47
-3159.8459 3178.4526 467.9925 0.891 -0.109 -0.441 30 41 48
-3200.7593 3249.7329 465.4376 0.917 -0.177 -0.357 29 40 48
-2314.3589 3343.5706 76.5227 -0.178 -0.723 -0.668 19 18 23
-2376.2690 3593.0891 34.2391 0.030 -0.984 0.177 43 39 35
-1642.3093 4770.6792 -586.0829 0.904 -0.408 0.132 220 178 179
-1640.1134 4803.1606 -595.7924 0.907 -0.393 0.153 222 178 179
-1679.1365 4936.6279 -615.9875 0.665 0.170 0.727 222 178 177
-2998.9031 2025.4373 707.0574 0.630 -0.160 0.760 107 87 71
-3001.0920 2041.1648 703.6633 0.852 -0.435 0.292 136 111 98
-3022.4490 2061.4346 706.8571 0.862 -0.020 0.507 149 119 101
-3030.4290 2073.6309 706.7902 0.863 -0.070 0.501 152 121 102
-3394.3440 2608.3953 709.5826 0.401 -0.880 -0.253 90 58 39
-3390.5164 2614.7920 706.2760 0.444 -0.871 -0.213 91 58 39
-3392.9309 2625.6401 704.3043 0.435 -0.868 -0.240 92 58 39
-3419.9597 2815.2471 663.6481 0.051 -0.944 -0.326 99 46 25
-3369.2556 2853.9592 632.3921 -0.021 -0.993 0.116 78 30 16
-3401.0767 2898.8301 633.1513 0.947 0.123 0.298 66 18 4
-3313.2727 2868.1702 605.6605 0.056 -0.919 -0.390 43 0 0
-3299.6396 2886.5957 595.0710 0.874 -0.388 -0.293 41 10 0
