ply
format ascii 1.0
element vertex 781
property float x
property float y
property float z
property float nx
property float ny
property float nz
property uchar diffuse_red
property uchar diffuse_green
property uchar diffuse_blue
end_header
-3554.4644 5907.1025 1236.7648 -0.624 -0.775 -0.100 115 82 65
-3451.6433 5794.2954 1185.0282 -0.666 -0.745 0.019 113 80 63
-1689.6255 6117.2725 -212.7621 0.389 -0.804 0.450 242 93 94
-1284.1790 5789.1768 -443.2202 0.348 -0.012 -0.937 254 88 100
-3213.9827 3154.6978 1592.8773 -0.051 -0.828 0.559 142 38 24
-3398.3792 3383.6353 1678.8738 0.751 -0.512 -0.416 157 53 47
-3630.3369 4393.6597 1621.8542 0.128 -0.974 -0.188 191 162 148
-3623.1721 4399.5078 1615.1398 0.164 -0.940 -0.298 191 162 148
-3747.4890 4607.2085 1660.9097 0.756 -0.651 -0.072 202 169 152
-3538.3821 4471.8325 1534.9639 0.082 -0.988 -0.131 172 135 108
-3918.3538 5325.6948 1624.7463 0.977 -0.036 0.210 179 132 104
-3940.9014 5377.0625 1629.9141 -0.070 -0.703 0.708 156 109 81
-3757.7197 5556.9893 1451.2842 0.433 -0.615 -0.659 168 127 97
-3627.1545 5534.9180 1358.3546 0.912 -0.403 -0.072 139 95 66
-3431.8645 5787.2021 1154.0835 -0.248 -0.965 0.081 131 99 86
-3323.6018 5705.5415 1091.5239 0.871 -0.007 0.492 132 103 89
-3171.7371 5719.7861 974.3018 0.110 -0.687 0.719 36 12 3
-1616.0696 5552.0938 -154.7421 0.933 0.235 -0.273 248 237 228
-1660.8441 6090.0039 -244.2121 0.983 -0.038 0.181 230 73 84
-1590.6514 5926.2300 -259.4162 0.874 -0.217 0.434 254 94 108
-3426.4558 3428.0095 1677.3446 0.443 -0.309 -0.841 218 161 150
-3540.9792 3574.6135 1729.2668 0.168 -0.572 -0.803 204 194 177
-3587.6809 4557.9912 1537.0847 -0.119 -0.946 0.303 167 130 103
-3571.9727 4552.6426 1526.5531 -0.119 -0.946 0.303 168 131 104
-3882.8889 5355.3545 1574.0267 0.059 -0.500 0.864 123 86 57
-3719.3704 5363.2041 1449.7230 0.063 -0.655 -0.753 68 33 9
-3781.1472 5517.1812 1460.4301 -0.229 -0.600 -0.767 200 161 130
-3765.1934 5553.2939 1440.1367 0.083 -0.807 0.584 156 117 86
-2831.8123 5515.1885 749.7516 0.196 -0.580 0.791 55 46 37
-2897.9143 6216.3354 637.2988 0.822 -0.467 0.325 93 67 54
-2910.9646 6329.9150 620.8373 0.994 -0.071 0.089 79 55 41
-4587.2676 3707.4172 2467.7493 0.636 -0.198 -0.746 213 206 198
-3056.3042 2915.1753 1507.7224 0.302 -0.724 0.620 89 27 12
-3701.7534 4635.0132 1589.2657 0.549 -0.835 0.029 166 130 105
-3777.4214 5516.4702 1440.2755 -0.245 -0.608 -0.755 174 135 104
-3422.0195 5313.0581 1221.9597 0.643 -0.477 0.599 149 110 81
-3418.8044 5729.9370 1122.3320 -0.330 -0.917 0.224 175 143 130
-3166.7798 5767.8052 925.0466 0.604 -0.297 0.740 63 40 27
-2988.8845 5676.5820 813.2987 0.295 -0.836 -0.463 51 37 26
-1996.4452 5506.6538 110.8232 -0.397 -0.603 -0.692 65 39 32
-1994.7251 5530.6118 103.9496 -0.106 -0.507 -0.855 63 36 29
-4482.6943 3598.2324 2400.8003 0.914 -0.197 -0.355 205 198 190
-4530.0117 3650.0757 2423.9141 0.927 -0.052 -0.371 212 205 197
-3036.0088 2896.7246 1486.1096 0.680 -0.623 0.386 89 24 12
-3705.4714 4441.2646 1622.1853 0.816 0.126 -0.564 204 175 161
-3671.8679 4536.3496 1574.7169 -0.301 -0.882 0.363 183 150 133
-3908.7085 5520.0605 1519.9070 0.609 -0.739 0.289 83 51 28
-3192.5776 5593.4053 968.0994 0.562 -0.570 0.599 114 83 73
-3191.8320 5614.3750 962.6060 0.517 -0.624 0.586 125 95 85
-3194.5322 5779.7275 925.6926 -0.435 -0.778 -0.452 67 43 31
-2627.7930 5955.4443 461.2941 -0.372 -0.875 -0.310 75 52 38
-2586.2837 5937.3115 434.5793 0.903 -0.364 0.230 63 42 31
-2374.9263 5765.9692 317.1553 -0.319 -0.944 -0.087 55 35 26
-1985.9606 5452.9956 100.5036 0.600 -0.800 -0.014 46 20 13
-2007.5802 5604.6592 80.9350 0.165 -0.540 -0.825 160 133 126
-1563.3702 5763.4590 -288.0217 -0.173 -0.930 0.324 217 76 82
-1366.9229 5179.1279 -297.0869 0.727 -0.162 0.667 250 98 110
-297.3650 3628.5454 -730.3820 0.205 -0.880 -0.429 255 134 144
-4479.4043 3587.5447 2386.6785 0.902 -0.220 -0.372 157 150 142
-4495.2842 3612.2917 2392.6294 0.914 -0.137 -0.382 185 178 170
-4361.2681 3641.5171 2285.8296 0.663 -0.542 -0.517 46 42 33
-3316.4316 3211.8630 1609.4277 0.696 -0.320 0.643 125 39 32
-3270.2302 3173.8333 1584.0406 0.424 -0.480 0.769 140 48 40
-3433.7249 3411.4993 1649.3812 0.574 -0.330 -0.749 187 128 118
-3990.0510 4679.3252 1762.6127 -0.390 -0.670 0.632 195 167 146
-3720.3757 4479.4946 1609.1660 0.816 0.126 -0.564 212 183 169
-3819.2139 4637.4229 1645.2802 -0.004 -0.874 0.486 210 178 163
-3655.4922 4503.3809 1555.1453 0.052 -0.615 0.786 182 149 130
-3732.0974 5456.6406 1385.6915 0.356 -0.318 0.879 157 118 87
-2894.8076 5858.3794 666.3607 -0.196 -0.781 -0.593 21 11 2
-2832.3975 5901.1611 609.6926 0.981 0.044 -0.188 97 74 60
-2913.0376 6297.3667 575.6233 0.995 -0.100 0.029 129 85 79
-1979.5968 5440.2822 83.7964 0.983 0.180 -0.036 62 35 28
-2013.8136 5570.5205 78.3417 0.981 0.185 -0.063 153 126 119
-2060.2563 5799.5752 58.5136 0.021 -0.795 -0.606 199 171 167
-1701.6713 6534.7329 -383.3695 0.819 -0.539 0.194 241 92 103
-1110.7216 4323.1982 -298.1365 0.883 -0.425 -0.198 252 98 110
-4416.9185 3504.5996 2345.9216 -0.216 -0.734 -0.643 59 53 43
-4448.1899 3542.0767 2360.1914 0.692 -0.609 -0.388 46 40 32
-4509.2275 3616.3271 2387.7803 0.918 -0.144 -0.369 70 64 56
-4498.0640 3617.9478 2379.0886 0.916 -0.151 -0.372 127 121 112
-4523.2329 3662.1626 2387.2036 0.437 -0.879 0.190 150 144 135
-4408.5078 3618.7852 2312.2791 0.610 -0.746 0.268 97 95 84
-4366.4136 3604.2268 2284.4624 0.816 -0.189 -0.547 53 51 39
-3301.7231 3188.9553 1592.1836 0.694 -0.319 0.646 125 39 32
-3359.0303 3291.3665 1610.2437 0.854 -0.482 -0.196 160 51 40
-3746.9858 4426.2402 1626.5942 -0.075 -0.809 0.583 211 182 168
-3714.1545 4399.9629 1608.4781 0.081 -0.803 0.590 211 182 168
-3823.6155 4631.3882 1634.3845 -0.004 -0.874 0.486 205 173 157
-3788.9331 4602.5669 1615.5016 0.150 -0.539 0.829 204 171 153
-3625.7830 4468.5146 1526.3081 0.166 -0.541 0.824 177 143 124
-3586.9136 4463.5962 1498.5781 -0.075 -0.863 0.500 163 126 99
-3478.0786 5502.5464 1168.4399 0.760 -0.352 0.547 179 143 122
-3131.2827 5512.2007 908.1893 -0.173 -0.887 0.428 111 84 70
-3179.0132 5623.5732 916.9769 0.508 -0.242 0.827 128 101 87
-2661.5632 5993.7710 443.3237 -0.317 -0.883 -0.346 102 72 58
-2576.7998 5926.3774 396.4437 0.906 -0.275 0.321 89 62 51
-2592.1689 6047.8135 378.7486 -0.505 -0.756 0.417 76 49 38
-2573.2546 6029.1543 369.1562 -0.514 -0.763 0.391 76 49 38
-2555.0557 6012.0610 359.7202 -0.514 -0.763 0.391 76 50 39
-2460.7817 5859.0342 326.3056 -0.552 -0.736 0.391 69 48 36
-2004.1879 5490.2124 75.1676 0.964 0.236 -0.125 132 105 99
-1665.3575 5631.8442 -210.8132 0.921 0.214 -0.326 255 246 254
-214.1694 3491.9736 -776.9136 0.210 -0.212 -0.954 250 78 114
-4440.7886 3506.3091 2349.3271 -0.236 -0.731 -0.640 125 121 109
-4502.7173 3614.0205 2369.2329 0.916 -0.151 -0.372 38 35 26
-4510.0615 3631.5317 2370.4468 0.917 -0.143 -0.373 37 34 25
-4510.8022 3643.4268 2368.1174 0.438 -0.874 0.211 37 33 24
-4393.8921 3609.2280 2289.5969 0.828 -0.064 -0.557 33 33 25
-3285.4639 3174.8357 1571.8068 0.666 -0.318 0.675 137 45 39
-3285.3115 3185.0266 1569.2268 0.786 -0.260 0.561 157 61 51
-3434.2183 3395.9348 1628.7290 0.780 -0.599 0.180 182 113 96
-3741.7278 4408.6157 1611.9094 0.010 -0.772 0.635 215 187 175
-3709.5530 4383.1885 1594.1766 0.087 -0.798 0.596 215 187 176
-3701.8418 4388.3838 1587.1938 0.688 -0.580 -0.436 215 187 176
-3725.1226 4447.8647 1590.0807 0.870 0.051 -0.490 216 188 176
-3660.5420 4456.4116 1540.0648 0.206 -0.571 0.795 186 147 123
-3622.1045 4437.0610 1516.2113 0.206 -0.571 0.795 172 135 113
-3595.3770 4447.9800 1493.7250 -0.145 -0.903 0.404 168 131 102
-3594.9751 4462.8276 1489.8326 -0.166 -0.897 0.410 164 129 98
-3756.6235 5103.4375 1454.7825 0.651 0.009 0.759 196 164 137
-3768.8721 5175.9805 1446.3169 0.658 0.017 0.753 208 172 146
-3135.4541 5503.1812 896.8430 -0.199 -0.899 0.391 172 135 118
-2703.1260 6212.4795 404.1767 -0.128 -0.966 -0.225 116 74 53
-2503.1411 5916.2930 327.3943 -0.500 -0.785 0.367 89 68 43
-2330.1101 6102.5010 153.8569 0.588 -0.543 0.599 46 28 20
-1991.6912 5402.8447 71.9585 0.963 0.232 -0.135 182 151 149
-1620.4520 5441.1948 -212.9459 0.926 0.218 -0.309 228 225 223
-1744.3726 6150.8428 -292.7176 0.624 -0.515 0.588 133 83 76
-1559.4282 6042.7500 -403.8626 0.596 -0.797 -0.100 196 72 66
-4492.0938 3608.1785 2348.5349 0.894 -0.217 -0.393 28 25 16
-4493.9551 3620.9602 2346.7920 0.424 -0.600 -0.678 29 26 17
-4411.7349 3616.9065 2286.8484 0.830 -0.058 -0.554 30 30 22
-4412.3696 3628.7124 2284.4348 0.823 -0.063 -0.564 31 31 23
-3757.4941 4417.3169 1606.4744 0.065 -0.681 0.729 214 187 178
-3708.5088 4415.7012 1570.5658 0.930 0.020 -0.366 212 183 175
-3663.6992 4418.8813 1536.5802 -0.162 -0.753 -0.638 197 159 137
-3539.2627 4470.0493 1431.8608 0.597 -0.509 -0.620 173 139 105
-3506.1965 4456.5664 1410.6486 0.604 -0.696 -0.389 181 147 119
-3360.1968 5295.3477 1097.5636 0.784 -0.443 0.435 212 178 168
-3349.1357 5296.9507 1088.9747 0.790 -0.418 0.449 212 178 166
-2480.1196 5864.5547 306.2951 -0.556 -0.738 0.383 95 72 46
-2462.4065 5847.6025 297.3086 -0.555 -0.737 0.386 95 72 46
-2342.0349 5732.4897 236.2182 -0.274 -0.655 -0.704 82 54 40
-2326.8491 5748.3447 221.0912 0.769 0.002 -0.639 70 44 29
-1733.6267 5860.4795 -245.9410 0.935 0.218 -0.281 252 248 245
-4380.1636 3559.2114 2263.5818 0.755 -0.342 -0.559 25 25 17
-4378.4902 3568.8120 2259.9773 0.755 -0.342 -0.559 26 26 18
-3455.7002 3262.4082 1652.8357 0.948 -0.156 0.278 86 48 37
-3123.7412 2991.6680 1473.9885 0.402 -0.584 0.705 139 61 53
-3355.7637 3318.3618 1565.1140 -0.125 -0.754 0.645 192 148 127
-4742.3291 5117.9971 2147.3115 0.829 -0.528 0.183 205 177 155
-4712.4761 5134.2012 2121.2329 0.864 -0.487 0.123 197 169 147
-3676.2310 4305.0933 1558.9899 -0.392 -0.673 0.627 214 187 178
-3708.1748 4359.6240 1569.1813 0.048 -0.690 0.723 216 187 179
-3669.4060 4415.0513 1526.8397 -0.154 -0.739 -0.656 197 159 137
-3630.4382 4380.1650 1506.6105 0.156 -0.820 -0.550 192 152 128
-3621.7395 4459.8540 1480.5345 -0.222 -0.853 0.472 168 131 101
-3623.6560 4477.7520 1477.5410 0.066 -0.874 0.481 164 129 97
-3548.2664 4486.1650 1419.6957 0.600 -0.518 -0.609 180 147 117
-3177.4768 4219.2217 1211.1866 -0.638 -0.746 -0.191 187 154 127
-3454.1621 5757.5361 1036.7253 -0.634 -0.578 -0.513 199 159 147
-3430.6887 5738.4883 1024.0551 -0.651 -0.584 -0.486 196 156 144
-3246.5396 5607.9541 919.9980 0.484 -0.464 -0.742 186 144 130
-2924.7205 5398.3198 733.5912 -0.447 -0.798 -0.403 38 23 14
-2900.7168 5373.3340 721.9921 -0.472 -0.810 -0.349 44 31 23
-2679.4331 5972.6396 410.5806 0.159 -0.985 -0.066 137 90 70
-2644.6992 6082.7656 357.7424 0.346 -0.936 0.070 125 77 55
-2382.0442 5814.9263 229.4500 -0.524 -0.849 -0.065 89 61 47
-2326.8530 6045.5947 131.7681 0.601 -0.557 0.573 46 28 19
-1956.9092 5204.3325 65.4366 -0.427 -0.895 -0.129 88 61 52
-1948.6801 5289.1841 38.4355 0.969 0.214 -0.124 244 212 215
-1663.5914 5578.2344 -243.7092 0.926 0.220 -0.307 255 254 250
-4483.5791 3574.0923 2322.2937 -0.352 -0.630 -0.693 28 25 16
-3332.3931 3020.6292 1609.8306 0.800 -0.341 0.494 34 31 24
-3299.9470 3008.0134 1589.0079 0.736 -0.350 0.579 36 30 25
-2786.9185 2617.7151 1307.2184 0.791 -0.322 -0.520 136 70 58
-3444.1680 3360.6101 1607.8264 0.594 -0.665 -0.454 150 89 77
-3705.2893 4345.1694 1555.8171 0.132 -0.760 0.637 214 187 178
-3795.6963 4503.4067 1583.2288 0.945 -0.121 -0.305 201 172 164
-3482.1772 4416.6504 1373.2844 0.815 -0.466 0.345 181 147 119
-3285.3782 4439.0308 1222.3925 0.632 -0.714 -0.303 225 149 136
-3282.1653 4450.2817 1217.2220 0.656 -0.689 -0.307 225 176 154
-3357.2021 4937.1465 1151.5625 0.244 -0.928 -0.281 205 173 158
-3341.7939 5396.3071 1026.0027 0.976 0.146 0.163 144 112 99
-3010.7578 5481.8989 760.2642 0.383 -0.778 -0.498 84 54 34
-2408.8489 5862.5337 221.1297 -0.507 -0.861 -0.038 93 65 51
-2344.9565 6011.6465 136.8678 0.451 -0.556 0.698 31 17 8
-2084.7080 5519.5811 67.0508 -0.601 -0.653 -0.460 72 45 36
-1623.5223 5406.8110 -245.4694 0.926 0.219 -0.309 245 242 239
-3107.7070 2970.6680 1445.3723 0.497 -0.466 0.732 124 65 56
-3111.8413 2994.4211 1442.4607 0.444 -0.429 -0.787 171 116 111
-3444.2463 3385.6387 1589.3365 0.480 -0.827 -0.293 215 186 170
-3260.5356 3396.6011 1451.1687 0.430 -0.616 0.660 217 190 167
-3334.2703 3549.2114 1467.2336 0.077 -0.400 0.913 207 179 157
-3672.7588 4382.2070 1507.7614 0.929 -0.287 -0.234 191 154 137
-3677.9648 4464.3232 1490.9977 0.072 -0.799 -0.596 172 132 107
-3624.0806 4470.9180 1449.6238 -0.106 -0.797 0.594 182 148 113
-3554.3774 4425.1147 1409.7350 0.872 -0.489 -0.004 195 161 126
-3292.3696 4437.2603 1213.5557 0.627 -0.725 -0.285 242 143 140
-3347.5376 5249.0068 1050.5718 0.780 -0.448 0.437 206 172 162
-3010.4065 5531.3623 731.2275 0.669 -0.648 -0.364 67 52 43
-2866.2856 5882.2173 536.9707 0.994 0.011 0.107 141 100 92
-2425.2493 5997.4849 182.9541 0.609 -0.128 -0.783 98 70 56
-2136.8250 5559.7598 80.1652 -0.663 -0.700 -0.264 70 43 34
-2028.1221 5476.3584 20.9613 0.908 -0.147 0.392 245 213 216
-1783.1411 5551.3989 -178.4462 0.322 -0.677 0.662 247 237 238
-1587.2766 5250.6943 -247.3825 0.925 0.219 -0.311 254 252 247
-357.7909 3735.7839 -773.6082 -0.242 -0.895 0.375 251 36 78
-2974.9712 2674.2461 1411.7668 0.453 -0.828 -0.331 51 44 37
-2914.1099 2744.9724 1349.0858 0.882 -0.199 0.427 143 89 74
-2878.5715 2726.1201 1327.7079 0.664 -0.506 0.550 195 146 139
-2795.7295 2648.9021 1286.2954 0.933 -0.245 0.265 215 168 163
-3364.4954 3528.1296 1482.2761 0.848 -0.366 -0.384 214 187 164
-3215.8857 3416.7939 1401.1066 0.179 -0.331 0.927 195 169 146
-3213.9932 3460.4211 1388.6727 0.835 -0.010 -0.550 193 166 145
-3712.3113 4406.2837 1515.9542 0.976 -0.151 -0.155 185 155 146
-3697.6567 4478.3921 1486.9221 0.036 -0.831 -0.555 175 138 112
-3679.0122 4469.6675 1475.4115 0.050 -0.787 -0.614 177 137 112
-3360.6985 4412.4805 1255.6700 0.288 -0.756 -0.588 189 153 129
-3346.4014 5372.9858 1002.0647 0.972 0.135 0.191 205 173 160
-2957.9199 5547.1479 672.1438 0.317 -0.793 -0.520 35 24 18
-2428.9219 5926.9883 186.7780 0.412 -0.567 -0.713 102 74 60
-1429.9473 6148.8276 -604.4084 0.310 -0.064 -0.949 234 162 153
-421.9122 4644.5952 -965.4257 -0.473 -0.580 -0.663 253 76 108
-3374.2883 2917.1929 1632.9103 0.813 -0.567 0.134 35 36 30
-2980.1621 2690.4783 1401.3120 -0.119 -0.975 -0.189 101 47 31
-2797.6667 2635.9912 1281.1840 0.933 -0.245 0.265 240 201 192
-2795.1194 2641.9995 1277.7793 0.933 -0.245 0.265 238 202 198
-2855.8625 2758.7803 1292.5812 0.895 -0.442 0.054 207 208 201
-3089.4231 3274.8862 1332.3718 0.376 -0.920 -0.110 176 151 129
-3122.4053 3334.8528 1341.2877 0.852 -0.482 -0.205 195 168 147
-3130.7180 3366.8455 1339.2261 0.850 -0.467 -0.244 194 166 145
-3288.4751 3573.7590 1402.2727 0.319 -0.866 0.385 194 165 147
-3160.3230 3435.5029 1343.4431 0.646 -0.709 -0.285 193 164 146
-3818.2205 4349.1826 1593.4033 -0.611 -0.777 0.151 199 176 170
-3772.8669 4308.7100 1570.4246 -0.608 -0.780 0.150 206 183 175
-3738.2124 4280.9761 1552.0516 -0.617 -0.782 0.087 209 186 178
-3744.8843 4406.3125 1524.9557 0.981 -0.174 -0.085 196 167 159
-3753.9609 4477.9692 1513.3297 -0.127 -0.709 -0.694 190 152 130
-3542.0757 4386.3477 1381.0952 -0.378 -0.848 0.371 195 161 126
-3098.1340 5486.7100 774.1291 0.534 -0.842 0.078 184 137 122
-3040.2988 5399.8682 753.8200 -0.039 -0.808 -0.588 180 132 118
-2456.2512 5890.4478 199.6171 -0.610 -0.788 0.082 106 77 61
-2434.6792 5919.6758 176.3118 0.416 -0.572 -0.707 103 74 60
-1988.4402 5290.6899 9.1310 0.317 -0.343 0.884 225 193 194
-2008.8107 5376.5469 2.1748 0.937 -0.126 0.324 245 213 216
-1787.7572 6132.3198 -353.1185 0.236 -0.469 0.851 145 120 110
-1459.7931 5786.4727 -505.7101 -0.454 -0.890 0.039 214 162 141
-1455.8975 5809.3804 -514.4192 -0.412 -0.909 0.058 218 160 140
-3376.2358 2912.3953 1624.3905 0.813 -0.567 0.134 35 36 30
-3445.4517 2986.7087 1656.0012 0.836 -0.472 0.281 37 36 31
-2978.5779 2648.2500 1400.8621 0.567 -0.767 0.301 44 29 26
-2962.4194 2649.5591 1388.6785 0.929 -0.309 -0.201 61 39 34
-2957.3118 2705.1436 1370.6218 -0.557 -0.794 0.245 177 73 63
-2822.6519 2604.0261 1297.9325 0.494 -0.273 -0.826 182 111 105
-2821.4482 2611.3081 1295.1749 0.488 -0.276 -0.828 197 131 123
-2795.5000 2644.7979 1267.5282 0.946 -0.284 -0.156 238 219 215
-2848.9792 2718.0867 1287.8656 0.971 0.068 -0.230 169 167 161
-2843.5354 2748.2415 1276.1100 0.871 -0.236 -0.431 135 164 170
-3095.0906 3273.4150 1325.3132 0.376 -0.920 -0.110 94 73 49
-3105.8494 3296.6797 1327.2107 0.618 -0.738 -0.271 118 95 72
-3123.9575 3328.5269 1332.2865 0.848 -0.487 -0.210 151 125 102
-3121.7290 3337.0706 1328.4529 0.851 -0.484 -0.205 194 166 145
-3134.8677 3363.4438 1331.2947 0.850 -0.467 -0.244 195 166 145
-3145.4250 3386.9612 1332.9794 0.878 -0.419 -0.232 196 166 145
-3717.5732 4435.8447 1482.3776 0.030 -0.600 -0.799 184 145 122
-3709.1331 4440.2202 1475.0631 -0.183 -0.613 0.769 179 141 116
-3625.7749 4439.1680 1414.2202 -0.062 -0.940 0.335 197 163 131
-3580.0527 4533.4736 1356.4170 0.936 -0.246 -0.253 191 158 132
-3455.7961 4396.8281 1300.5028 0.937 -0.350 -0.017 185 156 131
-2720.7288 5127.9297 573.3442 0.736 -0.558 -0.384 23 17 10
-2677.6924 5083.7583 553.1656 0.699 -0.606 -0.380 22 16 9
-2479.6257 5928.0547 190.5613 -0.603 -0.791 0.100 109 77 59
-1554.2354 6036.5508 -515.8211 0.851 -0.522 -0.059 237 162 166
-1431.7332 5956.7393 -585.0831 0.691 -0.079 0.719 231 172 159
-1212.3673 6653.3555 -925.2775 0.136 -0.959 -0.247 221 140 123
-1203.1217 6656.6323 -932.8997 0.136 -0.959 -0.247 213 132 115
-2996.2126 2650.7200 1403.0643 0.260 -0.897 0.357 42 8 8
-2964.7312 2654.2390 1379.1118 0.911 -0.340 -0.232 160 64 60
-2992.2290 2689.8823 1389.9792 0.893 -0.373 -0.251 187 68 53
-3257.9829 2960.8625 1514.0947 -0.469 -0.832 0.296 196 62 47
-2842.1672 2617.6511 1298.9180 0.467 -0.532 -0.706 183 129 127
-2836.0134 2619.9497 1293.8176 0.507 -0.523 -0.686 198 154 151
-2829.6086 2621.9875 1288.6012 0.220 -0.907 -0.360 196 166 162
-2822.4243 2631.8005 1280.7954 0.293 -0.881 -0.371 164 155 156
-2817.4922 2635.3472 1276.2650 0.293 -0.881 -0.371 149 146 141
-2808.4407 2634.6531 1269.8210 0.381 -0.689 -0.617 191 187 175
-2797.4492 2631.9314 1262.4841 0.434 -0.668 -0.604 205 205 185
-2793.7705 2636.7512 1258.5403 0.434 -0.645 -0.629 212 220 203
-2834.3855 2687.6221 1275.0530 0.979 0.098 -0.176 213 232 226
-2837.9097 2700.1138 1274.3882 0.973 0.078 -0.216 204 236 241
-2839.5127 2710.6533 1272.8243 0.981 0.070 -0.180 132 175 186
-2843.7039 2723.9529 1272.4377 0.981 0.066 -0.184 67 120 134
-2845.8508 2735.1636 1271.0978 0.980 0.062 -0.190 49 114 135
-2847.4841 2745.8811 1269.5100 0.942 -0.221 -0.253 33 111 138
-2888.3171 2798.1499 1285.8190 -0.234 -0.806 0.543 21 108 142
-2869.6777 3262.0520 1151.7107 0.090 -0.945 -0.315 201 162 138
-3502.7571 4224.5952 1365.0554 -0.213 -0.689 0.692 194 163 143
-3471.3567 4198.5889 1348.8292 -0.213 -0.689 0.692 197 165 141
-3599.7439 4394.1411 1392.0042 -0.156 -0.903 0.399 198 167 140
-2363.7256 3340.6406 761.0358 0.789 -0.605 -0.108 210 164 139
-2286.3474 5521.0771 138.1857 -0.166 -0.907 -0.386 138 90 68
-2222.0916 5622.5854 64.8018 0.377 -0.474 -0.796 51 28 20
-2144.5786 5577.4478 19.7979 -0.550 -0.776 0.308 200 165 152
-1361.7744 5568.3994 -550.7255 -0.331 -0.837 0.436 241 183 180
-1206.1809 6290.3379 -852.0675 0.344 -0.704 -0.621 218 150 140
-1196.9525 6291.0312 -859.0011 0.080 -0.974 -0.210 218 149 140
-942.0298 5080.3477 -731.1647 0.146 -0.217 -0.965 221 149 136
-898.6898 5392.8677 -844.0381 0.211 -0.215 -0.954 208 130 113
-4584.8706 3535.9358 2321.6667 0.644 -0.748 -0.159 174 172 157
-2986.9146 2644.1145 1387.9163 0.559 -0.758 0.335 61 8 14
-2964.0264 2664.5547 1365.8435 -0.014 -0.914 0.406 224 62 60
-2853.9512 2623.4082 1296.2094 0.173 -0.654 -0.736 153 110 109
-2836.1343 2622.4563 1283.4434 0.220 -0.907 -0.360 166 145 144
-2844.8237 2718.6726 1264.5936 0.981 0.066 -0.184 41 115 141
-2853.7383 2754.9785 1261.5980 0.695 -0.616 0.372 11 110 151
-2763.4636 2694.8862 1211.3896 0.678 -0.729 0.098 15 90 137
-2882.8875 3326.4348 1133.2372 0.807 -0.289 0.514 186 150 129
-3028.9148 3606.3857 1166.5957 0.541 -0.040 0.840 196 163 141
-3501.2212 4374.3125 1310.5079 0.457 -0.234 -0.858 200 167 141
-2442.5364 3364.3254 801.6389 0.830 -0.441 -0.341 215 178 162
-2409.6484 3327.2776 787.3166 0.546 -0.768 -0.334 211 174 158
-3269.6458 5687.4780 797.4482 0.369 -0.254 0.894 201 158 151
-3195.6379 5595.7036 767.4199 0.452 -0.199 0.870 201 158 150
-2850.5842 5606.5854 512.5092 0.040 -0.315 -0.948 89 70 56
-2658.4531 5433.9253 417.3744 0.168 -0.773 0.612 165 117 100
-2645.9111 5430.1787 409.1938 0.168 -0.773 0.612 182 128 111
-2289.6008 5508.8149 128.3166 -0.157 -0.912 -0.378 141 91 68
-2385.1865 5923.3657 89.5783 0.658 -0.281 0.699 27 5 3
-2246.8684 5752.3989 33.3104 0.438 -0.093 -0.894 215 182 167
-1858.1812 6188.3389 -364.7894 -0.335 -0.928 0.165 246 236 237
-1239.8762 6663.6221 -940.9279 0.592 -0.215 -0.777 218 154 144
-1240.6838 6726.7847 -956.8790 0.571 -0.209 -0.794 219 153 141
-918.1498 5427.7666 -852.2999 0.181 -0.205 -0.962 208 131 115
-4592.5332 3545.4636 2310.6089 0.174 -0.968 -0.182 142 140 125
-2986.7092 2637.8159 1379.3755 0.508 -0.837 0.205 58 10 13
-2870.7881 2634.2202 1295.7983 -0.039 -0.562 -0.826 129 101 100
-2828.8152 2634.5305 1265.1108 0.441 -0.710 -0.549 138 163 170
-2840.5232 2690.0779 1258.9790 0.973 0.078 -0.216 48 118 149
-2844.5488 2756.7993 1244.2948 -0.307 -0.768 0.562 4 95 139
-2794.0417 2730.0664 1214.5260 -0.219 -0.798 0.561 24 97 144
-3087.5547 3351.0291 1264.5642 0.457 -0.146 0.878 88 59 36
-3043.9189 3333.2598 1237.4386 0.465 -0.146 0.873 73 44 24
-3019.8330 3548.8843 1162.9337 0.540 -0.045 0.840 205 164 137
-3515.7874 4397.6191 1300.4370 0.461 -0.232 -0.856 197 168 145
-2460.0017 3381.1841 799.0055 0.804 -0.433 -0.407 219 182 166
-2406.0483 3337.1951 771.2808 0.300 -0.778 -0.552 183 137 114
-2650.7891 5399.1807 405.2108 0.676 -0.689 -0.262 186 138 122
-2525.6084 5706.9238 232.6634 0.859 0.013 -0.512 178 113 89
-2246.3323 5589.3843 60.0623 0.149 -0.777 0.612 69 42 31
-2263.3035 5689.9790 45.8724 0.924 -0.315 0.215 106 76 65
-2259.8438 5794.0825 15.8580 0.999 -0.042 -0.006 205 169 155
-2201.2910 5662.0049 8.0419 -0.508 -0.780 0.366 201 165 151
-1926.1429 5269.9668 -89.0597 0.708 -0.057 -0.704 235 216 219
-977.3771 5172.7881 -755.2121 0.130 -0.217 -0.967 218 150 139
-4618.8457 3570.3979 2308.9675 0.683 -0.728 -0.064 113 111 98
-3415.0696 2940.7534 1600.4574 0.828 -0.440 0.347 14 14 8
-3006.8071 2642.6375 1382.6843 0.293 -0.890 0.349 38 9 6
-2988.1348 2633.1123 1371.6300 0.445 -0.875 0.191 55 15 15
-2974.3442 2662.3386 1353.8103 -0.068 -0.923 0.379 187 41 53
-2922.1040 2688.3237 1308.8679 0.357 -0.750 0.556 78 70 73
-2826.5229 2617.4551 1258.1698 0.300 -0.667 -0.682 46 76 86
-2816.9592 2616.2463 1251.5308 0.410 -0.286 -0.866 48 88 101
-2814.9788 2622.7690 1248.3524 0.388 -0.284 -0.877 43 101 122
-2840.8623 2719.4536 1241.4469 0.674 -0.717 -0.176 12 117 161
-2973.3115 3073.0273 1243.7019 0.740 -0.074 0.668 63 50 39
-2941.1731 3171.6133 1194.0587 0.846 -0.009 0.533 28 3 0
-2910.5957 3367.1135 1119.7460 0.649 -0.746 0.149 172 121 86
-2964.0491 3505.3616 1121.8398 0.651 -0.037 0.758 209 158 123
-3371.1658 4373.4912 1186.9976 0.782 -0.214 -0.586 187 89 102
-2461.3396 3361.5979 794.2230 0.951 -0.264 -0.163 232 195 179
-2469.2493 3385.7021 793.5617 0.844 -0.386 -0.373 222 185 169
-2470.1558 3399.4792 790.5530 0.783 -0.474 -0.404 206 169 153
-2413.1726 3338.7258 765.2548 0.300 -0.778 -0.552 165 120 96
-2407.0625 3354.1499 756.7006 -0.391 -0.842 -0.371 163 116 90
-2388.9805 3339.0435 747.5621 -0.345 -0.888 -0.305 163 116 90
-3016.2944 5337.1558 672.1031 0.401 -0.800 0.446 213 174 159
-2949.3044 5232.3916 651.2405 0.490 -0.651 0.580 209 170 155
-2744.8770 5132.1919 529.1286 0.537 -0.830 -0.151 180 158 150
-2557.3376 5270.1050 355.9049 0.504 -0.790 -0.350 202 146 129
-2522.6335 5731.8823 207.6851 0.301 -0.440 0.846 167 105 80
-2251.1208 5580.7695 50.3019 0.149 -0.777 0.612 115 81 66
-2237.1445 5570.8721 42.7649 0.132 -0.825 0.549 119 85 70
-2252.2600 5750.9106 5.8266 0.996 -0.078 0.054 215 179 165
-1935.1815 5274.8643 -98.1995 0.708 -0.059 -0.704 234 217 220
-1839.7108 6402.1553 -467.8589 0.477 -0.555 -0.681 232 182 185
-962.7883 5582.8125 -887.9563 0.215 -0.206 -0.955 211 134 116
-1053.7377 6416.0254 -1043.6237 0.621 -0.613 -0.489 209 127 110
-883.2060 5892.2461 -1028.2751 0.680 -0.162 -0.715 205 113 92
-868.7040 5845.6045 -1026.4109 0.410 -0.424 -0.808 197 105 84
-4614.1997 3558.8628 2294.4526 0.691 -0.721 -0.049 118 116 103
-2855.5212 2598.1760 1274.6396 0.072 -0.942 -0.327 89 73 73
-2841.7732 2626.7886 1256.9695 0.306 -0.656 -0.689 27 69 81
-2823.0857 2616.3369 1246.1984 0.388 -0.275 -0.880 41 95 113
-2823.2334 2625.0303 1243.9718 0.388 -0.284 -0.877 41 116 147
-2822.8479 2633.2112 1241.4954 0.388 -0.284 -0.877 28 121 165
-2822.2717 2641.2273 1238.9247 0.404 -0.300 -0.864 25 122 168
-2826.0947 2653.8052 1238.3254 0.421 -0.559 -0.714 25 121 168
-2804.4419 2666.1631 1219.2762 0.744 -0.163 -0.648 22 132 185
-2798.1365 2685.8818 1209.4012 0.532 -0.417 -0.737 14 110 149
-2998.8555 3241.9976 1205.9280 0.875 -0.037 0.482 39 21 10
-2931.2024 3361.3416 1124.7355 0.893 -0.316 0.321 180 123 86
-3419.6270 4307.0791 1225.6859 -0.032 -0.681 0.732 227 214 208
-2566.9617 3458.2014 834.0999 0.217 -0.332 0.918 222 186 170
-2410.1174 3288.5720 765.6887 0.958 -0.222 -0.184 202 165 149
-2737.1638 5525.4790 402.7502 0.208 -0.605 -0.769 201 152 138
-2484.6177 5671.8789 179.9639 0.329 -0.481 0.813 162 100 75
-1944.5574 5280.6904 -107.3821 0.716 -0.051 -0.696 202 177 181
-4584.0747 3515.6250 2270.1106 0.591 -0.774 -0.228 171 169 154
-4612.6006 3549.8696 2281.5286 0.657 -0.749 -0.080 128 126 113
-3270.4604 2740.2424 1527.3380 0.895 -0.427 0.127 13 12 7
-3419.1609 2931.2717 1583.4716 0.395 -0.646 0.653 18 18 10
-2809.3574 2596.2571 1231.9148 0.401 -0.539 -0.740 34 97 118
-2832.2942 2628.0955 1239.9312 0.726 -0.410 -0.552 37 121 158
-2842.6306 2655.8787 1239.9072 0.512 -0.459 -0.726 26 127 179
-2797.9834 2679.3511 1201.1755 0.337 -0.531 -0.777 18 114 156
-2773.0659 2661.9058 1187.8271 0.746 -0.402 0.531 16 108 154
-2788.4280 2695.7446 1189.8087 0.827 -0.551 -0.112 23 102 152
-3211.5867 3196.0496 1361.2706 -0.036 -0.897 0.440 27 35 28
-3233.3484 3240.6050 1364.9927 0.196 -0.969 0.152 57 38 25
-2916.3088 3148.1970 1160.0850 0.873 0.019 0.487 35 22 14
-2924.8625 3168.8411 1160.7007 0.858 -0.014 0.513 34 23 14
-2921.4954 3352.3213 1108.5968 0.645 -0.747 0.163 190 120 69
-2855.6423 3293.0156 1076.8916 0.707 -0.706 -0.036 194 121 68
-3306.8616 4203.1631 1157.7726 0.552 -0.600 0.579 232 219 205
-3334.3362 4285.0972 1155.5206 0.591 -0.803 0.077 182 110 116
-3332.8789 4313.2100 1146.8545 0.659 -0.510 0.552 216 67 87
-3346.2688 4377.5679 1139.1454 0.756 -0.527 0.388 220 57 76
-2454.0259 3296.2761 784.7540 0.431 -0.204 0.879 224 188 172
-2462.2559 3344.6323 777.6340 0.942 -0.269 -0.200 207 170 154
-2467.1921 3364.1768 775.9238 0.930 -0.281 -0.239 187 150 134
-2225.2195 5443.9395 37.5210 0.634 -0.638 0.436 147 104 80
-2232.4563 5489.4082 30.4624 0.927 -0.328 0.181 147 104 81
-1777.2871 4747.3794 -98.7872 0.947 0.117 -0.300 209 182 187
-1923.2561 5224.2051 -121.9902 0.599 -0.527 0.603 244 219 223
-1878.9586 5202.5273 -148.2476 -0.696 -0.565 -0.443 255 234 237
-934.5117 6106.0337 -1077.7164 -0.490 -0.736 -0.467 210 118 97
-4601.0034 3532.7019 2263.6482 0.595 -0.776 -0.210 141 139 126
-3439.1218 2943.1831 1583.4343 0.859 -0.424 0.287 18 18 10
-2883.1208 2588.2859 1277.7903 -0.163 -0.987 0.005 15 3 5
-2855.8311 2569.6829 1263.1116 -0.046 -0.913 -0.406 8 7 8
-2805.4390 2707.3296 1189.0751 0.673 -0.735 0.081 30 108 157
-3258.3408 3249.2966 1369.0433 0.988 -0.153 -0.033 44 41 37
-2904.0254 3084.5183 1157.5205 0.479 -0.470 0.741 22 14 6
-2853.2615 3315.6462 1057.7078 0.610 -0.640 -0.468 186 102 40
-3199.8799 4061.6838 1105.0559 0.367 -0.820 0.439 226 203 191
-3209.0920 4088.4539 1104.4200 0.416 -0.881 0.223 206 162 156
-3275.4089 4193.4326 1123.7815 0.672 -0.726 0.150 188 117 120
-3353.3135 4314.9800 1147.0100 0.930 -0.165 -0.329 191 95 105
-3337.7090 4323.7617 1133.3180 0.555 -0.596 0.580 203 64 77
-3292.9167 4307.0947 1105.4413 0.674 -0.711 0.202 240 106 115
-3295.2441 4325.5547 1102.0890 0.748 -0.640 0.177 232 148 140
-2462.3911 3287.5947 782.4162 0.414 -0.211 0.886 204 168 152
-2412.5198 3250.3850 756.4680 0.704 -0.604 -0.374 213 177 161
-2273.3933 3472.3152 595.2004 0.594 -0.779 0.201 204 171 156
-1931.1790 5253.2065 -138.4583 0.475 -0.872 -0.116 255 230 235
-4534.1284 3449.1357 2224.2014 0.640 -0.487 -0.595 199 197 182
-2998.8669 2670.2322 1329.1134 -0.195 -0.724 0.661 23 4 10
-2890.4241 2589.4651 1272.9716 -0.163 -0.987 0.005 21 12 20
-2805.5850 2701.0576 1180.9760 0.634 -0.770 0.075 38 112 158
-3074.6011 3187.6455 1241.5204 -0.125 -0.465 -0.877 44 8 15
-3102.8684 3933.5063 1056.7943 0.310 -0.809 0.500 225 181 173
-3189.7134 4166.9009 1055.3496 0.804 -0.494 0.332 230 177 159
-2376.3240 3142.5571 749.3709 -0.037 -0.839 -0.543 210 178 163
-2409.0435 3236.4612 747.1843 0.738 -0.669 -0.092 78 44 30
-2379.9260 3240.7935 724.9534 0.935 -0.214 -0.281 99 64 45
-2298.8779 3190.1348 680.3246 0.575 -0.803 0.156 96 49 26
-2337.7068 3501.5312 622.7307 -0.570 -0.592 0.570 212 179 167
-2307.2031 3465.0232 610.7313 -0.576 -0.599 0.557 212 178 167
-2216.6951 5512.9307 -17.9494 0.961 0.090 -0.262 192 155 139
-2211.7937 5526.8564 -25.3213 0.740 -0.544 -0.397 203 166 150
-1917.3658 5164.5977 -138.4245 0.573 -0.566 0.593 222 194 199
-1810.6852 5652.7305 -349.7707 0.887 0.030 -0.461 231 213 217
-1867.0823 6119.0825 -437.2915 0.841 0.178 -0.511 240 209 213
-4540.5791 3436.4128 2218.5488 0.995 0.006 -0.097 203 201 186
-4516.8594 3438.2017 2200.9451 0.539 -0.583 -0.608 189 190 174
-3098.1902 2716.8140 1377.7363 0.025 -0.502 -0.864 42 29 17
-2914.2595 2598.4641 1277.8888 -0.025 -0.996 -0.089 14 11 13
-3242.4392 3206.4155 1346.0360 0.137 -0.507 0.851 44 67 70
-3130.6748 3200.3025 1267.1212 -0.131 -0.482 -0.866 40 33 26
-3121.2041 3200.3501 1260.2772 -0.123 -0.477 -0.870 32 27 21
-3100.8479 3220.0085 1240.1453 -0.114 -0.475 -0.873 21 13 8
-2994.7769 3394.4148 1115.2889 0.748 -0.316 0.583 182 109 70
-3117.8801 3971.3440 1044.1263 0.539 -0.616 0.574 255 199 176
-2431.4585 3213.5056 759.1537 0.289 -0.622 -0.727 206 176 158
-2415.5149 3213.7197 747.5951 0.768 -0.627 -0.131 136 113 92
-2355.1084 3242.3882 696.0790 0.527 -0.225 0.820 72 36 16
-2306.2744 3192.4995 674.6891 0.749 -0.637 0.183 65 28 9
-2928.8418 5054.5854 607.4605 0.432 -0.612 -0.662 206 173 160
-2337.1470 5310.7803 109.6744 1.000 0.009 -0.011 181 117 90
-2156.6699 4917.9341 88.4204 0.914 -0.124 0.385 172 116 89
-2127.5989 5307.4868 -40.5483 0.928 -0.348 0.135 215 174 162
-2108.0381 5307.1357 -54.5591 -0.110 -0.627 0.771 206 165 153
-1943.4863 5219.1729 -148.8542 0.626 -0.583 0.518 235 200 203
-1952.1670 5271.4502 -157.0869 0.795 -0.595 -0.117 244 209 212
-4620.9463 3526.1873 2237.5146 0.713 -0.684 -0.155 163 161 146
-3221.0471 2792.2451 1434.7788 -0.192 -0.672 -0.715 56 42 33
-3130.2498 2750.0305 1381.2074 -0.020 -0.564 -0.825 40 27 18
-3094.9590 2724.8918 1362.8253 -0.244 -0.676 -0.695 27 20 16
-2919.0266 2597.1099 1271.8737 -0.107 -0.990 -0.093 13 11 12
-2844.2322 2632.6682 1208.0909 0.847 -0.340 -0.409 105 152 177
-3197.5759 3192.4070 1306.0621 -0.072 -0.654 0.753 56 26 14
-2807.6172 3289.5557 998.1734 0.595 -0.031 0.803 205 118 51
-2769.4722 3274.7932 974.8371 0.571 -0.039 0.820 207 118 50
-2467.3254 3256.3958 762.4543 0.368 -0.591 -0.718 210 175 156
-2439.0801 3227.4421 750.2103 0.683 -0.601 -0.415 201 174 152
-2430.1448 3226.2058 744.1230 0.673 -0.719 -0.172 140 118 97
-2422.1758 3226.3403 738.3484 0.674 -0.710 -0.204 63 42 23
-2409.3469 3219.3718 731.0599 0.770 -0.624 -0.136 50 28 10
-2729.9873 4866.4229 501.6540 0.531 -0.801 -0.278 203 166 160
-2207.5093 5420.4429 -29.3045 0.993 0.033 -0.117 186 144 130
-2014.6140 5136.1851 -88.7434 0.239 -0.609 -0.756 225 190 188
-1993.5112 5103.7441 -94.8708 0.264 -0.550 -0.792 225 190 188
-1750.9343 4946.2852 -225.5089 0.253 -0.827 -0.502 246 232 235
-1836.3080 5321.2622 -268.8277 0.806 0.110 -0.582 248 236 240
-1812.0609 5703.2378 -393.0211 0.346 -0.493 0.798 254 231 239
-329.6389 2639.5281 -604.1494 0.444 -0.850 0.283 243 54 87
-4617.8452 3516.0828 2224.0298 0.979 -0.200 0.033 163 161 146
-3414.9385 2743.6179 1577.1556 0.568 -0.701 0.432 25 18 3
-3610.6692 3007.7410 1643.4258 0.060 -0.520 0.852 93 73 60
-3219.0813 2766.3801 1430.0005 0.328 -0.641 0.693 59 42 32
-3194.9690 2752.5271 1416.5746 -0.202 -0.959 0.199 65 48 38
-2856.4451 2656.0984 1200.4651 -0.019 -0.872 0.489 82 102 125
-3047.7834 2964.6597 1251.0641 0.857 -0.062 0.512 87 152 177
-3257.2202 3217.5039 1330.3600 0.439 -0.697 0.567 68 60 44
-3155.8647 3202.2314 1261.8262 0.481 -0.453 0.751 42 32 20
-3168.4082 3226.5847 1263.9816 0.430 -0.438 0.790 55 43 32
-2695.1965 3436.9150 864.6935 0.931 -0.330 -0.158 209 154 118
-2855.0203 3670.5527 913.7462 0.443 -0.086 0.892 214 159 123
-2707.4426 3503.1755 854.8332 0.369 -0.153 0.917 217 170 141
-2431.9180 3583.0603 634.3412 -0.301 -0.744 0.596 212 181 171
-2408.6697 3559.2874 624.3300 0.115 -0.911 0.397 211 181 174
-2390.3323 3543.2178 615.6782 -0.426 -0.846 0.320 217 194 191
-2318.8093 3467.3003 585.6614 -0.559 -0.643 0.523 20 2 1
-2379.6765 4344.2334 382.4352 -0.347 -0.734 0.584 176 138 129
-2785.3445 6046.1406 194.6533 0.989 -0.027 -0.144 186 125 104
-2007.2251 5070.7090 -89.8046 -0.159 -0.978 0.134 226 190 187
-2018.7294 5127.4077 -97.5052 0.278 -0.604 -0.747 225 190 188
-2001.5730 5105.9126 -103.7804 0.276 -0.545 -0.792 225 190 188
-1763.8341 5578.2837 -407.6527 0.324 -0.575 0.751 255 233 240
-1451.8466 4788.3989 -409.3988 -0.283 -0.936 -0.207 238 187 192
-4616.8086 3572.6824 2193.1526 0.377 -0.465 -0.801 25 22 7
-3411.6975 2734.6875 1566.5714 0.379 -0.925 -0.010 78 64 52
-3396.9331 2730.3450 1557.2135 0.280 -0.957 -0.069 90 73 58
-3418.5386 2846.0266 1539.8790 0.061 -0.576 0.815 134 109 92
-2906.0625 2589.1528 1245.1890 -0.005 -0.939 -0.345 12 12 13
-2859.3000 2652.7820 1193.5878 0.054 -0.895 0.444 161 159 183
-2905.1611 2788.8108 1187.8768 0.535 -0.278 -0.798 57 134 156
-3034.5779 2963.0049 1231.2678 0.922 -0.091 0.377 85 96 89
-3159.6233 3251.7273 1239.0184 0.524 -0.369 0.767 16 15 11
-2868.5593 3183.2219 1049.6838 0.942 -0.244 -0.232 45 21 4
-2701.3235 3436.3281 857.8923 0.967 -0.136 -0.215 199 133 87
-2565.7214 3331.5288 790.3698 -0.665 -0.742 -0.085 207 152 115
-2490.5459 3237.0764 763.2537 0.148 -0.597 -0.789 223 167 131
-2482.6995 3260.9165 750.8594 0.368 -0.591 -0.718 220 168 143
-2479.4070 3267.9531 746.5007 0.343 -0.604 -0.719 185 147 128
-2474.2795 3284.2053 738.2103 0.312 -0.883 -0.352 62 28 13
-2440.4954 3247.1279 724.5002 -0.119 -0.630 0.767 73 42 26
-2378.6445 3203.7014 692.4603 0.341 -0.756 0.558 52 18 2
-2437.9626 3438.8413 668.2728 0.655 -0.129 -0.744 202 169 154
-2481.0068 3570.2966 661.8393 0.941 -0.093 -0.326 209 183 170
-2397.0227 3543.9036 609.0891 -0.413 -0.842 0.348 107 91 85
-2659.4680 5762.6099 167.6412 0.311 -0.733 -0.605 193 132 111
-1747.9115 4921.7441 -247.5611 0.081 -0.790 0.608 214 197 203
-1744.6102 5274.0127 -349.9075 0.514 -0.776 -0.366 250 239 245
-1758.6295 5503.5630 -405.0008 0.110 -0.755 0.647 252 227 235
-1863.6586 5994.8154 -469.0881 0.809 0.153 -0.567 253 224 229
-311.8340 2454.2634 -577.3432 0.582 -0.811 0.062 255 133 144
-344.3763 3727.3379 -915.3157 -0.158 -0.717 -0.679 252 80 117
-3414.3967 2730.9653 1558.8035 0.375 -0.927 -0.022 151 131 120
-3401.6985 2728.4402 1550.4340 0.283 -0.959 -0.014 155 131 118
-3801.9714 3088.0264 1734.1770 -0.036 -0.588 0.808 155 131 119
-3410.8162 2832.6760 1527.1506 0.134 -0.505 0.853 146 113 92
-2870.4871 2640.7354 1195.1844 0.931 -0.060 -0.359 143 129 152
-2867.2017 2654.5972 1188.8678 -0.195 -0.906 0.376 149 136 157
-3187.2866 3253.2039 1246.8385 0.630 -0.442 0.638 30 17 3
-2484.2898 3254.4517 743.1546 0.333 -0.625 -0.706 79 16 0
-2456.0293 3225.7356 731.1338 -0.114 -0.993 -0.028 70 22 9
-2444.4287 3232.3604 720.9333 -0.104 -0.992 -0.065 85 44 32
-2380.3198 3197.4502 685.0174 0.341 -0.756 0.558 64 25 14
-2441.9836 3435.4712 661.0929 0.666 -0.077 -0.742 216 183 168
-2710.2881 5833.2964 167.4132 -0.295 -0.908 0.297 199 138 117
-2246.1423 5407.7080 -43.1844 0.976 0.060 -0.210 191 150 121
-2249.9827 5443.6050 -50.7014 0.976 0.060 -0.210 199 157 134
-2182.7922 5346.5220 -71.0421 0.861 -0.048 0.506 200 158 146
-2057.7515 5245.3027 -131.6193 0.797 -0.038 0.602 230 195 193
-1754.2253 5282.0161 -359.4359 0.539 -0.761 -0.360 255 244 252
-1752.2283 5305.0933 -367.4658 0.540 -0.775 -0.329 255 242 249
-4476.0903 3358.2412 2126.0217 0.659 -0.293 0.693 203 201 186
-3672.9707 2968.3198 1664.4371 0.167 -0.973 0.160 163 132 122
-3359.9080 2789.2271 1492.3170 0.147 -0.499 0.854 102 64 38
-3197.9219 2727.8975 1394.2269 0.450 -0.806 -0.384 68 43 33
-3193.5295 2732.4751 1389.7687 0.450 -0.806 -0.384 75 58 48
-3196.6545 2744.1025 1388.6512 0.407 -0.857 -0.317 49 36 27
-3199.7053 2900.1489 1345.8610 0.995 -0.041 0.087 55 65 75
-3184.3345 3242.1970 1236.3025 0.630 -0.442 0.638 53 36 18
-2874.5518 3174.6711 1034.3741 0.942 -0.244 -0.232 114 91 73
-2458.7107 3186.4189 733.8051 0.271 -0.873 0.405 204 125 74
-2485.1921 3235.4048 738.6132 -0.515 -0.825 -0.235 170 92 44
-2469.4319 3224.6135 730.4599 -0.123 -0.992 0.017 118 45 6
-2573.0403 3706.8923 665.5181 0.889 -0.221 -0.401 199 185 169
-2387.7510 3522.2986 586.2973 0.093 -0.870 0.484 15 13 1
-2740.6570 5882.4033 158.3531 0.681 0.049 0.731 204 143 122
-1591.7120 3551.9617 8.8544 0.138 -0.862 0.488 178 123 93
-2325.0850 5537.2573 -39.1717 0.947 0.251 0.199 168 127 97
-1970.8322 5114.2603 -170.4386 -0.236 -0.657 -0.716 229 190 193
-1750.3839 5275.6338 -374.4890 0.456 -0.802 -0.386 255 242 249
-1758.4163 5422.4229 -411.0513 0.387 -0.668 0.635 248 221 228
-1757.6748 5450.7949 -419.7576 0.108 -0.793 0.599 247 220 227
-1054.8959 6671.6777 -1273.8453 -0.087 -0.890 0.448 215 126 112
-4514.5195 3371.5532 2136.0508 0.434 -0.457 -0.776 203 201 186
-4510.6992 3378.8040 2131.2202 0.745 -0.430 0.510 197 195 180
-3335.5527 2709.3337 1487.3361 -0.310 -0.776 0.550 178 141 125
-3286.9192 2777.9065 1432.7323 -0.105 -0.712 0.695 74 35 28
-2853.2754 2479.7188 1209.9821 0.729 -0.284 -0.623 17 17 17
-2984.7397 2647.7273 1254.9758 0.790 -0.611 0.060 12 12 12
-2889.5608 2708.4197 1169.4575 0.965 -0.201 0.169 213 195 205
-2899.6018 2727.5803 1171.0564 0.975 -0.139 0.173 208 204 212
-3181.1936 3231.0237 1225.7413 0.630 -0.457 0.628 72 53 34
-2879.2236 3172.4165 1027.3518 0.937 -0.253 -0.239 168 142 123
-2396.7451 3347.7620 632.2650 0.540 -0.072 -0.839 216 183 166
-1558.5027 3506.9592 -11.9136 -0.071 -0.957 0.282 170 125 96
-1739.8202 5247.2959 -387.9177 0.575 -0.747 -0.333 254 237 246
-1779.2078 5498.1260 -432.6550 0.578 -0.707 0.407 252 225 232
-819.9438 4791.4131 -911.7269 0.222 -0.960 -0.170 218 135 121
-284.3142 2520.6401 -634.4442 0.614 -0.488 0.620 251 122 135
-4527.7832 3364.6353 2133.9268 -0.090 -0.436 -0.896 204 202 187
-3450.4016 2778.6055 1538.2510 -0.008 -0.716 0.698 112 75 67
-3260.9990 2654.0215 1439.8395 -0.301 -0.801 0.518 122 76 46
-3244.6282 2664.5479 1425.1035 0.721 -0.047 0.691 109 63 35
-3165.9409 2677.3894 1365.3193 0.133 -0.624 0.770 78 35 28
-3156.3962 2694.1150 1353.6301 0.799 -0.578 0.170 55 34 27
-2978.5312 2635.6123 1244.1011 0.803 -0.594 0.049 11 15 12
-2808.2495 2526.9536 1154.6451 0.714 -0.339 -0.612 23 50 55
-2899.5176 2703.4780 1167.9868 0.464 -0.311 -0.830 206 185 195
-2909.8242 2749.5095 1161.8588 0.950 -0.189 0.248 205 228 238
-2978.3418 2847.9751 1181.8383 0.319 -0.379 0.869 125 186 189
-3091.7876 3064.5339 1199.2588 -0.101 -0.640 0.762 197 165 134
-3019.2332 2996.2805 1167.5660 0.165 -0.932 0.324 198 164 135
-3152.7063 3202.6021 1202.2416 0.836 -0.189 -0.515 24 15 4
-2802.3552 3021.6021 1005.7356 0.505 -0.862 0.035 30 31 24
-2902.9934 3203.7190 1024.1130 0.944 -0.097 -0.314 146 94 66
-2591.8020 3701.6951 656.8508 0.297 -0.126 0.946 157 144 124
-2534.2744 3653.2705 630.0567 0.259 -0.137 0.956 25 19 7
-1566.6783 3514.2571 -18.2265 0.019 -0.971 0.240 170 125 98
-2199.1340 5354.5068 -106.2793 -0.273 -0.853 -0.445 200 158 146
-1829.0798 5277.4409 -347.2209 -0.212 -0.874 0.438 252 237 243
-1828.5466 5543.2471 -425.3639 0.272 -0.921 -0.280 253 232 239
-4559.6738 3382.7744 2137.6577 -0.028 -0.401 -0.916 193 190 175
-3440.1104 2763.4358 1524.5164 -0.014 -0.808 0.589 103 67 52
-3321.9885 2693.7476 1461.1058 -0.386 -0.816 0.431 111 61 42
-2906.3455 2660.6707 1175.4531 0.972 -0.219 -0.079 199 208 219
-2897.6079 2677.7888 1164.1979 0.472 -0.563 -0.678 183 178 178
-3108.9368 3065.6648 1200.0690 0.080 -0.476 0.876 198 163 129
-3034.1909 2995.4614 1167.6379 0.163 -0.895 0.414 195 163 132
-3115.9307 3134.0229 1184.8917 0.908 -0.024 -0.418 81 74 34
-3009.2190 3311.5178 1056.7358 0.986 0.130 0.103 170 97 64
-1569.8391 3509.1040 -24.4825 0.514 -0.779 0.360 190 147 127
-1827.2510 5249.2949 -354.4408 -0.257 -0.892 0.373 250 232 233
-337.2959 2326.6882 -551.9584 0.560 -0.747 0.359 255 15 62
-4647.6143 3466.3228 2161.5715 -0.126 -0.476 -0.870 180 177 162
-3427.0068 2745.8667 1509.5973 0.196 -0.702 0.684 101 68 49
-3319.5486 2685.5859 1451.2655 -0.329 -0.817 0.474 111 62 43
-2927.3362 2599.0029 1198.7401 0.689 -0.692 -0.215 36 49 55
-2913.0681 2678.4829 1165.0190 -0.009 -0.808 0.589 171 168 167
-2385.3867 3219.6182 630.0089 0.757 -0.082 -0.648 141 94 68
-2323.5364 3432.1780 523.0190 -0.156 -0.806 0.571 10 8 4
-2210.7329 4674.5527 74.1079 0.140 -0.791 0.596 206 159 149
-2209.3401 4692.2695 67.8594 0.181 -0.670 0.720 206 159 148
-2163.3032 4628.3960 54.1666 0.026 -0.412 -0.911 204 158 143
-1978.7206 5402.0298 -306.4846 0.809 0.161 -0.565 254 233 233
-1832.6150 5243.5757 -363.0829 -0.265 -0.948 0.177 255 238 239
-1961.6516 6198.0000 -554.9344 0.802 0.158 -0.576 252 202 206
-4659.4150 3457.7671 2158.5325 0.309 -0.406 -0.860 183 180 165
-3207.5686 2605.4058 1385.4498 0.003 -0.925 0.380 127 76 57
-3279.4685 2677.7598 1414.7196 0.727 -0.395 0.561 123 72 53
-2924.7712 2590.5193 1189.6586 0.653 -0.726 -0.214 28 41 47
-2890.0583 2657.7083 1144.9827 0.223 -0.711 0.667 178 167 161
-3109.0847 3101.5691 1167.3110 0.939 -0.092 0.331 96 89 57
-2456.6541 3451.5022 600.6702 0.305 -0.132 0.943 171 116 85
-2388.6812 4973.3042 97.3636 -0.053 -0.695 -0.717 210 163 153
-1841.2081 5192.0122 -355.7087 -0.144 -0.858 0.492 254 228 231
-1834.5419 5255.4722 -379.4100 -0.246 -0.951 0.189 253 240 240
-1783.6404 5325.7319 -436.4674 -0.211 -0.693 -0.689 255 237 243
-1765.4509 5446.9478 -485.6032 0.976 0.184 0.115 253 218 225
-1690.9626 5258.2295 -481.9007 -0.217 -0.936 -0.277 252 202 206
-1665.0470 5230.5425 -491.9698 -0.290 -0.805 -0.518 241 189 193
-313.7705 2788.5950 -718.3896 0.124 -0.338 -0.933 252 79 116
-4757.0078 3549.1965 2186.0168 0.374 -0.280 -0.884 156 153 138
-4749.2646 3553.8240 2179.1499 0.376 -0.273 -0.885 145 142 127
-4754.5186 3568.8635 2178.3320 0.428 -0.298 -0.853 144 138 124
-3461.5161 2746.4854 1512.2471 0.825 -0.554 0.110 111 76 56
-3209.2324 2601.0552 1377.7565 0.277 -0.923 0.268 127 76 57
-3200.8318 2601.7871 1371.5986 0.277 -0.923 0.268 126 73 55
-3257.9988 2669.4285 1391.6233 0.813 -0.410 0.413 115 59 41
-3250.0259 2670.6943 1385.6069 0.812 -0.418 0.408 111 54 34
-3655.6731 3082.8430 1548.1321 0.542 -0.367 0.756 108 43 23
-2930.2561 2674.6250 1158.4192 0.295 -0.496 0.817 193 185 182
-2914.5452 2667.5183 1149.4563 -0.070 -0.810 0.582 211 198 189
-2891.6360 2653.1072 1137.6066 0.223 -0.715 0.663 219 202 190
-3111.3354 3096.6516 1159.2507 0.939 -0.094 0.331 43 35 10
-2477.7898 5087.3711 111.7086 0.507 -0.818 0.272 214 168 153
-2297.6863 4817.5767 65.7018 0.408 -0.624 0.666 217 170 160
-1774.2355 5157.9160 -406.7958 -0.039 -0.988 -0.149 255 240 241
-311.3846 2766.9043 -720.3208 -0.050 -0.339 -0.939 255 70 114
-4293.3970 3077.6704 1987.7847 0.445 -0.678 -0.586 199 197 184
-4304.5645 3105.1836 1987.3136 0.039 -0.965 0.261 198 196 183
-4748.2427 3577.9382 2156.8459 0.960 -0.279 -0.020 134 125 110
-3524.5808 2734.5127 1549.5537 -0.195 -0.704 0.683 121 103 91
-3392.4824 2818.8225 1430.7791 0.006 -0.782 0.624 127 54 37
-3202.9922 2664.2942 1343.9956 0.185 -0.764 0.618 119 48 32
-3119.3767 3097.9839 1153.3995 0.947 -0.075 0.312 26 16 1
-2850.4084 3081.5432 968.6432 -0.024 -0.978 0.205 113 66 40
-2790.7034 3052.1360 935.4479 0.523 -0.847 -0.090 93 48 22
-2399.6958 3202.7747 613.8956 -0.184 -0.957 -0.223 184 137 111
-2300.8379 3430.9951 474.8993 0.143 -0.242 -0.960 34 26 23
-2229.4824 3417.8428 428.5523 0.770 -0.534 -0.349 40 32 30
-2221.0918 3443.3127 414.9039 -0.026 -0.994 -0.106 24 16 14
-2478.7083 5568.8799 -48.3900 -0.193 -0.508 0.840 212 169 152
-2287.2593 5181.5981 -65.9232 -0.354 -0.565 0.746 212 169 152
-2568.8999 1609.0292 1209.7423 0.698 -0.398 0.595 194 188 174
-4767.9692 3586.1284 2153.9226 0.927 -0.374 0.023 135 126 109
-3424.2322 2685.4521 1483.0209 0.846 -0.531 0.057 133 104 88
-3272.9382 2629.1704 1393.6899 -0.048 -0.697 0.715 147 92 75
-2986.2695 2623.6753 1193.5132 0.690 -0.354 -0.632 14 25 32
-2847.0737 2554.5547 1116.6252 0.609 -0.559 0.563 158 155 154
-2897.0530 2646.2095 1123.8046 0.079 -0.777 0.625 202 172 151
-2831.9277 3052.3218 953.8221 0.007 -0.979 0.202 83 49 26
-2812.3755 3039.5684 943.9525 -0.041 -0.963 0.265 87 53 28
-2797.8179 3042.8147 932.7096 0.187 -0.970 -0.158 87 55 32
-2795.2649 3050.0334 928.7056 0.523 -0.847 -0.090 88 57 33
-2516.3772 3165.4846 697.0416 -0.232 -0.857 -0.461 197 111 50
-2245.6277 3448.0398 420.0341 0.803 -0.545 -0.243 22 14 12
-2136.7041 3342.4587 375.6060 0.742 -0.623 -0.245 38 28 19
-2551.7288 5060.1250 142.8537 0.623 -0.511 -0.592 220 174 159
-2510.8047 5037.7251 120.8836 -0.053 -0.635 0.771 211 165 150
-2437.1433 5008.1235 78.0629 0.481 -0.605 0.634 218 171 161
-2293.4070 5299.1191 -112.0886 0.335 -0.275 0.901 219 176 159
-4366.9800 3064.6868 2018.2562 -0.274 -0.957 -0.099 194 195 181
-4326.7764 3090.2483 1982.1316 0.691 -0.637 -0.341 182 180 167
-4326.9561 3099.8184 1979.3119 0.037 -0.968 0.250 174 172 159
-3433.6001 2721.2966 1467.9471 0.200 -0.858 0.473 142 111 95
-3284.5371 2650.0759 1385.1038 0.783 -0.385 0.488 140 89 72
-3280.6409 2654.9673 1380.8596 0.902 -0.309 0.303 129 77 61
-3276.6980 2659.8267 1376.5928 0.891 -0.320 0.321 125 72 54
-3273.3381 2665.2131 1372.5732 0.816 -0.421 0.397 119 65 49
-3274.4067 2682.9917 1367.8517 -0.096 -0.836 0.540 129 54 36
-3250.2537 2678.1953 1352.3525 -0.007 -0.887 0.461 132 51 34
-3235.7190 2673.5261 1343.5743 -0.007 -0.887 0.461 134 54 38
-3226.6653 2673.7727 1337.1351 0.181 -0.477 -0.860 136 57 41
-3251.1257 2817.9841 1309.9358 0.980 -0.079 0.181 41 28 23
-2861.0525 2646.5571 1088.5475 0.624 -0.765 0.157 126 85 51
-2894.4824 2750.9834 1079.8989 0.725 -0.216 0.654 214 195 174
-3021.4292 3027.4587 1084.0171 0.837 -0.418 0.354 20 13 3
-2996.2634 3009.9126 1071.7308 -0.381 -0.904 0.196 20 13 4
-2798.2456 3046.0591 921.4306 0.518 -0.849 -0.101 140 119 97
-2306.5103 2870.2041 629.9539 -0.026 -0.822 -0.569 204 118 57
-2354.0608 3344.0586 517.5126 -0.120 -0.956 -0.267 191 98 48
-2327.8687 3403.5583 480.7888 0.210 -0.212 -0.954 157 85 53
-2329.2595 3418.5740 477.1444 0.210 -0.212 -0.954 145 84 60
-2339.1135 3447.2363 475.2472 0.188 -0.227 -0.956 71 51 43
-2252.1765 3462.2251 409.5312 -0.039 -0.993 -0.115 24 16 14
-2227.8149 3434.6104 400.9093 0.743 -0.565 0.359 24 16 14
-2249.3394 3497.5718 396.6567 -0.281 -0.832 -0.477 24 16 14
-2135.6196 3330.8054 368.0644 0.618 -0.786 -0.013 38 28 19
-2664.4065 5418.5210 97.0761 -0.124 -0.525 -0.842 226 180 165
-2342.3811 5089.2422 -27.8961 -0.349 -0.650 -0.675 222 176 161
-2305.1523 5211.6475 -91.7404 -0.360 -0.561 0.745 225 182 165
-4199.4521 2922.8723 1932.0134 -0.543 -0.789 -0.288 196 196 182
-4332.6221 3088.1626 1974.1959 0.691 -0.637 -0.341 175 173 160
-4330.1567 3095.6858 1970.1344 0.238 -0.930 -0.281 168 166 153
-3508.6367 2703.1626 1515.4991 0.290 -0.931 0.224 134 118 108
-3464.3306 2674.2668 1493.3748 0.236 -0.972 0.013 126 111 98
-3456.5876 2676.0649 1487.3855 0.236 -0.972 0.013 127 112 99
-3446.2527 2675.6575 1480.2616 0.267 -0.963 0.040 127 112 98
-3427.5723 2693.2209 1461.7123 0.848 -0.437 0.299 143 116 99
-3372.5269 2687.7322 1424.7981 0.269 -0.385 0.883 147 114 96
-3266.3862 2644.7673 1363.6569 0.954 -0.220 0.203 123 73 55
-3195.5955 2656.4170 1310.3843 0.936 -0.319 0.150 143 61 43
-3181.1648 2651.6643 1301.7340 0.986 -0.165 -0.033 141 59 38
