ply
format ascii 1.0
element vertex 795
property float x
property float y
property float z
property float nx
property float ny
property float nz
property uchar diffuse_red
property uchar diffuse_green
property uchar diffuse_blue
end_header
-3546.1396 3084.7185 881.1677 -0.361 -0.522 -0.773 46 38 37
-3314.4236 3042.6179 750.8835 0.290 -0.824 -0.487 53 41 32
-3319.4500 3057.0730 748.0963 0.378 -0.821 -0.428 75 54 45
-3228.8059 3220.1350 622.7122 0.711 -0.481 -0.513 101 59 47
-3228.2664 3229.7849 618.3681 0.883 -0.298 -0.361 89 47 35
-3244.4807 3278.2524 608.6154 0.616 -0.399 0.680 80 38 26
-3233.9756 3277.2903 602.3163 0.602 -0.417 0.681 86 44 32
-3246.1853 3375.6177 569.3425 0.402 -0.911 -0.094 82 39 29
-2628.3625 3360.1953 181.8288 -0.046 -0.669 0.742 70 26 19
-2599.2363 3354.6450 165.5594 0.102 -0.975 -0.196 56 26 14
-2403.9473 3976.5315 -216.7341 0.662 -0.722 -0.201 227 190 184
-1465.4730 4376.5210 -980.8815 0.460 -0.503 -0.732 247 201 201
-1011.9890 4645.4595 -1381.4900 0.498 -0.280 -0.821 210 30 41
-4111.0015 2607.6816 1428.0975 0.890 -0.084 -0.447 38 34 24
-3806.7405 2744.8691 1177.3422 -0.378 -0.828 0.415 44 26 16
-3640.3521 2828.7642 1036.5173 0.615 -0.630 -0.475 117 65 39
-3469.1631 2889.0977 902.4543 0.857 -0.294 -0.423 145 109 91
-3574.8589 3104.7373 879.8656 -0.464 -0.615 -0.637 34 36 33
-3165.5374 2827.2107 735.0436 0.089 -0.976 -0.198 28 14 1
-3313.7922 3035.2676 742.6942 0.494 -0.788 -0.367 74 49 36
-3320.8057 3051.6433 740.3342 0.905 -0.357 -0.233 83 54 40
-3241.1895 3205.6616 625.5062 0.918 -0.204 -0.342 103 64 52
-3245.3809 3220.2778 622.0836 0.670 -0.523 0.527 102 63 51
-3232.6592 3216.9187 615.3884 0.277 -0.686 0.673 104 66 53
-3238.8059 3243.9753 608.0269 0.929 -0.280 -0.243 116 77 64
-3244.9299 3271.2476 600.5610 0.454 -0.327 0.829 115 77 64
-2611.0850 3316.4944 178.3994 0.690 -0.270 0.671 63 28 20
-2609.3687 3325.5618 173.5295 0.667 -0.301 0.682 64 29 22
-2635.2219 3407.7454 155.7395 0.428 -0.838 -0.339 45 15 5
-2648.8938 3438.6423 151.5662 0.270 -0.827 -0.493 32 7 0
-2366.2361 3446.9592 -31.7517 0.416 -0.891 -0.184 32 28 29
-2297.7102 3375.8806 -45.7407 0.899 0.333 -0.285 53 47 49
-2438.0090 3832.2339 -146.6006 0.832 -0.262 0.488 130 97 92
-2417.6184 3826.3706 -157.1321 0.921 -0.213 0.327 111 73 69
-2359.9668 3872.2488 -212.9295 0.690 -0.630 0.356 233 193 191
-2377.8867 3948.9836 -233.4975 0.095 -0.926 -0.366 230 190 188
-2351.6396 3978.1196 -262.3371 0.611 -0.740 -0.282 230 190 188
-1356.5734 4621.5942 -1163.5813 0.252 -0.811 -0.528 238 185 181
-4420.9854 2660.0247 1592.0786 0.960 -0.056 0.273 116 96 71
-4403.0254 2656.2664 1582.2474 0.948 -0.066 0.312 136 116 91
-4387.3120 2661.7776 1569.9614 0.915 -0.381 0.132 127 107 80
-4317.0234 2670.7280 1521.5795 0.518 -0.137 0.844 108 99 82
-3726.1072 2885.5696 1056.3766 0.888 -0.349 -0.299 115 65 38
-3703.5115 2892.8523 1038.9783 0.899 -0.303 -0.315 115 68 42
-3204.8118 2867.6262 732.8608 0.935 -0.245 -0.255 42 21 8
-3328.3552 3033.4170 741.8889 -0.010 -0.240 -0.971 63 36 21
-3321.0002 3035.6353 736.2894 0.467 -0.819 -0.332 69 43 28
-3320.7961 3044.8850 732.2866 0.476 -0.813 -0.335 75 44 30
-3310.4148 3044.1196 726.0146 0.460 -0.810 -0.363 70 37 22
-3312.0669 3055.2454 722.4051 0.443 -0.814 -0.376 68 30 17
-2600.3704 3293.4504 170.7219 0.672 -0.304 0.676 86 53 44
-2626.6504 3422.4636 133.3865 0.118 -0.865 -0.488 9 6 1
-2367.6819 3427.3882 -33.1238 0.518 -0.809 0.277 32 28 29
-2424.9536 3842.3760 -170.5289 0.558 -0.819 0.130 108 70 67
-2413.7810 3837.7451 -175.6847 0.555 -0.823 0.118 143 105 102
-2359.8501 3860.8508 -219.6068 0.664 -0.668 0.335 222 182 180
-2347.3831 3928.2595 -255.7504 0.053 -0.990 -0.133 223 182 180
-2342.4373 3934.5088 -261.5078 0.074 -0.989 -0.128 222 181 179
-2332.4048 3962.1436 -279.4506 0.630 -0.666 -0.400 227 186 184
-2329.3228 3971.9172 -285.5004 0.597 -0.678 -0.429 224 183 181
-2296.4834 3957.7527 -300.4224 0.352 -0.314 -0.882 233 191 192
-2289.4604 3960.2053 -305.9091 0.334 -0.339 -0.880 221 179 180
-1141.4780 4806.3354 -1389.2040 0.632 -0.505 -0.588 210 116 106
-1024.6738 4652.6870 -1399.0369 0.776 -0.541 -0.325 197 26 35
-1019.8830 4663.7407 -1406.7079 0.733 -0.608 -0.305 201 24 36
-3582.3174 2033.6404 1312.7573 0.234 -0.630 0.740 36 31 25
-3527.9707 2042.2727 1274.6829 -0.328 -0.877 -0.351 33 21 7
-4327.5942 2602.2427 1545.7653 0.976 0.055 0.211 141 121 96
-3674.4238 2727.8452 1078.9686 0.871 -0.454 -0.185 79 36 13
-3977.6245 3014.8760 1150.3188 0.650 -0.528 -0.547 104 65 39
-3648.1389 2840.4561 1014.9182 0.607 -0.789 0.090 115 67 43
-3642.4304 2844.2556 1009.7015 0.607 -0.789 0.090 115 69 46
-3524.2588 2934.7742 896.7168 0.799 -0.487 -0.352 146 109 92
-3521.9668 2941.6846 892.3561 0.799 -0.487 -0.352 131 95 84
-3208.5679 3237.7444 569.1463 0.866 -0.223 0.447 122 83 69
-3241.4390 3294.1733 566.2293 0.941 -0.185 -0.283 94 54 40
-2402.2600 3792.9485 -175.4988 0.925 -0.327 0.192 127 89 86
-2387.4363 3839.4099 -204.4466 0.280 -0.565 0.777 135 97 94
-2356.0967 3857.8022 -232.0481 0.834 -0.550 0.039 214 174 172
-2352.4243 3880.8857 -244.0902 0.754 -0.643 0.134 213 173 171
-2364.6890 3932.6960 -258.1223 0.125 -0.988 -0.090 212 172 170
-2360.0051 3939.4370 -263.9276 0.141 -0.989 -0.046 201 160 158
-2354.7046 3945.0884 -269.6652 0.237 -0.914 -0.329 201 160 158
-2348.0740 3948.3486 -275.2394 0.643 -0.637 -0.425 201 160 158
-2340.2693 3949.4741 -280.6591 0.733 -0.526 -0.432 202 161 159
-2339.9390 3964.1953 -287.0639 0.630 -0.671 -0.391 214 173 171
-2335.3831 3971.2717 -292.9292 0.597 -0.678 -0.429 206 165 163
-2327.8447 3972.8984 -298.3911 0.633 -0.702 -0.326 195 154 152
-2324.5745 3982.3716 -304.4505 0.406 -0.900 -0.157 186 145 143
-2304.8086 3961.3828 -308.1435 0.377 -0.326 -0.867 173 131 132
-1363.0050 4628.8677 -1185.9110 0.379 -0.688 -0.619 239 186 182
-1028.0952 4641.3462 -1403.4061 0.644 -0.459 -0.613 186 22 29
-1002.0928 4649.9175 -1423.4921 0.646 -0.503 -0.574 215 26 41
-985.5435 4635.1777 -1427.7766 -0.291 -0.905 -0.310 224 23 47
-3555.1255 2061.5034 1274.7285 0.905 -0.304 -0.297 93 83 70
-3540.8420 2058.5984 1266.9236 0.585 -0.749 -0.310 109 96 81
-4317.3540 2590.4629 1533.0729 0.984 0.044 0.170 138 117 90
-4317.1157 2597.9783 1529.7435 0.984 0.044 0.170 144 124 97
-4365.7598 2645.0222 1540.6105 0.356 -0.341 0.870 127 109 84
-3603.0979 2649.3347 1056.4366 0.740 -0.669 0.071 85 41 16
-3586.3872 2644.0198 1048.1158 0.234 -0.957 0.174 84 41 14
-3577.7156 2645.0647 1042.1895 0.234 -0.957 0.174 84 42 18
-3569.0591 2646.1082 1036.2733 0.234 -0.957 0.174 89 47 25
-3779.2419 2831.1099 1090.9553 0.877 0.113 -0.466 105 63 38
-3897.3884 2943.7153 1118.0496 0.185 -0.650 -0.737 105 61 37
-3746.0146 2889.9631 1045.0476 -0.366 -0.859 0.358 114 64 37
-3676.9321 2946.1938 977.5723 0.736 -0.675 0.049 114 78 54
-3606.5100 3085.4382 874.1379 0.349 -0.417 -0.839 17 20 11
-3312.9109 3023.7214 714.5535 0.592 -0.229 0.773 67 36 23
-3324.6646 3121.4880 680.6353 0.269 -0.737 -0.620 64 35 23
-3305.9270 3112.3262 672.6597 0.288 -0.732 -0.618 61 34 21
-3278.9043 3094.6948 663.0264 0.627 -0.641 0.442 57 31 18
-3210.6006 3212.0984 570.1697 0.858 -0.190 0.478 91 55 41
-3250.4429 3296.4148 559.7052 0.938 -0.192 -0.288 91 56 42
-3242.5039 3308.7749 549.4564 0.961 -0.081 -0.265 59 23 9
-2429.2717 3369.1042 9.6056 0.853 -0.357 0.381 26 24 27
-2355.3804 3874.8708 -251.0492 0.748 -0.651 0.134 156 116 114
-2371.0322 3932.5649 -265.5528 0.125 -0.988 -0.090 154 114 112
-2353.9390 3947.3630 -282.6225 0.643 -0.637 -0.425 142 101 99
-2348.1975 3952.2332 -288.3136 0.726 -0.528 -0.441 144 103 101
-2345.7324 3963.0623 -294.4532 0.630 -0.671 -0.391 158 117 115
-2341.4141 3970.5652 -300.3578 0.630 -0.671 -0.391 147 106 104
-2335.7859 3975.6985 -306.0885 0.635 -0.659 -0.403 134 93 91
-2325.2219 3987.2712 -317.6646 0.604 -0.791 -0.094 132 92 92
-1218.4623 3411.0740 -773.9298 0.659 -0.636 -0.401 243 201 202
-1345.9401 4570.5142 -1183.7089 0.329 -0.702 -0.632 243 190 186
-1021.3492 4443.7798 -1335.3939 0.476 -0.263 -0.839 205 102 87
-1032.4196 4669.9448 -1424.0525 0.843 -0.451 -0.294 176 16 22
-1012.0027 4636.3389 -1422.7511 0.646 -0.503 -0.574 201 26 36
-1008.0535 4651.6709 -1431.7338 0.646 -0.503 -0.574 209 30 42
-986.3951 4610.1084 -1427.8522 -0.296 -0.927 -0.231 219 22 45
-4416.9116 2665.0913 1553.0339 -0.253 -0.899 0.357 129 108 81
-4224.7490 2601.5349 1458.7616 0.837 -0.289 0.464 47 35 17
-3617.9944 2655.6191 1052.8010 0.677 -0.660 0.326 85 41 16
-3586.3660 2646.4463 1036.7369 0.247 -0.950 0.190 89 43 20
-3568.5325 2640.1794 1028.1448 0.700 -0.679 0.219 106 57 35
-3576.6843 2654.6538 1027.1373 0.708 -0.687 0.164 107 57 35
-3754.1067 2890.5984 1038.8284 -0.397 -0.857 0.327 110 60 33
-3691.5884 2952.5327 973.0415 0.931 -0.352 -0.100 107 73 48
-3596.3086 3078.8652 859.2021 0.359 -0.433 -0.827 17 23 18
-3255.4287 2861.6638 736.3730 -0.521 -0.854 0.004 39 26 18
-3206.6011 3200.5061 561.5207 0.884 -0.201 0.422 52 14 3
-3246.2161 3294.7529 546.4628 0.361 -0.381 0.851 51 21 6
-3245.6028 3304.5752 541.9005 0.959 -0.084 -0.272 52 22 7
-2463.5847 2767.5093 276.6007 0.712 0.009 -0.702 140 84 69
-2641.0156 3369.5166 132.6932 0.745 -0.525 0.411 80 47 38
-2664.6677 3413.7209 128.8317 0.997 -0.068 0.048 54 23 17
-2369.9468 3845.2117 -240.6056 0.427 -0.869 -0.251 122 82 80
-2362.8374 3876.8232 -258.5303 0.326 -0.903 0.282 135 95 93
-2362.3459 3950.9426 -290.3466 0.641 -0.632 -0.436 144 103 101
-1260.4611 3585.3767 -830.4401 0.376 -0.774 -0.509 245 201 202
-1260.1827 3603.9790 -838.5231 -0.231 -0.886 -0.403 243 199 200
-1255.4653 3608.4954 -843.4203 0.100 -0.861 -0.499 235 191 190
-1039.5271 4642.0674 -1419.0614 0.821 -0.458 -0.341 181 35 36
-1037.1599 4665.2231 -1430.3983 0.843 -0.451 -0.294 172 19 22
-1019.0015 4643.4263 -1432.5944 0.500 -0.604 -0.621 180 13 21
-3572.4001 2009.2911 1289.7880 0.169 -0.534 0.828 73 66 58
-4313.5566 2600.6880 1504.0092 0.439 -0.257 0.861 102 84 60
-4181.2788 2544.9236 1444.5089 -0.360 -0.821 -0.443 50 38 22
-3603.9956 2639.0542 1040.6660 0.706 -0.650 0.283 85 41 15
-3442.4104 2808.8193 866.3625 0.716 -0.682 0.153 116 79 61
-3537.2988 2927.5649 875.4068 0.759 -0.401 -0.513 126 89 73
-3547.6672 2963.7329 866.4874 0.668 -0.096 -0.738 94 65 60
-3525.7170 2989.3223 841.7296 0.185 -0.484 -0.855 16 16 7
-3262.6543 2862.2422 730.3124 -0.506 -0.862 0.023 31 22 11
-3251.2134 3005.7351 661.8079 0.858 -0.463 -0.222 89 51 38
-3238.2036 3186.4521 576.4139 -0.056 -0.933 0.356 101 65 51
-3225.6135 3183.2009 569.8723 -0.056 -0.933 0.356 95 59 45
-3196.6870 3274.9351 512.4641 0.433 -0.442 0.786 72 45 30
-2649.4756 3372.5652 126.0687 0.807 -0.457 0.374 80 47 38
-2685.8374 3445.9805 117.6113 0.989 -0.073 0.130 28 3 1
-2706.9431 3499.0908 108.2181 0.839 -0.404 -0.365 10 7 2
-2440.8933 3453.7581 -40.0019 0.019 -0.958 0.287 24 23 29
-2428.8105 3447.6565 -45.0065 0.189 -0.757 0.625 24 23 29
-2476.6465 3690.5249 -118.6236 -0.179 -0.836 -0.519 212 168 167
-2404.1865 3820.9976 -220.0021 0.994 -0.100 0.048 131 93 90
-2383.1641 3842.6047 -242.4743 0.434 -0.877 -0.206 140 100 98
-2377.2236 3846.8445 -248.0274 0.434 -0.877 -0.206 137 97 95
-2363.0264 3865.9631 -265.1375 0.327 -0.914 0.241 135 95 93
-2350.5588 3858.7107 -269.8927 0.335 -0.908 0.253 135 95 93
-2359.3369 3949.1848 -303.0122 0.726 -0.528 -0.441 144 103 101
-2351.1128 3980.2095 -321.4459 0.504 -0.722 -0.474 131 90 88
-2338.4275 3972.4856 -326.1368 -0.554 -0.807 0.203 126 85 83
-2322.9993 3959.6455 -330.3701 -0.553 -0.806 0.212 131 91 91
-2298.6877 4104.0757 -407.3821 0.764 0.165 -0.624 229 191 188
-1250.2643 3537.7754 -825.8721 -0.205 -0.913 -0.353 248 207 208
-1246.7985 3545.9365 -831.5416 -0.222 -0.910 -0.351 237 196 197
-1050.1129 4563.9614 -1390.3171 0.630 -0.271 -0.728 208 98 85
-1046.4999 4614.1055 -1414.0137 0.566 -0.425 -0.706 210 77 73
-1042.4319 4628.3452 -1422.6589 0.815 -0.451 -0.364 215 74 72
-1025.2109 4646.3765 -1441.2091 0.499 -0.585 -0.639 183 19 26
-1000.0416 4623.2026 -1447.1639 -0.283 -0.941 -0.183 219 21 43
-3508.9927 2038.2452 1228.5310 0.381 -0.362 0.851 102 87 66
-4277.9492 2580.1021 1479.3032 -0.155 -0.779 -0.607 71 58 41
-4271.6118 2583.6157 1473.8108 -0.198 -0.802 -0.563 46 37 20
-4256.3018 2581.2764 1465.1907 -0.112 -0.788 -0.605 46 38 23
-3896.8403 2796.7761 1146.7122 0.344 -0.410 -0.845 62 33 16
-3663.0171 2915.6780 948.6814 0.760 -0.649 0.015 110 72 46
-3480.3418 2836.0801 868.0176 -0.143 -0.537 -0.832 117 79 60
-3542.5095 2989.0027 841.4497 0.887 -0.306 0.346 20 11 2
-3275.9944 2967.8164 683.0065 0.624 -0.781 -0.030 61 31 17
-3266.6018 2967.8601 677.0833 0.642 -0.766 -0.022 58 24 12
-3255.8059 3003.6287 654.9415 0.799 -0.454 -0.394 108 70 59
-3240.3699 3181.5283 568.8676 -0.030 -0.857 0.515 113 79 67
-3226.5583 3176.9924 562.1325 -0.030 -0.857 0.515 111 77 66
-3231.4141 3274.0813 523.5056 0.441 -0.515 0.736 43 28 11
-3228.4187 3291.6877 514.0643 0.407 -0.395 0.824 61 44 26
-3202.4631 3273.7480 505.4494 0.439 -0.433 0.787 67 48 31
-3166.4939 3244.6736 495.3195 0.369 -0.476 0.798 75 43 30
-2486.5112 3669.3662 -114.4515 0.243 -0.826 -0.509 208 170 167
-2475.7915 3665.6675 -119.6023 0.245 -0.829 -0.502 210 169 167
-2404.8840 3825.6960 -232.8753 0.914 -0.386 -0.121 104 66 63
-2401.8804 3834.9583 -238.7396 0.483 -0.864 -0.143 111 73 70
-2393.4746 3834.9507 -244.0205 0.463 -0.873 -0.155 131 91 89
-2344.2104 3821.7983 -269.3430 0.754 -0.402 0.520 136 96 94
-2333.7786 3818.0063 -274.2729 0.547 -0.639 0.541 135 95 93
-2338.3455 3915.0317 -313.0541 0.980 0.011 0.201 142 101 99
-2340.1326 3933.3826 -319.8085 0.981 -0.062 0.186 138 97 95
-2328.5315 3958.0808 -337.7039 0.977 -0.068 0.200 125 85 85
-2228.1582 3894.5955 -373.5475 -0.056 -0.838 0.542 158 120 117
-1256.8960 3543.5686 -833.4157 -0.587 -0.745 -0.316 205 167 166
-1251.3459 3545.1465 -837.5820 -0.552 -0.767 -0.328 234 196 195
-1059.7986 4550.5283 -1389.5941 0.620 -0.506 -0.600 205 102 87
-1056.7678 4569.1660 -1399.5004 0.612 -0.514 -0.601 208 99 86
-1053.5260 4620.9917 -1423.7864 0.566 -0.425 -0.706 209 83 77
-1047.3586 4624.8057 -1429.3007 0.815 -0.451 -0.364 217 84 79
-1043.3000 4639.1699 -1438.0186 0.815 -0.451 -0.364 221 80 78
-1015.6071 4748.0371 -1502.1627 -0.009 -0.517 -0.856 247 40 74
-3905.5452 2797.7229 1140.7292 0.325 -0.397 -0.858 56 28 14
-3578.3845 2978.4868 857.5040 0.508 -0.333 -0.794 68 42 29
-3583.3616 3001.1448 850.8518 0.895 -0.326 0.305 33 16 2
-3568.5613 2996.9709 843.3674 0.894 -0.314 0.319 26 12 1
-3547.2188 2986.8423 834.3475 0.915 -0.291 0.279 21 10 0
-3518.7041 2970.1365 823.6657 0.640 -0.505 0.579 16 11 0
-3352.3428 2898.3032 750.2874 -0.124 -0.670 0.732 31 13 7
-3281.4216 2966.5605 676.3491 0.656 -0.751 -0.072 59 28 17
-3268.0491 2962.7327 669.6111 0.647 -0.759 -0.072 57 23 13
-3259.4756 3184.3726 568.6179 0.566 -0.109 -0.817 120 86 78
-3263.5671 3198.7136 564.9980 0.410 -0.402 -0.818 117 85 76
-3229.4783 3172.8848 554.7549 -0.032 -0.846 0.532 114 84 75
-3238.2080 3192.1357 551.9267 -0.111 -0.855 0.507 106 77 68
-3207.7053 3169.8875 542.3887 0.272 -0.776 0.569 89 63 52
-3180.6348 3242.3887 494.1292 0.954 -0.274 -0.123 70 56 40
-3232.0198 3330.2068 488.4813 0.328 -0.933 -0.150 80 59 46
-2420.9800 3309.5676 -11.4212 0.070 -0.964 -0.255 24 22 25
-2440.3406 3434.4897 -53.1663 0.552 -0.547 0.630 26 25 31
-2501.8054 3683.5857 -122.0655 -0.078 -0.837 -0.542 207 172 169
-2491.8813 3681.2268 -127.2736 -0.070 -0.832 -0.550 209 170 168
-2313.5984 3814.9897 -296.8244 0.588 -0.636 0.500 143 103 101
-2306.6414 3817.2283 -302.1546 0.588 -0.636 0.500 143 103 101
-2299.1040 3892.7827 -339.4770 0.992 0.069 0.106 121 81 81
-2299.5012 3908.6338 -346.0659 0.992 0.069 0.106 126 86 86
-1843.6421 4050.7817 -693.3715 0.035 -0.680 0.732 235 200 196
-1251.7224 3550.2947 -848.8043 -0.553 -0.769 -0.320 89 57 53
-1023.3762 4614.9473 -1451.3444 -0.394 -0.901 -0.179 219 69 70
-1018.5719 4625.5737 -1458.9426 -0.395 -0.901 -0.176 227 61 68
-1031.2979 4726.7495 -1494.6058 -0.134 -0.460 -0.878 232 45 62
-3918.1838 2801.6775 1135.8848 0.613 -0.249 -0.749 52 25 18
-3586.9419 2979.7483 851.3083 0.238 -0.667 -0.706 59 38 18
-3583.6167 2985.8535 846.5799 -0.021 -0.754 -0.657 49 28 9
-3569.4316 2982.2415 839.2649 0.213 -0.645 -0.734 36 14 0
-3142.5115 3193.3894 480.4477 0.958 -0.189 -0.214 69 66 55
-3141.0586 3201.9802 475.8138 0.453 -0.450 0.770 66 67 58
-2529.9014 2608.1692 350.6009 0.386 -0.856 -0.344 36 41 49
-2718.5095 3476.4753 92.2722 0.108 -0.766 -0.634 12 4 2
-2429.0630 3301.0959 -12.9160 -0.005 -0.983 -0.185 17 15 16
-2426.2107 3320.2881 -23.0216 0.015 -0.974 -0.228 17 15 16
-2422.1438 3326.0283 -28.0563 -0.153 -0.949 0.275 17 15 17
-2419.5383 3333.9612 -33.1263 0.900 -0.371 0.227 37 35 40
-2441.8027 3415.3445 -54.4669 0.482 -0.500 0.719 41 39 44
-2525.7605 3793.3511 -165.7693 0.015 -0.949 -0.314 220 172 173
-2405.7654 3819.8494 -252.3824 0.972 -0.135 0.193 81 41 39
-2406.5867 3835.6348 -258.7112 0.979 -0.148 0.143 83 45 42
-2406.5100 3849.9631 -264.9705 0.978 -0.151 0.147 87 49 46
-2391.5195 3838.6223 -269.4394 0.774 -0.627 0.095 93 55 52
-2399.3450 3866.7029 -276.7130 0.979 -0.143 0.143 99 61 58
-2381.7424 3850.7424 -280.8147 0.821 -0.523 0.227 126 88 85
-2365.8889 3837.6902 -285.0820 -0.169 -0.893 -0.417 126 88 85
-2295.6116 3874.9902 -345.2506 0.987 0.088 -0.136 125 87 84
-1794.6107 3973.3279 -701.5446 0.992 -0.053 0.115 244 212 207
-1800.9614 4006.6924 -712.0320 0.760 -0.200 0.618 230 201 195
-1797.1519 4015.6235 -718.2888 0.257 -0.503 0.825 237 214 206
-1259.3737 3559.2839 -857.1550 -0.555 -0.776 -0.300 33 16 9
-1056.6355 4683.9233 -1471.6168 -0.036 -0.585 -0.810 206 77 71
-1039.4690 4703.3955 -1490.8057 0.084 -0.756 -0.649 228 65 70
-3922.4539 2790.8767 1132.1960 0.905 -0.413 0.102 44 23 14
-3924.8149 2801.0088 1129.2576 0.900 -0.421 0.113 52 26 19
-3938.1873 2819.6350 1129.4991 0.773 -0.626 0.106 61 31 27
-3681.2839 2948.1714 912.9943 0.985 -0.154 -0.084 107 57 30
-3681.4875 2957.2688 909.1588 0.998 -0.042 0.047 108 58 31
-3542.8132 2916.3716 840.3298 0.154 -0.526 -0.836 78 44 21
-3592.0964 2987.0374 840.3396 -0.027 -0.745 -0.667 52 28 6
-3268.6074 2860.5205 693.3345 -0.001 -0.999 0.036 53 17 8
-3259.0349 2860.2993 687.4500 -0.001 -0.999 0.036 50 16 7
-3212.8503 2842.8457 666.1966 0.399 -0.446 0.802 38 11 0
-3198.6550 2846.8572 655.5800 0.853 -0.380 0.357 40 10 0
-3254.3713 2954.6907 643.4187 0.821 -0.250 -0.513 95 56 49
-3263.6069 2972.9165 641.2500 0.787 -0.236 -0.570 104 67 59
-3194.4731 3161.4817 515.9151 0.017 -0.631 0.775 36 34 22
-3173.8303 3199.7734 486.3374 0.945 -0.046 -0.324 41 40 34
-3129.3467 3181.8606 466.3470 0.440 -0.447 0.779 43 50 45
-3124.8792 3187.1145 461.2670 0.443 -0.446 0.777 35 42 39
-3188.6389 3277.7258 461.6334 -0.606 -0.765 0.217 34 42 40
-2754.9773 2827.1582 386.9504 0.376 -0.656 -0.654 37 45 43
-2667.6516 2747.7375 366.9851 0.383 -0.658 -0.649 31 43 53
-2686.3003 3388.5811 99.4824 0.237 -0.638 -0.733 72 35 29
-2446.0850 3317.3794 -19.5889 0.043 -0.972 -0.230 17 15 16
-2433.1035 3321.7192 -29.5902 0.015 -0.974 -0.228 17 15 16
-2476.2595 3445.8770 -56.7099 0.148 -0.823 0.549 33 31 36
-2414.6812 3413.8586 -81.2368 0.229 -0.713 0.663 33 28 32
-2447.8132 3684.4548 -178.4090 0.031 -0.996 -0.089 210 169 163
-2375.3030 3843.0747 -292.8090 -0.169 -0.893 -0.417 124 86 83
-2368.7725 3846.2585 -298.2762 -0.216 -0.954 -0.210 124 86 83
-2363.5198 3851.6782 -303.9190 -0.176 -0.965 -0.197 125 87 84
-2340.9822 3855.9937 -319.8804 0.677 -0.633 0.376 143 105 102
-2283.3318 3947.3101 -395.6783 -0.350 -0.881 0.319 232 194 191
-1796.6385 4000.2319 -722.8181 0.090 -0.733 0.674 221 202 192
-1631.7836 4029.4893 -838.5644 -0.483 -0.844 0.235 241 200 201
-1586.2839 3964.0623 -838.4923 -0.199 -0.971 -0.131 239 199 200
-1582.5254 3973.1587 -844.8030 -0.227 -0.967 -0.116 239 199 200
-1285.3400 3568.1570 -854.0643 0.145 -0.309 -0.940 49 28 22
-1279.9431 3589.5208 -866.7424 -0.543 -0.791 -0.282 42 25 18
-997.7595 4268.6660 -1338.8903 0.793 -0.177 -0.582 200 89 74
-3918.7273 2790.6145 1118.9489 0.622 -0.563 -0.544 52 26 19
-3643.7358 2900.9954 899.1693 0.912 -0.212 -0.352 102 52 27
-3569.0410 2951.1658 830.6349 0.064 -0.493 -0.868 55 28 5
-3286.1162 2861.9404 693.2779 0.321 -0.811 0.489 58 24 14
-3259.1511 2952.8445 636.6750 0.821 -0.250 -0.513 100 63 55
-3100.2671 3093.4053 476.0818 0.472 -0.822 -0.318 35 44 39
-3138.4187 3174.3521 464.4394 0.983 -0.183 0.030 35 44 40
-2704.0859 3404.1313 93.0444 0.213 -0.597 -0.773 68 31 25
-2744.6438 3470.8574 89.1268 0.221 -0.519 -0.826 64 30 26
-2440.0088 3323.1533 -36.1705 0.015 -0.974 -0.228 17 15 16
-2441.7742 3458.3386 -94.2413 0.507 -0.661 0.553 33 28 32
-2511.9570 3805.7212 -202.5324 -0.450 -0.879 0.160 219 176 170
-2437.3936 3739.1021 -219.8651 0.382 -0.848 -0.368 216 174 168
-2384.6907 3833.8643 -294.2050 0.849 -0.528 0.030 195 157 154
-2384.7512 3848.4788 -300.5640 -0.169 -0.893 -0.417 196 158 155
-2364.5532 3857.0376 -316.9044 0.157 -0.980 -0.120 200 162 159
-2352.3149 3850.1799 -321.5336 0.714 -0.592 0.374 199 161 158
-2346.1980 3854.0654 -327.0485 0.714 -0.592 0.374 199 161 158
-2334.4612 3862.7246 -338.1569 0.731 -0.577 0.363 214 176 173
-2294.5725 3895.3455 -377.3070 0.999 0.017 -0.038 204 166 163
-2292.0374 3905.8369 -383.4799 0.801 -0.549 0.238 225 187 184
-1786.8967 3980.6169 -731.1812 0.724 -0.111 0.681 146 122 114
-1667.6646 3956.8518 -795.1237 -0.488 -0.858 -0.162 239 200 199
-1619.9668 4001.7437 -844.5140 -0.428 -0.864 0.265 236 203 202
-1596.8121 3958.3171 -839.9436 -0.191 -0.971 -0.144 236 203 202
-1192.5597 3215.6541 -766.9370 0.894 -0.372 -0.249 241 199 199
-1467.1501 6063.9482 -1842.4424 -0.132 -0.835 -0.534 199 111 100
-793.3807 3165.1943 -993.7498 0.230 -0.953 0.197 205 99 85
-3629.6252 2642.2114 993.2950 0.631 -0.643 -0.434 75 35 14
-3660.3647 2909.0605 895.0601 0.941 -0.221 -0.256 96 46 19
-3681.7815 2953.9539 888.6423 0.987 -0.139 -0.085 95 47 24
-3626.4851 2915.1858 871.2844 0.897 -0.404 0.182 95 49 26
-3529.2346 2936.2854 801.4899 0.958 -0.258 0.125 62 22 5
-3284.5332 2871.8542 677.5604 0.887 -0.419 0.196 61 28 19
-3252.2168 2850.1953 666.9773 0.808 -0.532 0.252 47 18 8
-3258.8071 2946.0156 628.9354 0.818 -0.238 -0.523 110 73 65
-3184.7971 3020.8894 549.9521 0.896 -0.244 -0.370 94 56 47
-3105.4304 3082.1204 473.6358 0.286 -0.953 0.102 32 45 47
-3106.1104 3092.6204 469.4409 0.472 -0.822 -0.318 27 40 40
-3220.1499 3245.3438 473.2334 0.971 -0.157 -0.177 26 38 41
-2716.2988 3412.0718 86.3807 0.389 -0.555 -0.735 66 28 22
-2742.8396 3459.6829 81.9561 0.224 -0.494 -0.840 64 28 24
-2507.6553 3830.2207 -227.3547 -0.090 -0.901 -0.424 221 178 172
-2386.7974 3826.5706 -300.9539 0.861 -0.509 -0.022 229 191 188
-2386.6743 3855.3545 -313.6898 -0.226 -0.954 -0.197 229 191 188
-2382.1858 3862.1443 -319.4691 -0.171 -0.961 -0.219 229 191 188
-2370.8242 3856.9282 -324.2448 0.157 -0.980 -0.120 223 185 182
-2355.2671 3844.2773 -328.3612 0.690 -0.679 0.250 223 185 182
-2304.2236 3901.4766 -385.2802 0.989 0.082 -0.123 214 176 173
-1716.1249 4048.4172 -815.8537 -0.547 -0.826 -0.136 243 200 199
-1664.6232 4009.6167 -830.8361 0.975 0.162 0.152 238 198 198
-1672.0588 4048.4214 -843.2759 0.978 0.192 0.082 237 199 198
-1659.0513 4033.2664 -844.7047 0.886 0.042 0.462 236 201 199
-1612.2871 3965.9019 -844.1763 -0.380 -0.907 0.182 235 207 204
-1594.4116 3936.7705 -842.4872 -0.118 -0.956 -0.269 225 197 194
-1575.4314 3942.5837 -856.8545 0.728 0.067 0.683 226 196 194
-1273.7546 3578.0823 -884.2634 -0.044 -0.843 -0.536 44 26 22
-3922.6396 2782.1748 1103.0586 0.279 -0.412 -0.868 47 20 14
-3915.8152 2785.2539 1097.4601 0.345 -0.590 -0.730 58 26 22
-3594.2083 2907.5010 843.7252 -0.432 -0.843 0.321 87 41 17
-3440.5999 2816.5310 788.5375 0.326 -0.863 -0.386 79 35 19
-3277.8630 2859.3411 668.5624 0.889 -0.413 0.197 65 32 23
-3245.6362 2837.7866 658.0753 0.841 -0.509 0.183 54 24 14
-3341.7158 3029.3530 633.0840 0.788 -0.581 0.205 131 94 85
-3118.0708 3108.1853 459.3674 0.648 -0.196 0.736 16 33 38
-2724.8730 3415.0630 79.5858 0.389 -0.555 -0.735 66 28 23
-2494.6538 3385.7617 -50.4280 0.038 -0.335 -0.941 16 14 15
-2400.2251 3867.8188 -322.0926 0.050 -0.999 0.022 224 186 183
-2391.9773 3868.1160 -327.3456 0.050 -0.999 0.022 224 186 183
-2385.1733 3870.9072 -332.8042 0.270 -0.958 -0.100 225 187 184
-2358.3530 3838.6313 -335.1962 0.690 -0.679 0.250 225 187 184
-2302.1443 3931.6697 -411.2154 -0.422 -0.865 0.271 226 188 185
-1674.5150 3982.7632 -823.5416 -0.519 -0.763 0.385 240 205 203
-1665.3840 3977.8052 -827.0208 -0.515 -0.764 0.389 235 197 196
-1660.4894 3983.8745 -832.7424 0.972 0.158 0.172 232 192 192
-1661.6027 4005.7905 -841.7360 0.982 0.179 0.064 230 193 192
-1627.8871 3973.6089 -848.4514 -0.374 -0.907 0.193 227 208 202
-1615.5612 3959.6975 -849.9581 -0.375 -0.909 0.183 195 175 170
-1581.7415 4022.8767 -898.8790 0.956 0.274 0.101 245 203 204
-1369.4563 3780.8689 -923.7589 0.407 -0.543 -0.735 30 9 2
-3888.9128 2775.5229 1074.1079 0.601 -0.355 -0.716 70 32 13
-3605.8203 2911.4092 838.3373 -0.432 -0.843 0.321 87 41 17
-3667.4541 3010.0115 832.7523 0.455 -0.638 -0.622 82 33 19
-3490.7588 2933.8398 757.0730 0.491 -0.399 0.774 60 25 20
-3343.4312 3024.3706 625.5757 0.788 -0.581 0.205 138 101 93
-3323.4639 3014.2839 617.6803 0.344 -0.804 0.484 122 85 77
-3115.5347 3098.4104 451.4710 0.643 -0.210 0.737 12 34 43
-2734.5540 3431.1621 67.6278 0.152 -0.622 -0.768 51 15 9
-2481.7791 3516.4016 -126.8669 0.485 -0.818 -0.311 21 16 20
-2384.2014 3932.0950 -371.9087 0.594 -0.784 0.179 223 185 182
-1912.4750 3986.1926 -688.2632 0.542 -0.830 0.131 240 201 196
-1780.9158 3924.5164 -742.4072 0.720 -0.111 0.685 62 39 31
-1630.4510 3965.5051 -853.8515 -0.390 -0.920 -0.035 117 105 97
-1622.0360 3962.0825 -857.5466 -0.390 -0.920 -0.035 49 34 28
-1207.7473 3221.4600 -785.4430 0.856 -0.346 -0.384 237 195 195
-1370.7731 3730.0298 -910.2237 0.978 -0.127 -0.166 231 195 194
-1170.6212 4558.9009 -1402.2867 0.752 -0.037 -0.658 216 131 120
-1113.4456 4585.4390 -1449.5024 -0.314 -0.480 -0.819 209 103 89
-892.9777 3896.1562 -1280.0811 0.381 -0.585 0.716 241 44 70
-3376.7490 2011.2562 1087.3694 0.957 -0.290 -0.029 61 59 47
-3377.8508 2024.0499 1082.3435 0.962 -0.267 -0.054 52 51 39
-3908.0896 2784.5044 1071.0203 0.158 -0.486 -0.860 70 32 13
-3688.6416 2736.6116 956.6699 -0.139 -0.887 0.441 75 29 8
-3298.5264 2983.4246 605.3013 0.691 -0.653 0.309 122 85 79
-3300.5630 2994.6531 601.5518 0.660 -0.426 0.619 122 85 79
-3215.9851 3041.8025 528.2116 0.128 -0.284 0.950 117 79 70
-2451.6338 2626.2424 240.8897 0.659 -0.211 0.722 87 33 7
-2544.1323 3428.1516 -59.6433 0.040 -0.309 -0.950 16 14 15
-2481.8943 3545.0317 -150.2750 0.761 -0.648 -0.015 37 28 31
-2540.3760 3727.7100 -195.6018 0.905 0.317 -0.283 218 175 176
-1938.7250 4014.5696 -695.6578 0.760 -0.650 0.004 240 199 192
-1616.2046 3931.6606 -858.1316 -0.318 -0.916 -0.243 37 25 19
-1608.5371 3930.0652 -862.1617 -0.318 -0.916 -0.243 37 24 18
-1626.2802 4155.6812 -951.8376 0.953 0.300 0.032 238 197 198
-1190.0170 3654.9207 -998.2477 0.975 0.170 0.141 242 190 194
-1193.2668 4632.0986 -1432.1644 0.731 -0.048 -0.681 216 131 118
-3750.1770 2746.9341 979.4221 -0.356 -0.914 -0.196 94 62 47
-3658.4631 2739.5242 926.1401 0.478 -0.193 0.857 77 42 22
-3244.5667 2801.0493 643.1193 0.871 -0.352 0.342 69 30 20
-3309.5896 2978.3965 603.7617 0.763 -0.611 0.212 116 76 75
-3309.4585 2987.4839 599.6077 0.661 -0.422 0.620 125 86 84
-3294.6113 2991.5249 588.6332 0.663 -0.426 0.616 126 86 84
-3188.6008 2997.8774 520.3594 0.404 -0.750 -0.523 126 88 79
-3164.8604 2992.5061 508.1148 0.141 -0.963 -0.231 117 79 70
-3107.2019 3075.4961 435.3331 0.639 -0.212 0.739 6 40 51
-1878.8606 1984.5380 166.2092 0.265 -0.516 -0.815 94 40 15
-2727.6404 3079.9480 199.0834 0.843 -0.513 -0.164 127 74 66
-2718.2820 3129.9514 170.8959 0.800 -0.480 0.359 120 70 64
-2686.7029 3315.8818 68.0711 0.751 0.035 -0.660 97 61 57
-2527.4705 3455.2031 -92.6471 0.814 -0.243 -0.527 39 37 42
-2476.6992 3527.5737 -156.4184 0.641 -0.733 -0.228 38 28 31
-2454.6409 3506.2654 -160.4817 0.311 -0.949 -0.046 50 39 41
-2465.9370 3536.3223 -166.9817 0.688 -0.649 -0.325 49 30 26
-2535.6489 3710.1909 -201.8863 0.909 0.316 -0.271 218 175 176
-1931.2229 4018.9915 -713.3266 0.673 -0.730 0.116 242 196 188
-1705.2982 3980.7639 -835.6270 -0.495 -0.763 0.417 160 121 121
-1615.4873 3915.0188 -861.5885 -0.312 -0.923 -0.225 62 51 46
-1588.2523 3879.8042 -862.6138 0.404 -0.660 -0.633 41 31 25
-1408.9060 3873.5505 -970.4982 0.944 -0.285 -0.167 41 24 14
-1175.5741 3548.4060 -968.7726 0.965 0.158 0.209 241 189 193
-1190.6348 3682.2581 -1019.4707 0.975 0.174 0.141 241 194 194
-3308.2837 2042.4229 1013.8083 0.589 -0.331 0.737 45 41 35
-3938.1372 2796.0132 1062.3934 0.189 -0.488 -0.852 66 31 13
-3580.2183 2977.1626 760.3787 0.588 -0.365 0.722 84 36 14
-3238.0662 3031.6643 525.1044 0.752 -0.081 0.655 119 81 70
-3196.5908 2999.2708 514.1465 0.345 -0.312 0.885 119 81 70
-3096.0613 3056.6965 426.3714 0.636 -0.222 0.739 3 46 55
-2500.8958 2636.5493 249.0006 0.614 -0.325 0.720 84 36 13
-1875.1760 1981.9738 158.3749 0.108 -0.317 -0.942 111 57 28
-2809.2344 3140.7256 211.8757 0.541 -0.698 -0.469 139 84 79
-2773.5479 3118.1282 200.0721 0.560 -0.786 -0.261 138 83 86
-2507.2510 3380.6646 -82.1613 0.451 -0.395 -0.800 18 16 18
-2467.7065 3516.9443 -167.8836 0.328 -0.944 -0.028 111 86 90
-2470.8997 3534.4875 -173.8167 0.688 -0.649 -0.325 131 94 95
-2586.1357 3779.3328 -213.0968 0.644 0.211 -0.735 218 174 173
-1713.3698 3986.7920 -844.0542 -0.501 -0.763 0.409 68 36 33
-1705.4598 3985.2241 -848.2199 -0.490 -0.739 0.462 59 30 26
-1645.9851 3924.7117 -857.6016 0.889 0.048 0.455 47 22 18
-1232.3505 3254.9573 -810.7686 0.768 -0.640 -0.013 232 187 184
-3292.0029 2039.4561 996.4927 0.316 -0.411 0.855 48 43 37
-3946.3860 2780.0129 1063.6730 0.938 -0.341 0.053 58 22 17
-3792.0330 2768.4519 974.0327 0.458 -0.883 0.101 83 59 47
-3801.4067 2784.0969 972.7162 -0.340 -0.939 0.044 85 61 49
-3333.7993 2759.8794 696.2651 0.996 -0.046 -0.077 84 36 14
-3238.6152 2951.2678 551.1785 -0.175 -0.869 0.463 84 47 32
-3233.8877 2955.7778 546.2325 0.159 -0.804 -0.573 71 35 19
-3226.0667 3022.2861 511.3373 0.745 -0.095 0.660 123 85 72
-1887.5320 1998.4440 151.8121 -0.224 -0.485 -0.845 134 83 57
-2529.9058 3392.8538 -84.1898 0.247 -0.805 0.540 17 17 17
-2187.1406 3541.5840 -362.1495 -0.177 -0.914 -0.365 220 175 170
-1971.7240 3962.4653 -684.9569 -0.085 -0.996 0.031 231 181 174
-1975.0377 3986.5854 -693.8320 0.015 -0.971 0.237 234 179 174
-1871.8550 3996.0969 -761.5546 0.340 -0.593 0.730 94 62 49
-1696.7097 3948.5144 -847.6785 -0.525 -0.787 0.322 48 20 16
-1655.2638 3915.8411 -858.3712 0.881 0.048 0.470 56 28 24
-1643.4965 3903.7522 -860.1348 0.820 0.017 0.573 52 29 24
-1643.3711 3921.9138 -868.4281 0.825 0.020 0.565 71 51 50
-1639.3615 3930.0229 -874.5611 0.825 0.020 0.565 81 68 67
-1178.1473 3626.5986 -1020.7705 0.951 0.182 0.249 237 202 200
-802.3908 3238.2109 -1076.0177 0.520 -0.327 -0.789 216 83 78
-920.0680 3906.6050 -1306.0685 0.215 -0.967 -0.137 249 30 65
-3827.1594 2629.1201 1048.1226 0.606 -0.668 0.432 24 22 12
-3749.7502 2594.8887 1016.2003 0.719 -0.458 0.523 24 17 0
-3961.3679 2785.6484 1059.3007 0.912 -0.396 0.107 58 22 17
-3761.8062 2714.6926 969.1452 0.286 -0.830 0.479 48 21 8
-3751.2959 2714.6145 962.7342 0.286 -0.830 0.479 57 33 21
-3770.8708 2738.0049 964.1100 0.499 -0.825 0.265 69 45 35
-3795.7783 2765.6836 966.8077 0.458 -0.883 0.101 77 53 41
-3814.4299 2788.5872 967.8384 -0.340 -0.939 0.044 79 55 43
-3294.3994 2735.4988 672.9982 0.563 -0.258 0.785 83 37 14
-3253.2483 2940.8416 554.4312 -0.067 -0.835 0.547 62 23 13
-3232.9905 2957.5376 534.4175 0.227 -0.458 -0.860 60 24 10
-2902.0276 3237.0603 204.3761 -0.227 -0.723 0.653 151 95 93
-2695.8723 3204.9626 92.5156 1.000 -0.008 -0.010 117 72 67
-2748.0232 3383.5132 43.3537 0.257 -0.776 -0.576 58 28 18
-2511.8726 3405.3855 -111.4335 0.148 -0.809 0.569 24 22 27
-2513.1072 3419.1721 -116.9421 0.186 -0.687 0.703 23 22 27
-2490.0940 3557.7339 -194.0327 0.748 -0.571 -0.339 198 157 155
-2603.1562 3785.5505 -228.2247 0.622 0.200 -0.757 218 174 173
-2200.6052 3554.9375 -370.3241 -0.191 -0.921 -0.338 217 172 167
-2000.1650 4011.2271 -700.6462 0.063 -0.944 0.324 226 175 168
-1994.0426 4014.9282 -706.0837 0.079 -0.942 0.327 228 173 166
-1961.6471 3978.0603 -709.1979 0.770 -0.460 -0.443 224 166 156
-1940.9055 3949.3279 -708.8613 0.817 -0.499 -0.288 224 166 155
-1712.2775 3566.5601 -675.1295 0.872 0.223 -0.436 213 162 157
-1872.3596 3983.6531 -766.5055 0.336 -0.593 0.732 119 87 74
-1857.9774 3967.8379 -768.1392 0.250 -0.718 0.650 75 51 37
-1781.0685 3962.3350 -812.8114 0.388 -0.266 -0.882 109 46 50
-1727.9041 3939.7942 -835.1760 0.970 0.167 -0.177 102 41 40
-1588.9412 3838.0977 -874.1909 0.383 -0.612 -0.691 25 15 13
-1177.7704 3393.7820 -924.4515 0.526 -0.682 0.508 38 22 15
-1172.4320 3611.0266 -1026.4614 0.952 0.183 0.246 219 180 181
-1184.5746 3716.5405 -1066.9686 0.984 0.142 0.110 244 183 191
-1184.6512 3738.3904 -1076.8522 0.995 -0.038 0.097 248 182 192
-1271.5564 5132.2188 -1657.0294 -0.292 -0.448 -0.845 210 104 90
-3818.7217 2617.5410 1037.7170 0.652 -0.675 0.345 13 10 2
-3744.1604 2703.4873 952.8366 0.278 -0.838 0.470 51 27 16
-3772.4187 2733.5784 956.3943 0.504 -0.828 0.247 60 36 26
-3650.8025 2809.9851 847.0672 0.736 -0.374 0.564 66 29 9
-3632.0886 2819.7981 831.1322 0.736 -0.442 0.514 69 29 6
-3626.2747 2823.4204 825.9196 0.736 -0.442 0.514 76 36 16
-3324.7971 2756.8240 671.7927 0.997 0.000 -0.076 86 40 17
-3085.6692 2968.5012 428.7747 0.453 -0.757 0.471 48 47 37
-2721.3354 3408.3738 4.9285 0.895 -0.414 -0.163 11 6 3
-2512.4158 3409.2351 -123.3440 0.222 -0.746 0.628 24 23 28
-2494.2419 3467.1580 -160.9147 0.264 -0.925 -0.274 63 52 54
-2539.4539 3623.9705 -204.8386 0.890 -0.402 -0.214 204 160 159
-2509.1873 3603.2214 -213.8912 0.849 -0.468 -0.245 209 165 164
-2017.1000 4017.7844 -704.3791 0.358 -0.908 -0.217 224 171 165
-2003.7533 4005.9077 -707.1258 0.220 -0.964 -0.149 224 171 163
-1782.0066 3880.4626 -785.5804 -0.061 -0.429 -0.901 50 19 14
-1822.1993 4029.5591 -829.0533 0.306 -0.193 -0.932 99 49 50
-1727.8408 3872.2014 -814.9631 0.929 0.035 0.369 87 33 29
-1719.4229 3869.1851 -818.7385 0.923 0.044 0.382 87 36 31
-1630.0890 3840.4915 -860.3185 0.036 -0.572 -0.819 57 32 28
-1535.5135 3682.7214 -846.1728 0.074 -0.927 -0.368 21 11 9
-1177.0380 3694.3389 -1070.8992 0.798 -0.276 -0.535 250 189 197
-1173.1735 3702.1252 -1076.8197 0.802 -0.263 -0.536 251 188 195
-1195.6777 3826.0854 -1119.6431 0.985 0.152 -0.076 241 181 180
-3724.2461 2497.6716 1024.5022 0.669 -0.301 0.680 33 33 25
-3774.2356 2689.0398 967.2615 0.478 -0.303 -0.825 60 25 3
-3654.5867 2824.1448 832.2070 0.747 -0.455 0.485 61 27 0
-3503.0974 2797.7310 751.7880 0.852 -0.429 0.300 91 45 19
-3303.4026 2748.5283 652.3762 0.510 -0.783 -0.356 83 37 13
-3312.7551 2765.3362 650.3797 0.777 -0.303 0.552 83 37 14
-3301.9021 2763.9807 644.3721 0.787 -0.286 0.546 81 38 16
-3269.9514 2743.4954 634.2519 0.585 -0.385 0.714 76 33 14
-3231.1323 2924.5596 527.4902 0.410 -0.860 0.305 67 27 15
-3211.5403 2932.5781 511.8448 0.449 -0.826 0.340 56 18 7
-2774.9517 3120.6711 158.8896 -0.344 -0.931 -0.125 161 106 111
-2734.3123 3091.6421 147.3806 0.800 -0.586 0.127 159 104 109
-2767.1260 3194.2478 120.3616 0.673 -0.726 0.143 149 99 100
-2756.0679 3191.0344 115.0809 0.197 -0.815 0.545 148 98 99
-2745.7048 3188.6487 109.8452 0.186 -0.818 0.545 148 98 99
-2781.5437 3399.4604 35.0424 0.127 -0.151 -0.980 63 26 18
-2780.7644 3456.2141 8.5349 0.259 -0.194 -0.946 15 9 4
-2549.4053 3371.0356 -93.7171 0.323 -0.771 -0.548 7 7 7
-2555.4558 3403.2375 -104.7915 0.685 -0.591 0.426 19 19 19
-2513.6846 3450.3469 -151.9145 0.509 -0.761 0.403 31 30 35
-2506.4446 3451.7822 -156.9953 0.517 -0.761 0.393 40 31 33
-2021.0588 4030.1907 -718.7855 0.190 -0.963 -0.191 225 172 166
-1656.5637 3371.9607 -639.5165 0.015 -0.580 0.814 211 151 140
-1724.9546 3618.3704 -710.7632 0.982 0.012 0.186 150 116 102
-1769.5378 3737.0461 -737.9641 0.930 0.258 -0.264 109 82 67
-1762.6279 3737.5222 -742.4032 0.921 0.237 -0.309 67 45 31
-1760.9520 3750.1389 -749.2139 0.936 0.240 -0.258 45 26 12
-1756.8754 3911.5449 -825.7369 0.243 -0.391 0.888 80 32 27
-1178.8989 3368.0742 -929.5062 0.840 0.125 0.528 38 20 13
-736.9578 2816.9841 -946.6860 0.217 -0.340 -0.915 207 92 81
-731.5981 2832.5417 -957.0958 0.520 -0.439 -0.732 207 89 81
-3182.9685 1961.1852 931.6417 0.251 -0.460 0.852 61 60 55
-3186.2646 2017.0814 907.8958 0.266 -0.475 -0.839 46 45 40
-3222.8660 2048.6567 915.6579 0.639 -0.246 -0.729 41 40 35
-3218.7632 2058.0818 908.8142 0.484 -0.222 -0.847 39 36 31
-3202.4285 2052.7656 901.3066 0.559 -0.289 -0.777 39 36 31
-3170.1658 2036.1709 889.2867 0.211 -0.448 -0.869 38 35 28
-3810.0854 2751.5906 949.7180 0.338 -0.897 -0.284 58 34 22
-3850.4863 2791.2410 956.0754 0.126 -0.514 -0.849 65 39 26
-3508.4004 2796.3765 745.1857 0.843 -0.460 0.277 87 39 12
-3101.2446 2934.3149 433.4407 0.536 -0.843 0.045 80 52 51
-3061.8901 2903.2612 423.7600 0.739 -0.659 0.140 76 54 52
-2831.0325 3139.7400 174.0759 -0.231 -0.864 0.447 187 128 132
-2761.1582 3127.1775 137.2715 -0.229 -0.926 -0.301 162 110 114
-2738.7349 3193.3193 93.1270 0.709 -0.699 0.098 159 109 112
-2722.8232 3183.8757 87.7791 0.027 -0.911 0.411 159 109 111
-2792.0403 3404.8154 28.1700 -0.025 -0.228 -0.973 61 25 17
-2787.6067 3456.7263 1.5486 0.387 -0.153 -0.909 19 13 7
-1714.1771 3444.4187 -647.1052 -0.141 -0.733 0.666 184 126 114
-1706.3295 3547.9363 -699.5861 0.926 0.252 -0.282 171 132 120
-1800.5010 3985.3369 -843.7219 0.437 -0.388 0.811 66 30 19
-1366.6908 3544.2305 -904.9103 0.046 -0.285 -0.957 244 194 195
-1304.1309 3398.3645 -875.8346 0.228 -0.719 -0.657 229 183 179
-1425.7274 3809.8250 -991.3007 0.541 -0.806 -0.241 73 48 37
-1223.5374 3349.9333 -902.6462 0.630 -0.130 -0.765 71 40 35
-1173.0387 3798.2300 -1139.9882 0.911 -0.363 -0.195 237 176 175
-751.2162 2865.5520 -967.3699 0.209 -0.338 -0.918 207 92 81
-737.5429 2843.5408 -965.5627 0.538 -0.449 -0.713 205 91 80
-3202.8516 1982.4998 925.5707 -0.172 -0.885 -0.433 63 60 53
-3211.2566 2006.1561 919.7339 0.005 -0.892 -0.452 64 60 53
-3229.0513 2042.6721 913.6567 0.647 -0.228 -0.727 54 49 43
-3244.7932 2059.7502 915.3280 0.647 -0.209 -0.734 45 41 34
-3264.7271 2104.8594 906.5746 0.677 -0.419 -0.605 38 35 28
-3263.9580 2110.6189 903.4410 0.677 -0.419 -0.605 37 34 27
-3306.6343 2147.2324 912.4541 0.120 -0.625 -0.772 37 34 27
-3801.9365 2620.2061 994.8275 0.410 -0.794 0.449 97 77 62
-3822.0779 2642.9917 996.5330 0.329 -0.677 0.659 105 79 67
-3875.9363 2691.0632 1007.0449 0.896 -0.025 0.444 115 84 74
-4005.8411 2804.6245 1033.5033 0.192 -0.638 0.746 94 61 46
-3831.8171 2713.9417 969.6177 0.910 -0.414 -0.009 59 27 6
-3654.1641 2795.2087 823.9367 -0.155 -0.958 0.243 52 30 7
-3659.0791 2816.0840 817.2642 0.637 -0.228 0.736 56 28 4
-3641.8259 2810.2319 809.4777 0.595 -0.272 0.756 56 29 5
-3396.2454 2854.2913 639.6982 0.301 -0.495 0.815 78 31 16
-3376.7639 2845.3269 631.9970 0.316 -0.486 0.815 78 30 16
-3368.9941 2864.3601 618.4609 0.960 -0.278 0.012 64 16 2
-3358.4460 2872.1929 608.4191 0.959 -0.240 0.151 48 7 0
-3110.5742 2928.1077 431.7583 0.569 -0.821 0.054 88 59 53
-3106.4458 2933.0620 426.9539 0.547 -0.835 0.053 81 54 50
-3100.7776 2936.4546 421.9358 0.547 -0.835 0.053 71 48 44
-1721.3411 3448.7559 -654.2959 -0.034 -0.684 0.729 180 125 114
-1657.2084 3365.4065 -654.7289 -0.131 -0.633 0.763 179 124 115
-1819.9574 3964.6125 -833.0749 0.295 -0.273 -0.916 42 31 19
-1527.9414 3913.9893 -987.2767 0.971 0.234 0.058 232 186 189
-1165.1105 3561.4370 -1044.8057 0.717 -0.201 -0.668 86 40 42
-1164.6396 3580.1633 -1053.7596 0.739 -0.183 -0.649 103 49 54
-701.2913 2661.6592 -910.4791 0.429 -0.267 -0.863 212 87 79
-972.7973 4013.6069 -1371.0789 -0.161 -0.717 -0.678 240 32 56
-3223.2351 2004.2828 919.4506 0.044 -0.844 -0.535 68 61 54
-3234.7239 2042.4502 908.6790 0.647 -0.228 -0.727 68 61 55
-3250.3528 2059.4255 910.2736 0.657 -0.213 -0.724 61 54 48
-3793.1560 2539.6750 1016.4847 -0.082 -0.821 0.566 19 11 3
-3754.8413 2526.9365 999.1489 0.928 -0.239 0.284 18 9 2
-3676.9167 2492.4268 967.8912 0.951 -0.153 0.270 53 41 29
-3670.0098 2494.7671 962.6103 0.948 -0.163 0.273 81 65 50
-3656.3811 2492.1482 955.5548 0.543 -0.740 0.397 90 72 54
-3654.1897 2497.9480 951.5281 0.513 -0.759 0.401 99 78 59
-3828.9014 2642.6851 990.2892 0.281 -0.692 0.666 116 89 73
-3814.0303 2767.9548 923.0186 -0.089 -0.436 -0.895 77 51 35
-3656.9473 2808.4539 808.8340 0.637 -0.230 0.736 57 30 8
-3606.8928 2792.1606 786.0246 0.441 -0.347 0.828 51 26 4
-3463.2966 2804.7610 692.9984 0.984 -0.163 0.070 75 40 19
-3394.8882 2804.0168 651.8182 0.567 -0.456 0.686 90 41 24
-3350.1887 2858.4275 599.3861 0.955 -0.249 0.161 64 16 5
-3330.0535 2866.0906 583.6003 -0.133 -0.568 -0.812 49 15 3
-3332.9805 2877.5903 580.0303 -0.481 -0.628 -0.612 52 16 3
-3256.6516 2912.0615 517.6690 0.565 -0.440 0.697 103 55 29
-3121.6943 2932.8462 426.0816 0.566 -0.774 -0.285 87 58 47
-3120.6992 2940.9968 421.6879 0.064 -0.946 -0.319 74 47 39
-3114.2747 2943.6479 416.5554 0.166 -0.951 -0.262 59 36 28
-3085.6416 2932.7688 404.2322 -0.136 -0.812 0.568 40 28 14
-3076.8088 2932.8833 398.8172 0.136 -0.805 0.577 44 35 20
-3059.0742 2923.8057 392.2723 0.557 -0.804 0.209 49 45 31
-2799.8789 3108.0256 149.2798 0.955 -0.105 0.279 169 131 136
-2680.5505 3353.9985 -37.5202 0.941 -0.279 -0.192 31 19 18
-2682.3171 3367.7937 -42.8618 0.946 -0.263 -0.186 30 18 17
-1722.4316 3439.7598 -659.0055 -0.072 -0.678 0.731 133 83 73
-1662.7972 3366.6062 -661.1932 -0.129 -0.640 0.758 93 43 37
-1512.7338 3486.1460 -807.8663 0.827 0.061 0.559 39 20 14
-1529.6237 3884.2593 -982.7141 0.967 0.254 0.019 225 182 185
-1183.4497 3800.1025 -1153.7252 0.698 -0.571 0.433 233 167 173
-1178.0974 3803.1201 -1158.3773 0.698 -0.571 0.433 233 168 172
-743.9329 2860.2900 -983.5665 0.453 -0.211 -0.866 218 61 64
-3199.6899 1996.0771 900.5873 0.456 -0.461 0.761 69 60 52
-3235.9763 2045.2743 899.5919 0.632 -0.293 -0.718 64 57 49
-3251.9746 2062.5232 901.2275 0.743 -0.230 -0.629 61 54 46
-3236.7751 2076.6462 885.4241 0.765 -0.343 -0.544 46 41 35
-3232.5701 2079.9006 881.3570 0.787 -0.350 -0.508 47 42 36
-3307.8455 2139.3577 899.1881 0.377 -0.618 -0.690 47 42 36
-3504.5449 2319.4907 934.2150 0.545 -0.668 -0.507 30 18 10
-3710.8008 2482.4985 983.0287 0.696 -0.293 0.655 23 9 2
-3699.4934 2481.6750 976.5636 0.862 -0.267 0.431 33 21 12
-3695.8293 2486.3870 972.1436 0.862 -0.267 0.431 43 31 22
-3692.1621 2491.1040 967.7191 0.862 -0.267 0.431 55 45 35
-3667.0083 2487.4919 954.1686 0.948 -0.163 0.274 94 74 55
-3644.5632 2478.3843 944.8255 0.714 -0.319 0.623 105 81 59
-3651.3103 2490.7375 943.1434 0.543 -0.755 0.366 112 86 64
-3823.9897 2625.8718 984.6354 0.453 -0.754 0.476 118 92 70
-3822.0808 2632.2532 980.4987 0.285 -0.693 0.662 121 96 75
-3962.2378 2785.2578 993.9436 0.685 -0.293 0.667 75 44 24
-3849.0251 2740.2178 946.3978 0.297 -0.509 -0.808 57 26 5
-3853.8438 2760.2512 939.9606 0.322 -0.518 -0.792 62 32 13
-3879.2915 2804.7141 934.6104 -0.379 -0.542 -0.750 78 51 31
-3614.4744 2801.0208 775.9172 0.908 -0.283 0.309 54 28 12
-3284.1694 2869.7402 543.7341 -0.065 -0.861 0.504 104 55 32
-3254.1470 2858.9929 530.5667 0.724 -0.482 0.493 108 53 28
-3225.1147 2911.1067 488.6411 0.857 -0.512 -0.062 91 33 10
-3135.0791 2930.7043 424.9474 0.472 -0.811 -0.345 102 75 52
-3087.6719 2928.2954 397.3546 -0.136 -0.812 0.568 50 27 6
-3082.4814 2932.1423 392.4137 0.127 -0.807 0.576 56 32 13
-2795.6194 3105.6802 137.5935 0.954 -0.102 0.282 168 147 151
-2693.1902 3197.2112 32.7971 0.623 -0.510 0.593 81 41 48
-2833.9106 3457.2656 -3.4123 0.416 -0.498 0.761 65 30 29
-2676.9961 3492.5054 -114.9246 -0.191 -0.798 -0.572 13 13 6
-2683.0251 3513.0327 -120.8593 -0.421 -0.863 -0.279 17 12 7
-2670.4460 3507.4062 -125.8515 -0.395 -0.887 -0.239 27 16 13
-2647.0649 3498.4927 -135.8522 -0.394 -0.887 -0.243 35 14 14
-2638.3606 3498.2126 -140.9942 -0.174 -0.969 -0.177 36 13 13
-1946.5016 3380.7561 -505.2459 0.226 -0.930 -0.290 234 185 184
-1940.3553 3382.4756 -509.7722 0.223 -0.927 -0.303 229 186 187
-1879.5415 3541.8726 -621.0549 0.122 -0.892 0.436 228 184 182
-1868.2964 3533.3179 -623.8714 0.188 -0.911 0.368 226 181 181
-1853.7977 3517.9316 -625.4684 0.253 -0.916 0.310 223 178 179
-1842.6588 3509.3801 -628.2223 0.651 -0.753 0.096 228 180 180
-1806.4125 3477.2000 -635.1500 0.111 -0.543 0.833 233 176 178
-1795.0873 3467.8464 -637.6420 0.079 -0.553 0.830 231 175 178
-1714.7349 3426.2373 -666.8844 -0.104 -0.972 -0.209 56 17 12
-1704.6481 3418.7405 -669.4934 0.105 -0.992 -0.068 55 18 12
-1302.7494 2846.9368 -645.9011 0.010 -0.554 -0.833 36 17 10
-1156.4146 3422.0425 -1003.1390 0.999 0.038 0.026 161 149 145
-1174.6675 3602.5579 -1076.3883 0.765 -0.182 -0.618 86 47 52
-1209.1886 3807.6548 -1151.2633 0.689 -0.146 -0.710 150 76 85
-1218.0834 3861.2141 -1170.8890 0.689 -0.146 -0.710 159 87 95
-1165.8088 3807.8589 -1177.6368 0.934 0.178 0.309 229 157 161
-1147.1764 3784.4751 -1178.0028 0.880 -0.474 0.033 226 152 158
-1140.6843 3783.0466 -1181.2684 0.886 -0.463 0.025 224 150 155
-1136.2001 3812.0691 -1197.5392 0.977 -0.141 0.163 230 158 164
-1128.1831 3828.1526 -1209.9072 0.919 -0.395 -0.015 233 159 160
-3214.8181 2014.3929 892.7589 0.475 -0.230 -0.849 69 62 54
-3252.3098 2058.5669 894.7000 0.759 -0.232 -0.609 69 62 54
-3236.6990 2078.5723 875.8783 0.787 -0.350 -0.508 59 54 48
-3326.1150 2147.9011 897.4075 0.624 -0.611 -0.487 60 55 49
-3402.8599 2235.1233 902.8826 0.068 -0.106 -0.992 31 22 15
-3340.1560 2196.7910 882.9602 -0.074 -0.653 -0.754 32 19 11
-3640.5999 2470.4329 936.2100 0.714 -0.319 0.623 121 93 72
-3647.2231 2482.6597 934.4780 0.705 -0.375 0.602 129 99 79
-3827.5513 2623.1677 977.5727 0.534 -0.817 0.219 131 104 83
-3817.8931 2623.8037 971.4359 0.285 -0.696 0.659 131 103 82
-3867.4666 2716.2773 958.0225 0.452 -0.443 0.774 77 48 25
-3863.3613 2721.2363 953.2143 0.810 -0.281 0.516 62 33 10
-3859.2002 2726.1611 948.3886 0.742 -0.328 -0.585 61 33 10
-3860.0125 2743.0088 940.9761 0.483 -0.439 -0.757 61 33 12
-3873.8574 2761.7649 940.5466 0.345 -0.542 0.767 63 35 14
-3878.0042 2773.1589 937.7081 0.364 -0.534 0.763 68 39 21
-3469.4727 2806.7332 674.9980 0.981 -0.176 0.075 57 30 13
-3474.3164 2819.4609 671.9551 0.678 -0.545 0.494 61 29 11
-3364.4307 2790.4050 619.1591 0.324 -0.698 -0.638 83 33 20
-3348.2109 2792.8403 608.2117 0.152 -0.825 -0.544 94 39 24
-3326.7908 2816.1479 584.3291 0.769 -0.374 0.519 104 47 34
-3332.8325 2830.2756 581.3539 0.747 -0.383 0.543 102 49 33
-3282.2373 2844.2239 544.2254 0.241 -0.945 0.221 94 53 31
-3141.3726 2930.5269 418.5853 0.506 -0.786 -0.356 107 78 55
-3138.6030 2936.8687 413.9362 0.511 -0.778 -0.365 74 45 24
-3087.9709 2922.0684 390.2718 0.278 -0.757 0.592 58 30 12
-2775.0757 3083.8049 125.2509 0.964 -0.132 0.231 174 156 157
-2774.0005 3102.7356 115.7203 -0.157 -0.877 0.455 169 138 143
-2772.6533 3142.0393 96.4677 -0.401 -0.828 0.390 180 139 152
-2719.9790 3098.0063 85.2825 0.606 -0.599 -0.524 176 141 154
-2715.2192 3206.8345 31.3519 0.732 -0.681 0.034 72 46 49
-2726.1875 3242.3271 21.3321 0.311 -0.707 -0.635 86 52 56
-2759.5576 3296.0532 16.3006 -0.033 -0.420 -0.907 79 44 44
-2842.9143 3483.7952 -21.3829 0.849 -0.412 0.332 75 42 41
-2747.6555 3392.6606 -36.2146 -0.569 -0.818 0.081 68 37 34
-2698.4043 3361.1941 -51.2257 0.487 -0.818 -0.305 64 35 31
-2583.4585 3458.8455 -166.5212 0.133 -0.775 -0.618 70 44 40
-2338.2620 3584.7241 -373.7962 0.941 -0.262 0.213 224 177 171
-1928.6304 3500.5547 -581.9359 0.232 -0.909 0.345 229 187 188
-1926.1503 3509.8042 -587.7742 0.299 -0.882 0.364 230 187 188
-1924.8368 3521.4246 -594.0195 0.589 -0.808 -0.006 230 187 188
-1842.7026 3469.5081 -619.3151 0.061 -0.943 0.327 221 181 179
-1853.5168 3506.1826 -629.9827 0.715 -0.413 0.565 228 188 186
-1840.9274 3494.6211 -632.1693 0.776 -0.440 0.451 226 187 184
-1821.8751 3469.4932 -631.8986 0.156 -0.553 0.819 217 178 174
-1815.0376 3469.6553 -636.1079 0.077 -0.527 0.847 217 178 173
-1803.9312 3460.8386 -638.6858 0.081 -0.524 0.848 216 175 171
-1726.4956 3426.0051 -669.1550 -0.328 -0.642 0.693 31 7 2
-1709.7500 3418.6343 -675.8201 0.105 -0.992 -0.068 28 5 1
-1702.1129 3416.4846 -679.4282 0.072 -0.992 -0.101 27 6 1
-1440.2728 3088.2244 -683.7195 0.279 -0.957 0.081 37 22 15
-1432.6720 3083.9871 -686.3264 0.199 -0.977 0.078 36 21 14
-1424.6147 3078.5894 -688.6650 0.037 -0.999 0.035 35 22 12
-1297.5818 2903.7007 -683.4136 0.301 -0.896 -0.325 31 16 7
-1187.7825 3254.3721 -914.2944 0.833 0.018 0.553 36 31 18
