ply
format ascii 1.0
element vertex 782
property float x
property float y
property float z
property float nx
property float ny
property float nz
property uchar diffuse_red
property uchar diffuse_green
property uchar diffuse_blue
end_header
-1955.6820 5569.1909 -33.3871 -0.056 -0.608 -0.792 252 245 247
-5127.5020 3496.4668 2698.2031 0.516 -0.508 -0.690 171 174 165
-5118.4180 3500.8438 2690.7397 0.506 -0.504 -0.700 177 180 173
-4521.3809 3791.3467 2199.4915 0.993 -0.114 0.038 20 22 19
-4454.0386 3767.9089 2158.5239 0.553 -0.365 -0.749 12 14 11
-4448.5522 3774.9680 2152.8818 0.552 -0.366 -0.750 12 14 11
-3630.0332 3251.1396 1716.3335 0.418 -0.479 -0.772 40 41 35
-3260.4624 2912.4329 1545.4857 0.043 -0.518 0.854 37 38 32
-3161.8420 2828.3916 1498.2649 0.131 -0.513 0.848 37 35 30
-3063.2666 2806.9138 1434.9995 0.071 -0.526 0.847 57 12 14
-2943.3428 2725.7510 1372.1738 -0.253 -0.967 0.023 128 55 54
-2926.5706 2744.8982 1355.5507 0.106 -0.506 0.856 88 36 27
-2898.6338 2725.9902 1340.9153 0.106 -0.506 0.856 78 35 23
-2911.9043 2748.2249 1344.4618 0.121 -0.508 0.853 65 34 26
-2889.2747 2734.4985 1332.1985 0.125 -0.507 0.853 73 46 42
-2836.3096 2716.7205 1299.8085 0.298 -0.431 0.852 200 179 175
-2810.5669 2708.2888 1284.0122 0.310 -0.432 0.847 216 194 191
-2840.8877 2775.6541 1287.8597 0.163 -0.770 0.617 217 195 173
-2828.6860 2772.1316 1280.2507 0.163 -0.770 0.617 216 195 174
-2798.4551 2749.7554 1264.9058 -0.315 -0.867 0.387 177 151 133
-3237.9734 3337.4480 1420.5837 0.368 -0.429 0.825 167 134 113
-3107.6533 3315.1086 1335.3889 0.928 -0.332 0.169 187 171 158
-3110.2573 3329.1033 1333.6100 0.983 -0.001 -0.185 186 170 157
-3111.9197 3353.2673 1328.5609 0.997 -0.046 -0.070 185 170 157
-3274.8091 4163.7798 1233.9575 0.084 -0.260 -0.962 182 158 138
-3407.4387 4354.5508 1277.4847 0.271 -0.612 0.743 171 155 133
-3303.8604 4320.9263 1213.8496 0.735 -0.546 -0.402 194 142 129
-3210.3987 5477.7236 851.3895 0.976 -0.198 0.095 175 140 134
-3022.7913 5500.7153 714.5728 0.851 -0.367 -0.375 108 99 92
-3013.6938 5505.4199 707.0157 0.830 -0.396 -0.393 98 89 82
-3007.7405 5516.0767 700.1232 0.839 -0.386 -0.383 52 43 36
-3005.8882 5534.5762 694.0773 0.620 -0.517 -0.590 32 23 16
-2843.2036 5715.2568 534.1321 0.665 -0.537 -0.519 27 16 10
-2728.4985 5640.3823 473.3324 0.047 -0.858 0.512 149 105 92
-2698.0300 5670.7739 444.2628 0.484 -0.797 0.361 160 114 101
-2705.3899 5809.9336 413.6406 0.887 0.098 -0.452 146 105 87
-2732.2070 5894.7788 410.5517 0.871 -0.346 0.350 146 105 87
-2730.8284 5917.2251 403.8221 0.892 -0.338 0.300 149 108 90
-2726.3909 5932.9409 396.6874 0.912 -0.288 0.292 149 108 90
-2735.6809 6535.8013 248.2622 0.868 -0.270 -0.416 97 77 62
-5156.5767 3478.8835 2708.7219 0.280 -0.544 -0.791 184 187 180
-5159.1558 3491.5283 2707.2432 0.272 -0.529 -0.804 189 190 184
-5137.0430 3497.5137 2690.2932 0.516 -0.508 -0.690 172 173 165
-5128.1104 3502.0042 2682.9089 0.506 -0.504 -0.700 175 178 171
-4543.8228 3792.1387 2200.8486 0.993 0.017 -0.113 20 22 17
-4501.2974 3766.9390 2177.7588 0.997 -0.079 -0.003 20 22 17
-4381.5815 3697.1626 2112.4553 0.897 -0.098 0.432 12 14 9
-3417.0427 2948.5354 1634.5985 0.924 -0.351 0.150 34 34 32
-3413.9043 2955.1323 1630.7042 0.924 -0.351 0.150 34 34 32
-3005.7361 2701.4741 1412.1345 0.860 0.023 -0.509 56 29 28
-3028.8152 2732.3574 1420.2094 0.862 0.030 -0.505 70 28 26
-2886.6545 2673.5022 1336.4460 0.369 -0.393 0.842 155 85 83
-2880.2864 2675.9592 1331.3749 0.368 -0.388 0.845 155 93 90
-2876.1218 2680.5925 1327.2744 0.361 -0.385 0.849 124 70 65
-2876.1304 2698.1917 1322.7224 0.110 -0.504 0.857 168 137 119
-2851.9165 2682.8235 1309.8391 0.079 -0.514 0.854 197 171 157
-2840.2219 2688.6946 1300.1741 0.165 -0.500 0.850 215 197 192
-2835.6338 2701.7461 1293.5985 0.297 -0.483 0.824 203 193 189
-2800.6379 2683.8953 1273.8492 0.351 -0.650 0.674 204 197 200
-2791.5703 2683.4688 1267.6447 0.365 -0.645 0.671 209 204 208
-2813.0461 2714.3291 1274.6089 0.295 -0.441 0.848 215 210 207
-2834.9470 2754.8486 1279.3676 0.942 -0.145 0.304 210 205 197
-2825.0347 2762.7659 1270.4138 0.122 -0.844 0.522 211 206 194
-3216.7607 3318.6345 1399.2643 0.338 -0.443 0.830 126 104 92
-3145.8108 3295.7612 1355.7760 0.289 -0.418 0.861 131 105 90
-3103.0410 3303.0413 1324.1041 0.861 -0.424 0.279 175 158 145
-3096.2000 3306.3706 1318.4775 0.886 -0.372 0.276 187 168 157
-3091.5425 3312.1553 1313.7357 0.962 -0.268 0.046 187 168 157
-3300.9651 3656.1833 1370.4869 0.961 -0.071 -0.268 189 168 153
-3007.5845 3572.4724 1187.8458 -0.479 -0.671 0.567 186 157 139
-3291.1335 3939.0149 1290.3907 0.846 -0.339 0.411 187 158 140
-3303.0071 3994.5308 1284.2820 0.998 0.002 -0.070 187 157 133
-3363.7227 4331.4639 1239.3058 0.129 -0.622 0.772 170 152 134
-3140.8723 5617.1934 751.1190 0.695 -0.530 0.486 153 121 110
-3006.1372 5497.1826 688.3655 -0.110 -0.950 0.292 47 37 28
-2986.1350 5481.1357 678.5912 -0.195 -0.954 0.229 26 15 9
-2904.6350 5412.3706 639.6407 0.487 -0.351 -0.800 22 18 13
-2744.0500 5185.8979 586.4567 -0.362 -0.928 -0.088 19 15 12
-2714.0803 5169.0034 569.9600 0.197 -0.925 -0.324 19 16 11
-3056.0276 5988.3442 595.9072 0.402 -0.027 -0.915 17 16 12
-2790.7290 5707.0410 483.9970 0.746 -0.191 0.638 147 106 106
-2726.1860 5641.5444 456.0095 -0.206 -0.945 0.255 158 112 99
-2705.5056 5668.9707 434.5039 0.482 -0.799 0.360 154 108 95
-2696.0601 5672.6216 426.9801 0.486 -0.795 0.363 142 96 83
-2759.4707 6571.4414 238.3603 0.926 -0.374 0.043 99 76 60
-2111.5981 5394.6484 91.9302 0.182 -0.941 0.284 31 23 10
-1984.7787 5284.0176 32.2603 0.088 -0.996 0.003 183 165 161
-1864.3391 5593.9634 -131.8899 -0.110 -0.397 -0.911 254 248 252
-1681.4385 5051.5942 -118.8028 0.371 -0.866 0.336 253 247 251
-5147.9717 3499.5430 2683.0796 0.272 -0.701 -0.659 179 180 172
-5137.8105 3503.1658 2675.0713 0.506 -0.504 -0.700 174 175 169
-4525.1294 3441.3694 2265.3301 0.628 -0.760 0.168 194 196 191
-4520.7065 3765.1965 2177.7324 0.990 0.044 -0.135 28 30 25
-4475.6108 3737.7268 2153.5566 0.992 -0.010 -0.124 27 29 24
-3381.1646 2910.3745 1608.7648 0.910 0.042 -0.413 43 43 41
-2973.2302 2622.4666 1400.3605 0.587 -0.723 0.363 17 18 11
-2954.5479 2613.3865 1389.7446 0.958 -0.194 0.212 30 25 20
-2896.8042 2660.8457 1337.2197 0.169 -0.490 0.855 162 73 77
-2881.5598 2654.5979 1328.2542 0.544 -0.330 0.772 148 74 74
-2871.6965 2653.5781 1321.6644 0.561 -0.331 0.759 160 93 93
-2873.2720 2663.8071 1320.0896 0.554 -0.334 0.762 161 103 101
-2813.3655 2647.7185 1282.6484 0.124 -0.503 0.856 214 198 179
-2763.5864 2729.3477 1226.7410 -0.042 -0.862 -0.506 147 148 152
-3110.4390 3405.0913 1291.4572 0.416 -0.347 0.841 204 168 153
-3164.4600 3597.5803 1278.7644 -0.273 -0.725 0.632 182 162 156
-2968.0935 3432.6995 1185.3076 -0.494 -0.868 0.052 176 157 151
-3350.3103 4303.6001 1223.6663 0.117 -0.620 0.776 184 168 154
-3338.0117 4302.0708 1215.5170 0.121 -0.621 0.774 182 154 143
-3312.5459 4312.7046 1195.0402 0.769 -0.494 -0.406 197 127 125
-3348.5527 5823.1021 825.8329 0.798 -0.507 0.325 191 158 153
-3057.7109 5469.6074 715.9379 0.093 -0.874 0.477 156 126 117
-3037.7322 5497.2769 694.8286 -0.250 -0.968 0.019 113 97 90
-3028.5322 5501.7852 687.2570 -0.119 -0.945 0.304 108 92 85
-2938.1560 5461.0410 635.0719 0.025 -0.664 -0.748 22 18 11
-2931.0610 5469.2812 627.9894 0.025 -0.664 -0.748 21 18 12
-2856.0042 5367.4731 602.3914 -0.393 -0.914 -0.096 21 18 12
-2813.5491 5349.3892 577.6012 -0.235 -0.932 -0.275 19 16 10
-2779.2622 5303.4072 565.7706 -0.016 -0.800 -0.599 19 16 10
-2770.8420 5308.3130 558.6373 0.025 -0.772 -0.635 16 14 10
-2795.9683 5380.0039 557.3900 0.335 -0.706 -0.624 16 14 10
-2789.9062 5389.8813 550.5982 0.343 -0.726 -0.595 16 14 10
-2851.8293 5558.9346 549.5152 0.197 -0.977 -0.080 20 18 14
-2841.8394 5561.5688 541.8836 0.197 -0.977 -0.080 19 17 13
-2826.9893 5554.3081 533.4565 -0.351 -0.843 0.408 18 16 11
-2768.4121 5666.0244 463.5804 0.777 -0.135 0.614 159 116 106
-2710.3491 5661.4946 424.4037 0.482 -0.799 0.360 116 69 57
-2732.1843 5856.7769 388.6096 0.810 -0.360 0.464 123 78 62
-2737.5635 5893.9829 382.6373 0.904 -0.297 0.308 131 86 70
-2729.4612 5901.3623 375.0793 0.912 -0.288 0.292 130 86 69
-2712.6997 5889.3457 366.5651 0.922 -0.268 0.281 132 87 71
-2691.8457 5919.1934 344.2788 0.300 -0.603 0.739 111 65 49
-2668.2529 5917.0835 328.4304 0.651 -0.447 0.613 110 63 48
-2265.4214 5808.2817 76.8237 -0.507 -0.856 -0.100 38 30 16
-1941.8149 5247.7905 -1.8169 -0.604 -0.766 -0.220 241 224 225
-1933.2777 5520.7422 -78.9954 0.218 -0.973 -0.075 251 245 247
-1916.1365 5498.0449 -84.9857 0.425 -0.850 -0.311 255 249 253
-5159.2314 3501.8005 2676.0171 0.272 -0.701 -0.659 180 181 175
-5160.9355 3513.8887 2674.0195 0.303 -0.600 -0.740 173 174 168
-4453.6260 3711.8381 2131.2537 0.990 -0.012 -0.141 29 31 28
-2987.5991 2630.9316 1398.5170 0.623 -0.641 0.448 12 20 6
-2957.5701 2611.2393 1382.8643 0.896 -0.383 0.222 22 20 11
-2948.5154 2611.1733 1376.5999 0.886 -0.398 0.237 43 18 16
-2939.9670 2611.5645 1370.5665 0.904 -0.391 0.174 75 24 32
-2940.4946 2620.5435 1368.5707 0.968 0.021 -0.249 123 51 61
-2953.7903 2641.7019 1372.2290 0.973 0.013 -0.230 168 66 68
-2832.2627 2626.8118 1291.8359 0.622 -0.317 0.716 186 154 143
-2827.7517 2630.9402 1287.6205 0.603 -0.323 0.730 176 158 139
-2798.2090 2670.7651 1256.6495 0.908 -0.069 -0.414 131 165 184
-2973.5532 2972.8806 1298.8263 -0.680 -0.726 -0.103 171 123 96
-3073.0991 3277.6621 1287.7167 0.879 -0.290 0.378 130 100 90
-3029.8413 3327.6230 1244.5647 0.397 -0.320 0.860 219 174 154
-3023.6062 3331.5671 1239.2015 0.374 -0.336 0.865 208 177 167
-2985.9924 3310.1326 1218.7450 0.675 -0.240 0.697 177 168 165
-2980.2542 3314.5613 1213.5991 0.677 -0.240 0.695 171 161 161
-2968.8103 3312.2964 1206.2559 0.594 -0.291 0.750 172 162 159
-2919.7761 3424.3916 1142.7527 0.983 -0.179 -0.042 192 161 140
-3395.3174 4308.8418 1240.0139 0.262 -0.617 0.742 197 190 185
-3358.0386 4274.3628 1223.2212 0.230 -0.594 0.771 204 201 200
-3301.6460 4228.8394 1196.0732 0.375 -0.890 -0.259 219 213 210
-3319.7312 4282.5781 1194.4845 0.258 -0.836 -0.485 203 155 155
-3311.1543 4330.9434 1175.8121 0.498 -0.621 -0.606 246 155 161
-3192.4631 5401.6597 811.8282 0.766 -0.607 -0.210 178 147 144
-3200.0630 5435.7437 808.1352 0.983 -0.184 -0.016 154 123 120
-3197.1975 5451.5981 801.9769 0.983 -0.184 -0.016 129 98 95
-3200.4875 5478.4165 797.2051 0.900 -0.172 0.401 184 153 150
-3033.7786 5495.9111 676.9488 -0.250 -0.968 0.019 131 105 100
-3009.5908 5493.9434 660.6859 -0.218 -0.938 0.269 39 13 8
-3002.7097 5502.7568 653.5939 -0.189 -0.982 0.029 37 14 8
-2944.7688 5501.7388 613.6651 -0.373 -0.919 -0.127 25 18 9
-2841.0518 5543.2456 530.7932 -0.123 -0.992 -0.028 22 16 9
-2784.6294 5658.8877 461.2316 0.918 -0.011 0.397 127 91 86
-2733.0186 5668.4009 422.9240 0.861 -0.463 -0.208 151 107 97
-2722.6360 5670.0806 415.2794 0.735 -0.637 -0.231 158 114 104
-2711.1772 5669.4009 407.5085 0.680 -0.672 -0.294 165 121 111
-2729.2690 5881.8745 364.1706 0.913 -0.284 0.292 167 119 103
-2714.0840 5873.3564 355.8766 0.922 -0.268 0.281 167 119 103
-2698.5352 5863.9009 347.5768 0.946 -0.123 0.300 166 117 102
-2681.1650 5901.2852 325.6926 0.304 -0.604 0.737 163 111 94
-2671.1797 5904.2861 317.9759 0.648 -0.448 0.616 158 106 88
-2463.9011 5885.9927 178.9879 0.530 -0.471 0.706 117 76 57
-2425.0879 5870.3408 156.1783 0.624 -0.472 -0.623 93 79 58
-2398.5959 6052.3042 89.9356 0.333 -0.940 -0.079 29 23 7
-2338.2310 5950.9600 74.7150 0.376 -0.494 0.784 31 26 9
-1964.0566 5263.7305 -4.0999 -0.607 -0.764 -0.217 236 214 215
-1951.9723 5255.9233 -10.4298 -0.607 -0.764 -0.217 232 212 215
-1927.2697 5398.0771 -64.9596 0.900 0.020 -0.436 242 231 237
-1866.7688 5275.4414 -74.6739 0.089 -0.912 -0.401 242 233 238
-1854.5785 5293.3628 -87.8450 0.055 -0.902 -0.428 254 246 251
-1846.5289 5296.5610 -94.2707 0.040 -0.905 -0.423 253 245 250
-1844.8666 5318.8652 -101.2908 0.078 -0.982 -0.174 254 246 251
-5168.1855 3502.4136 2667.7727 0.377 -0.345 -0.859 180 181 175
-5172.6548 3516.4614 2667.1438 0.303 -0.600 -0.740 173 174 168
-5139.7847 3525.6990 2641.9355 0.250 -0.682 -0.687 186 188 183
-4298.6519 2967.8970 2207.3787 0.154 -0.489 -0.859 191 193 188
-3356.3743 2849.5781 1586.2968 0.484 -0.553 0.679 38 40 38
-3352.9490 2864.7666 1579.8992 0.942 0.105 -0.319 39 39 37
-3395.0637 2921.4780 1594.0277 0.827 -0.376 0.418 26 25 23
-2978.4839 2617.4055 1386.1816 0.644 -0.622 0.446 8 23 5
-2961.3616 2609.8203 1376.3367 0.833 -0.548 0.075 21 17 9
-2943.2087 2601.1975 1366.0530 0.971 0.023 -0.237 48 14 15
-2952.0491 2617.9744 1367.7271 0.972 0.015 -0.233 96 33 44
-2952.6646 2627.0474 1365.7483 0.972 0.015 -0.233 159 68 86
-2955.5105 2638.2725 1364.7437 0.973 0.013 -0.230 190 72 83
-2964.9175 2655.7937 1366.6128 0.980 0.000 -0.200 201 58 63
-2812.5884 2610.8010 1273.0643 0.551 -0.333 0.765 148 147 132
-2799.0125 2666.2795 1248.9587 0.889 -0.160 -0.428 100 148 171
-2800.5417 2676.5913 1247.2844 0.884 -0.151 -0.442 43 105 129
-2795.7649 2680.5173 1242.9362 0.900 -0.215 -0.380 35 109 137
-2826.3108 2729.5083 1251.1008 0.937 -0.177 -0.303 12 91 128
-2825.6135 2737.7690 1248.4285 0.937 -0.177 -0.303 5 82 117
-2802.4131 2740.8062 1231.5592 -0.443 -0.821 0.359 38 91 136
-3074.7659 3283.6079 1276.2623 0.850 -0.253 0.463 158 122 113
-3066.1357 3284.8198 1269.9655 0.918 -0.081 0.389 143 105 92
-3043.3523 3280.9243 1255.2224 0.574 -0.253 0.779 164 125 105
-2985.6809 3280.6584 1215.3606 0.415 -0.312 0.855 163 137 127
-2972.3645 3298.2893 1201.4668 0.675 -0.240 0.697 169 161 161
-3267.6702 3717.0762 1294.9346 -0.491 -0.688 0.534 169 149 139
-3184.2432 3629.9697 1260.2577 -0.490 -0.687 0.537 171 147 135
-2932.1213 3397.2373 1147.3744 0.150 -0.716 0.682 188 160 142
-2948.8245 3476.1860 1138.0135 0.987 -0.163 0.018 191 164 144
-2945.5444 3483.9856 1133.6749 0.235 -0.884 0.403 190 163 143
-3002.9543 3704.4912 1114.9781 0.426 -0.885 0.189 181 170 151
-2988.7871 3698.9216 1106.6448 0.419 -0.885 0.204 179 171 150
-2953.1116 3690.7522 1084.1082 0.448 -0.742 0.499 198 187 165
-3313.4658 4205.7109 1197.1246 0.438 -0.844 -0.310 221 218 221
-3308.5498 4213.7534 1191.5889 0.380 -0.841 -0.385 225 225 227
-3296.9170 4212.8784 1183.7662 0.336 -0.844 -0.419 233 230 228
-3294.6079 4224.4150 1179.1094 0.322 -0.870 -0.372 241 220 217
-3296.8250 4256.8125 1172.0573 0.179 -0.738 -0.650 200 123 128
-3327.6675 4313.2305 1178.4584 0.578 -0.598 -0.556 188 90 100
-3319.4417 4332.1777 1167.7405 0.498 -0.621 -0.606 246 160 166
-2343.1377 3300.0151 765.3254 0.570 -0.819 0.069 199 177 160
-2341.7190 3309.9282 761.7155 -0.040 -0.773 0.633 200 178 161
-3171.0205 5329.1924 800.6995 0.879 -0.427 0.212 192 159 154
-3180.3430 5407.1050 786.5027 0.915 -0.149 0.376 140 109 106
-3175.7681 5461.6943 768.8651 0.893 -0.172 0.416 193 162 159
-3144.9204 5534.0054 728.3389 0.691 -0.343 0.636 193 160 155
-3154.6992 5573.4536 724.6535 0.862 -0.253 0.439 188 155 150
-3010.9407 5480.7632 649.6824 -0.271 -0.926 0.261 77 49 45
-3003.3403 5509.9814 636.6751 -0.235 -0.969 0.082 75 50 45
-2994.7769 5515.6274 629.2491 -0.147 -0.972 0.181 73 50 44
-2963.7322 5500.2202 611.8373 0.148 -0.659 -0.737 51 41 32
-2902.3857 5469.5908 577.4790 -0.239 -0.912 -0.334 42 32 23
-2892.1052 5471.5635 569.8379 -0.240 -0.906 -0.348 42 32 23
-2885.2949 5480.3223 562.8007 -0.392 -0.901 -0.185 42 31 23
-2878.0935 5488.3354 555.6904 -0.211 -0.959 -0.187 38 26 20
-2867.6819 5490.0132 548.0365 0.251 -0.873 -0.418 37 26 19
-2859.3975 5495.8872 540.7433 0.251 -0.873 -0.418 37 27 20
-2842.9600 5507.9053 526.1761 -0.469 -0.882 0.055 20 10 4
-2734.6672 5583.3086 431.2063 0.750 -0.209 0.627 140 96 87
-2737.0098 5635.3745 419.0275 -0.211 -0.946 0.245 165 121 112
-2727.0664 5661.7544 405.1502 0.736 -0.633 -0.241 172 128 119
-2718.7800 5667.8965 397.7845 0.738 -0.636 -0.225 173 129 120
-2739.6462 5860.7441 361.1157 0.871 -0.350 0.345 167 118 103
-2731.0471 5866.8765 353.5361 0.907 -0.291 0.305 167 118 103
-2712.9834 5851.9302 344.9902 0.934 -0.233 0.271 167 118 103
-2697.4016 5842.3608 336.7377 0.947 -0.120 0.298 167 117 101
-2679.3218 5877.8052 314.8241 0.496 -0.475 0.727 163 110 92
-2452.3364 6055.7432 110.4918 0.713 -0.498 -0.493 31 17 1
-2228.1074 5694.3779 51.0179 -0.578 -0.815 -0.046 68 58 40
-1977.1996 5279.9868 -12.8736 -0.598 -0.773 -0.211 238 215 216
-1930.0974 5331.0981 -59.0354 0.877 -0.145 -0.458 236 217 223
-1943.5455 5451.1953 -81.5571 0.861 -0.287 -0.421 242 231 237
-1944.0197 5480.1987 -88.9166 0.690 -0.484 0.538 243 232 238
-1932.4672 5558.5005 -117.6706 0.733 -0.510 0.449 250 239 245
-1910.9840 5608.9321 -145.9134 0.353 -0.674 -0.649 248 237 243
-3303.6870 2101.4053 1739.1794 0.972 -0.236 -0.016 173 174 168
-5172.3979 3488.8467 2660.0312 0.285 -0.474 -0.833 185 186 180
-5179.0439 3515.2388 2657.5752 0.300 -0.590 -0.750 174 175 169
-5128.8013 3512.0278 2623.7112 0.210 -0.721 -0.661 186 188 183
-4357.2769 3005.5913 2225.7930 0.219 -0.581 -0.784 191 193 188
-3361.6157 2849.0044 1579.5402 0.484 -0.564 0.669 38 40 38
-3355.5249 2861.7717 1571.9209 0.964 0.081 -0.252 36 37 32
-3053.9006 2674.1953 1413.5753 0.610 -0.605 0.512 0 28 6
-3037.5366 2667.5566 1404.0396 0.611 -0.596 0.520 5 23 7
-2965.0808 2608.3376 1369.7838 0.821 -0.565 0.080 25 20 11
-2956.6306 2625.7747 1359.2869 0.973 0.013 -0.230 151 50 72
-2957.2271 2634.8506 1357.2751 0.973 0.013 -0.230 189 63 81
-2939.7119 2643.8184 1342.7758 0.626 -0.477 -0.616 218 50 69
-2915.9333 2629.5876 1330.1439 -0.259 -0.908 0.331 224 49 70
-2895.2607 2618.2371 1318.8890 -0.292 -0.902 0.319 216 48 66
-2876.2224 2608.3730 1308.3667 -0.013 -0.868 0.497 202 47 61
-2804.3347 2666.3792 1243.1946 0.884 -0.151 -0.442 58 118 151
-2804.0981 2674.8882 1240.7584 0.884 -0.151 -0.442 41 111 146
-2811.9778 2736.2158 1229.8242 -0.293 -0.903 0.314 21 84 142
-2825.5750 2759.3179 1233.0505 -0.446 -0.801 0.399 35 91 154
-2772.7986 2713.5261 1208.8085 -0.506 -0.765 0.399 34 84 147
-3194.9771 3279.0156 1349.5311 0.942 -0.332 0.050 52 47 41
-3164.3547 3256.6599 1334.3396 0.926 -0.378 -0.007 53 48 42
-3104.5234 3212.9880 1304.6560 0.539 -0.744 0.394 50 45 39
-3059.4365 3174.3193 1283.8254 -0.161 -0.968 -0.191 50 44 37
-3047.8403 3172.1128 1276.4010 -0.074 -0.979 -0.189 54 45 36
-3062.6045 3274.0032 1259.3907 0.918 -0.081 0.389 141 111 100
-2931.0022 3264.9458 1170.8629 0.616 -0.283 0.735 116 111 105
-2908.4248 3249.3848 1159.4165 0.613 -0.299 0.731 128 123 119
-3301.7439 3749.5928 1297.6309 -0.555 -0.709 0.435 143 123 114
-2957.8027 3397.9480 1153.8613 -0.410 -0.727 0.551 189 156 133
-2907.9961 3383.4194 1123.3217 0.845 -0.088 -0.528 195 161 136
-2901.5608 3387.0432 1117.9065 0.847 -0.105 -0.521 194 160 136
-2924.0442 3461.4578 1113.5691 0.958 -0.269 -0.102 195 161 138
-2863.6782 3565.5767 1044.0433 0.693 -0.385 0.609 212 199 183
-2952.0676 3693.7637 1070.8900 0.510 -0.665 0.545 221 209 200
-3367.9587 4253.3496 1208.8442 0.144 -0.632 0.762 220 214 217
-3322.6689 4208.2939 1189.5795 0.380 -0.841 -0.385 218 217 222
-3312.1545 4208.9302 1182.1433 0.301 -0.838 -0.455 222 226 228
-3299.1707 4220.8364 1169.9906 0.044 -0.732 -0.680 241 220 217
-3308.7437 4263.0278 1165.3374 0.231 -0.706 -0.670 188 106 111
-3329.3923 4320.6133 1164.2271 0.722 -0.511 -0.467 203 88 101
-3157.2241 5250.7646 796.8170 0.016 -0.973 -0.232 192 159 154
-3163.2083 5301.2524 787.4680 0.969 -0.135 0.208 192 159 154
-3166.3235 5367.8140 771.8431 0.946 -0.130 0.297 153 122 119
-3166.7351 5389.1465 766.4300 0.950 -0.127 0.286 192 161 158
-3018.4832 5457.6924 645.6696 0.783 -0.471 0.407 180 152 148
-3014.6387 5472.0591 639.1756 -0.282 -0.922 0.267 159 131 127
-3003.7876 5495.0166 625.5451 -0.184 -0.980 0.079 159 131 127
-2996.4521 5502.9380 618.3602 -0.196 -0.964 0.182 157 131 126
-2973.0449 5480.2505 608.2434 0.131 -0.663 -0.737 122 105 98
-2958.6123 5496.4004 593.9561 -0.269 -0.942 -0.199 121 106 98
-2921.2134 5468.1772 575.6486 -0.689 -0.723 -0.050 106 91 84
-2910.9326 5470.1914 568.0059 -0.288 -0.911 -0.296 106 90 83
-2897.6333 5466.2896 559.8572 0.019 -0.990 -0.139 106 91 84
-2891.5117 5476.3691 552.9346 -0.383 -0.904 -0.191 105 89 82
-2879.5632 5475.0288 545.0354 0.110 -0.982 -0.154 76 60 55
-2865.4666 5469.3936 536.7986 0.253 -0.897 -0.363 75 59 54
-2856.1965 5473.2344 529.3666 0.159 -0.966 -0.204 75 60 55
-2744.0979 5403.5430 470.5116 0.425 -0.199 -0.883 153 119 117
-2746.6057 5430.9780 464.9173 0.486 -0.236 -0.842 139 105 103
-2745.0042 5564.4673 428.1574 0.924 0.019 0.383 181 137 129
-2736.1304 5639.5908 401.9608 0.907 -0.383 -0.178 175 131 122
-2722.1968 5657.4082 387.5729 0.742 -0.631 -0.226 166 122 113
-2845.2644 6074.5415 361.2117 0.960 -0.245 -0.134 167 118 103
-2807.3704 6042.6523 343.5412 0.956 -0.147 0.253 167 118 103
-2699.1274 5852.5073 319.5224 0.476 -0.471 0.742 164 110 93
-2682.4780 5865.7603 304.4766 0.501 -0.471 0.726 165 109 92
-2509.6294 6011.6812 146.0523 0.322 -0.857 -0.402 127 90 72
-2500.2498 6015.8921 138.4457 0.421 -0.827 -0.371 110 89 69
-2465.1511 6066.7095 100.6173 0.651 -0.731 -0.202 34 15 0
-1994.0767 5229.5371 -1.3336 -0.358 -0.721 -0.593 193 168 164
-1986.7213 5234.8530 -7.8365 -0.344 -0.761 -0.550 180 156 152
-1935.4130 5325.3794 -67.4726 0.936 -0.158 -0.314 198 180 186
-1938.0156 5468.4771 -103.8932 0.690 -0.440 0.575 244 231 238
-1929.9257 5472.4731 -110.5513 0.690 -0.440 0.575 244 233 239
-1876.6317 5397.7534 -127.4247 0.851 -0.486 0.196 243 232 238
-1870.2124 5406.2832 -134.1390 0.851 -0.486 0.196 242 231 237
-1910.8364 5614.4692 -161.6682 0.378 -0.659 -0.651 239 228 234
-4368.5923 3008.8042 2220.5618 0.196 -0.595 -0.780 187 189 184
-4531.1479 3422.4189 2221.3774 0.476 -0.812 0.339 192 194 189
-4758.8276 3682.0674 2308.5442 0.765 0.047 -0.642 47 49 46
-3368.7039 2877.5166 1566.2319 0.915 0.102 -0.389 15 14 12
-2971.8633 2609.7224 1364.5807 0.830 -0.552 0.084 25 21 14
-2918.1528 2626.6553 1322.9779 -0.238 -0.921 0.309 184 31 51
-2902.6653 2620.3049 1314.0045 -0.265 -0.903 0.338 175 30 46
-2879.6626 2606.6523 1301.8126 -0.012 -0.864 0.504 165 32 44
-2770.5706 2584.4207 1232.5504 0.510 -0.699 0.501 93 140 164
-2750.9548 2632.9980 1205.9484 0.704 -0.530 -0.472 19 102 160
-2754.5496 2645.3245 1205.1108 0.203 -0.486 -0.850 9 91 155
-3252.8752 3323.8118 1366.2413 -0.615 -0.721 -0.321 50 45 39
-3141.4648 3235.9248 1313.0481 -0.616 -0.759 -0.210 51 46 42
-3075.4050 3185.2397 1281.1238 -0.431 -0.770 -0.470 67 61 54
-3058.8296 3177.6301 1271.7389 -0.432 -0.771 -0.468 87 75 66
-3077.2966 3219.0513 1273.3297 0.973 -0.194 0.122 102 83 70
-3076.1787 3271.5562 1258.4293 0.824 -0.288 0.489 70 51 38
-3055.7708 3259.5205 1247.5920 0.935 -0.103 0.338 49 30 22
-3327.7388 3772.3977 1297.1616 -0.547 -0.695 0.466 76 57 49
-3235.8645 3675.8027 1259.7865 -0.533 -0.694 0.484 115 90 79
-3164.1543 3602.6116 1230.0214 -0.508 -0.695 0.508 132 102 84
-2912.7229 3381.8025 1116.0204 0.845 -0.088 -0.528 180 138 106
-2908.6995 3388.3760 1111.4762 0.862 -0.109 -0.495 198 155 124
-2922.5439 3416.9146 1113.3455 0.990 -0.134 -0.033 204 161 130
-2930.9592 3438.9219 1113.2275 0.990 -0.137 0.007 203 160 129
-2925.3604 3443.7195 1108.0747 0.991 -0.126 -0.038 205 162 131
-2895.7107 3430.3655 1091.2179 0.409 -0.590 0.697 197 163 137
-2849.8584 3431.5010 1059.2864 0.306 -0.903 0.302 194 164 141
-2919.4517 3592.8118 1063.8781 0.448 -0.536 0.716 193 183 172
-3327.0957 4204.5776 1180.4172 0.345 -0.813 -0.470 215 214 220
-2289.4700 3275.2605 714.8106 0.027 -0.977 0.210 204 174 164
-3169.5610 5257.8521 788.3204 0.011 -0.974 -0.226 195 162 157
-3231.9119 5660.5596 722.9562 0.954 -0.279 0.107 202 169 164
-3176.2935 5581.6094 705.8400 0.823 -0.297 0.484 206 173 168
-3103.1929 5491.5186 679.6635 0.685 -0.461 0.564 198 165 160
-3016.3157 5481.2046 622.5166 -0.020 -0.995 0.100 193 165 161
-3013.8083 5498.1851 616.2178 -0.176 -0.982 0.063 194 166 162
-3004.6780 5502.7163 608.7009 -0.162 -0.986 0.032 192 166 161
-2985.2712 5487.7109 599.3533 0.131 -0.663 -0.737 183 161 156
-2978.0784 5495.8447 592.2032 0.123 -0.664 -0.737 182 161 156
-2966.9595 5496.4800 584.3633 -0.304 -0.934 -0.187 182 161 156
-2961.9016 5508.7275 577.5786 -0.682 -0.718 -0.143 181 160 155
-2922.5742 5476.7822 559.0498 -0.288 -0.911 -0.296 166 144 139
-2906.4546 5467.4492 550.4430 0.019 -0.990 -0.139 167 145 140
-2899.1499 5475.2119 543.3157 -0.220 -0.968 -0.121 165 143 138
-2890.1484 5479.6655 535.9086 0.237 -0.893 -0.382 147 125 122
-2874.3325 5470.6987 527.4127 0.253 -0.897 -0.363 148 126 123
-2881.0967 5506.2324 522.5161 0.363 -0.904 -0.226 147 125 122
-2888.2375 5542.7495 517.6144 -0.355 -0.934 -0.045 148 126 123
-2757.1650 5413.7637 461.9195 0.425 -0.199 -0.883 126 92 90
-2747.5178 5416.3848 454.5601 0.466 -0.203 -0.861 104 70 68
-2750.1982 5444.2275 448.9163 0.497 -0.239 -0.834 100 66 64
-2749.8933 5466.1128 442.8166 0.497 -0.239 -0.834 152 118 116
-2756.2112 5501.8018 437.5703 0.418 -0.288 -0.862 172 138 136
-2483.6990 5981.1523 120.6139 0.805 -0.429 -0.410 116 91 74
-2472.2561 6063.1406 90.6580 0.651 -0.731 -0.202 55 29 15
-1997.4618 5244.3501 -16.4859 -0.342 -0.757 -0.556 131 107 103
-2010.8181 5306.4312 -23.9798 -0.215 -0.938 -0.273 162 138 136
-1932.3837 5457.8115 -118.8158 0.690 -0.440 0.575 206 195 201
-5151.3486 3462.6545 2624.1880 -0.224 -0.936 0.272 185 186 180
-4359.9380 3016.2664 2200.4041 0.127 -0.392 -0.911 185 190 184
-4458.1274 3369.2979 2172.2842 0.711 -0.700 -0.063 196 198 193
-3327.3147 2789.9622 1550.8995 0.440 -0.688 0.577 29 31 28
-2921.3086 2624.6277 1316.2295 -0.230 -0.920 0.318 117 11 23
-2830.7551 2571.2312 1268.3690 0.276 -0.818 0.505 71 44 39
-2813.9832 2571.6680 1256.7047 0.330 -0.889 0.318 70 83 86
-2803.7874 2570.0894 1250.1139 0.379 -0.861 0.340 37 58 67
-2753.2139 2578.9294 1212.9022 0.913 -0.149 -0.380 30 112 159
-3165.5178 3255.3662 1313.3384 -0.616 -0.759 -0.210 60 55 51
-3143.4243 3242.1084 1301.7238 -0.596 -0.774 -0.215 70 65 61
-3092.4663 3197.3062 1278.7909 -0.461 -0.769 -0.443 83 77 70
-3074.2573 3187.9736 1268.7859 -0.458 -0.783 -0.420 92 77 67
-2938.9089 3383.3406 1122.6443 0.171 -0.682 0.711 179 125 86
-2894.2271 3420.9646 1081.6847 0.433 -0.577 0.692 206 169 141
-2850.8022 3460.4695 1041.0804 0.974 -0.225 -0.001 190 170 158
-2843.4109 3462.9226 1035.3271 0.975 -0.220 -0.032 195 179 175
-2858.8066 3506.6523 1034.0697 0.987 -0.123 -0.100 214 204 200
-3180.1797 3974.6421 1128.4226 0.680 -0.621 -0.390 227 215 215
-3184.5483 3994.0649 1126.1642 0.698 -0.574 -0.428 226 217 225
-3326.9949 4267.9131 1149.9792 0.234 -0.703 -0.672 157 81 85
-2371.2214 3211.3247 778.4839 0.178 -0.902 0.392 211 182 174
-2322.3606 3280.5588 726.0773 -0.050 -0.971 0.232 193 152 144
-2311.7878 3276.7102 719.8425 -0.029 -0.970 0.243 198 159 150
-2297.0208 3266.5198 712.4396 0.622 -0.776 0.104 208 176 167
-2288.1404 3265.0906 706.7138 0.664 -0.737 -0.129 205 175 165
-2286.5515 3274.6362 703.0322 0.625 -0.770 -0.132 204 174 164
-3187.2061 5273.9863 780.9831 0.278 -0.952 0.127 202 169 164
-3147.3821 5225.5845 766.6910 0.068 -0.996 0.063 202 169 164
-3025.5647 5461.3755 618.9043 0.823 -0.420 0.383 195 167 163
-3021.8247 5475.9194 612.3866 0.833 -0.416 0.365 195 167 163
-3010.6162 5498.1748 598.6367 0.812 -0.408 0.417 195 167 163
-2976.8027 5455.9121 586.8177 0.032 -0.856 -0.515 191 163 160
-2974.0701 5472.4023 580.4658 0.049 -0.863 -0.504 191 163 160
-2970.7554 5487.8647 573.9916 -0.319 -0.946 -0.060 190 163 160
-2981.6975 5530.7354 569.9012 -0.656 -0.738 -0.160 190 162 159
-2934.7783 5484.4199 550.1590 -0.001 -0.994 -0.106 183 155 152
-2915.4751 5468.9858 541.0551 0.015 -0.994 -0.113 183 155 152
-2909.3723 5479.0903 534.1143 -0.215 -0.969 -0.121 183 155 152
-2896.5537 5476.1030 526.1000 0.110 -0.982 -0.154 184 156 155
-2880.3428 5466.3906 517.5737 0.263 -0.890 -0.371 185 157 156
-2868.3838 5464.9351 509.7357 0.201 -0.952 -0.231 184 156 156
-2861.4900 5473.4419 502.6834 -0.328 -0.900 -0.287 186 156 156
-2747.4985 5444.5957 432.0324 0.312 -0.517 -0.797 186 152 150
-2752.7209 5477.8555 426.6101 0.095 -0.525 -0.846 186 152 150
-2888.6235 5927.4146 398.2819 0.901 -0.002 0.434 186 142 133
-2897.2727 5970.6709 392.5083 0.894 -0.009 0.449 186 142 133
-2430.8384 6020.1460 58.0005 0.531 -0.381 0.757 84 55 44
-2028.9117 5310.0112 -26.1557 -0.091 -0.799 -0.594 164 139 134
-2020.9338 5313.9878 -32.7258 -0.091 -0.799 -0.594 121 97 93
-2013.9722 5320.7397 -39.3488 -0.241 -0.933 -0.266 219 197 197
-1977.3743 5323.4639 -65.2814 -0.170 -0.905 -0.391 197 181 184
-1952.3141 5305.5034 -77.6635 0.522 -0.811 -0.265 201 182 186
-1947.4974 5318.1826 -84.4169 0.845 -0.272 -0.460 138 121 127
-1923.8793 5466.3325 -140.8418 0.652 -0.457 0.606 255 250 254
-1880.7668 5366.5088 -143.4564 0.705 -0.660 0.261 244 235 240
-4465.9785 3369.7087 2164.5598 0.717 -0.695 -0.053 195 197 192
-3359.7981 2813.6477 1556.4160 0.444 -0.758 0.479 29 29 29
-3355.6128 2827.8967 1549.6484 0.452 -0.556 0.698 31 31 29
-3333.6208 2826.2368 1534.9919 0.576 -0.463 0.673 35 36 30
-3352.2896 2870.3413 1535.7722 0.377 -0.549 0.746 15 14 12
-2995.7822 2647.5918 1351.6672 -0.211 -0.514 -0.831 54 17 17
-2990.1313 2650.8171 1346.9036 -0.198 -0.537 -0.820 48 10 10
-2821.7659 2565.8977 1254.4192 0.385 -0.863 0.328 72 95 89
-2812.3171 2565.0627 1248.1553 0.494 -0.712 0.499 59 88 90
-2805.0784 2566.3569 1242.8284 0.494 -0.712 0.499 25 62 73
-2824.3643 2688.2571 1222.7842 -0.562 -0.700 -0.440 21 127 181
-2790.2034 2697.4922 1196.7909 0.282 -0.634 -0.720 6 90 142
-3043.0317 3137.0483 1250.4447 0.680 -0.338 -0.651 75 68 61
-3043.3682 3158.1748 1244.9055 0.715 -0.276 -0.642 116 86 80
-3042.9456 3168.1526 1241.8899 0.718 -0.314 -0.621 87 53 47
-2849.9846 3181.6196 1105.6343 0.754 -0.158 0.638 19 10 4
-2922.0684 3367.0415 1104.5161 0.965 -0.260 -0.036 164 109 71
-2880.4131 3431.2268 1058.3651 0.630 -0.723 0.283 196 166 142
-2862.6746 3420.6899 1049.0554 0.386 -0.851 0.357 195 165 141
-2856.2297 3424.2837 1043.6458 0.313 -0.890 0.333 198 166 143
-2859.0688 3439.6079 1041.4111 -0.321 -0.910 0.263 204 172 149
-2845.8416 3434.6345 1033.6814 0.314 -0.886 0.342 208 179 159
-2826.6777 3445.6306 1017.5111 0.948 -0.317 0.026 215 201 205
-3332.1096 4221.0972 1152.9729 0.002 -0.655 -0.756 224 220 219
-3332.6379 4236.3633 1149.1663 0.032 -0.676 -0.736 225 203 200
-3345.7493 4283.1670 1145.3912 0.228 -0.701 -0.676 167 88 94
-3333.9238 4297.0171 1133.4834 0.886 -0.455 0.090 201 75 89
-3330.8262 4383.2100 1107.8130 0.919 -0.047 -0.391 229 168 161
-2383.8813 3175.9875 786.9277 0.158 -0.937 0.311 204 175 167
-2376.6050 3199.8083 775.4220 0.088 -0.794 0.601 209 180 172
-2366.1975 3196.4297 769.1942 0.085 -0.788 0.609 216 187 179
-2322.4963 3272.6523 718.3497 0.374 -0.829 0.416 169 123 115
-3134.5713 5626.6562 633.3480 0.844 -0.130 -0.520 195 167 163
-3030.6135 5520.1216 591.0198 0.876 -0.408 0.256 196 167 163
-2996.5701 5477.6436 579.2317 0.052 -0.878 -0.476 194 161 160
-2983.7261 5475.0083 571.1268 0.024 -0.902 -0.431 194 162 160
-2993.4783 5515.3384 566.8118 -0.286 -0.958 -0.008 194 162 160
-2926.2417 5473.8892 531.9368 0.000 -0.996 -0.090 186 153 152
-2870.5261 5409.3398 511.2867 0.509 -0.836 0.206 189 156 157
-2836.8010 5386.8008 494.2714 0.638 -0.603 0.479 188 154 155
-2833.5122 5402.1040 487.8319 0.613 -0.630 0.477 191 156 157
-2782.4146 5454.5068 438.4115 0.479 -0.224 -0.849 187 153 151
-2759.1895 5451.9932 423.1409 -0.229 -0.958 -0.171 186 152 150
-2426.7969 5933.2837 63.3088 0.802 -0.168 0.574 136 99 86
-2431.3582 5999.9937 48.2221 0.531 -0.381 0.757 130 96 86
-2039.1113 5317.6963 -34.9214 -0.091 -0.799 -0.594 186 161 156
-2031.1196 5321.6768 -41.4995 -0.091 -0.799 -0.594 156 132 128
-2023.1311 5325.6558 -48.0750 -0.091 -0.799 -0.594 149 125 124
-1957.9532 5300.8525 -86.0821 0.509 -0.810 -0.292 189 169 174
-1925.1897 5448.3320 -148.8742 0.685 -0.442 0.579 248 239 244
-3817.6204 2628.3171 1910.9437 0.568 -0.264 -0.780 182 187 181
-4589.0562 3450.4246 2213.7495 -0.498 -0.843 -0.205 192 194 189
-4472.4189 3369.0024 2156.1697 0.707 -0.707 -0.025 195 197 192
-4981.4839 3830.2024 2378.3589 -0.201 -0.604 -0.771 90 92 89
-3397.5151 2823.8699 1569.0571 0.894 -0.389 0.223 29 31 24
-3363.3906 2820.6267 1546.5490 0.248 -0.621 0.744 20 20 12
-3354.7930 2821.9602 1540.2863 0.197 -0.648 0.735 30 31 23
-3360.6528 2872.5845 1530.3759 0.343 -0.569 0.747 14 15 9
-3288.1931 2825.0278 1493.7723 -0.599 -0.801 0.007 17 18 13
-3034.5474 2661.7454 1364.7639 -0.375 -0.414 -0.829 36 29 23
-3027.7715 2663.9868 1359.5007 -0.278 -0.417 -0.865 32 21 15
-3016.9407 2662.4160 1352.5059 -0.195 -0.533 -0.823 28 12 5
-3009.9749 2664.4509 1347.1693 -0.193 -0.536 -0.822 19 9 5
-2814.3240 2562.0444 1241.1805 0.502 -0.701 0.507 57 88 93
-2808.3906 2564.6040 1236.4075 0.311 -0.842 0.441 21 63 76
-2829.6128 2697.0432 1214.5209 -0.221 -0.662 -0.716 20 120 164
-3091.1699 3172.4214 1263.0837 0.634 -0.671 0.384 47 42 36
-3097.2944 3200.0286 1259.6876 0.982 0.005 -0.190 53 36 29
-3098.2244 3222.1953 1254.2262 0.982 0.005 -0.190 41 8 4
-3060.7930 3202.2668 1234.0413 0.978 -0.143 0.150 39 20 13
-3088.7168 3276.0574 1232.8868 0.513 -0.346 0.786 13 19 3
-2979.6624 3175.3433 1185.8149 0.840 -0.253 0.480 8 19 10
-2923.7036 3175.2820 1147.4587 0.999 -0.016 0.042 15 19 12
-2917.1987 3388.0676 1084.4519 0.977 -0.213 0.019 161 104 59
-2904.8120 3395.8945 1073.8042 0.733 -0.436 0.523 176 117 74
-2883.1021 3427.0083 1050.3561 0.634 -0.722 0.276 177 145 121
-2864.5891 3415.5195 1040.8221 0.292 -0.898 0.327 187 154 128
-2861.9197 3435.5632 1033.4769 -0.328 -0.910 0.254 213 180 154
-2853.0117 3436.0618 1027.2311 -0.336 -0.909 0.246 222 191 167
-2840.8450 3432.4006 1019.8953 0.287 -0.889 0.356 227 205 198
-2839.8064 3442.8611 1016.3049 0.951 -0.304 0.056 230 210 212
-2826.8594 3522.0283 985.6445 0.814 -0.451 0.367 221 220 226
-3351.1646 4280.6167 1136.4603 0.866 -0.499 -0.047 215 142 149
-3346.5139 4289.2070 1130.9077 0.866 -0.499 -0.047 217 131 140
-3346.3828 4303.8711 1126.7832 0.866 -0.488 -0.110 208 136 134
-3336.9021 4381.3677 1098.9592 0.955 -0.017 -0.296 219 167 159
-2371.6111 3196.4458 763.0452 0.078 -0.786 0.613 222 193 185
-2361.3787 3193.2864 756.8979 0.079 -0.784 0.616 227 198 190
-2340.9209 3175.4377 747.7801 -0.162 -0.854 0.494 216 187 179
-2330.7720 3172.2546 741.6965 -0.140 -0.853 0.503 200 171 163
-2323.3550 3172.9636 736.4152 -0.128 -0.857 0.499 174 145 137
-2317.2793 3175.5935 731.5253 -0.134 -0.850 0.510 157 126 117
-2313.2415 3310.4863 691.6418 0.684 -0.728 0.043 199 169 159
-3041.5674 5191.8237 673.4467 0.207 -0.928 -0.311 200 169 166
-2910.1304 5383.8320 530.4859 0.724 -0.479 -0.497 188 152 152
-2818.4675 5313.6494 486.9395 0.840 -0.451 0.303 192 153 156
-2819.9224 5337.9150 481.2606 0.834 -0.450 0.319 192 153 156
-2819.5537 5358.7427 475.2773 0.751 -0.571 0.332 194 154 157
-2810.3811 5362.3096 468.0059 0.762 -0.569 0.310 206 165 169
-2797.3838 5446.1011 436.0386 0.323 -0.627 -0.709 192 157 155
-2807.6396 5489.1196 431.2351 0.194 -0.640 -0.744 181 146 144
-2781.5461 5481.0806 415.5538 0.328 -0.481 -0.813 187 152 150
-2024.8127 4124.7563 269.8155 -0.302 -0.922 -0.244 186 142 132
-2184.1018 4845.0181 180.8716 -0.544 -0.780 0.309 160 105 85
-2049.4158 5325.6050 -43.7172 -0.132 -0.566 -0.814 193 168 163
-2042.9247 5333.6924 -50.3937 -0.132 -0.566 -0.814 213 188 184
-2033.6909 5334.3452 -56.9052 0.081 -0.524 -0.848 125 101 100
-1953.6577 5320.6167 -108.0097 0.593 -0.785 -0.182 180 164 167
-4348.7686 2803.7595 2215.2080 0.716 -0.691 0.099 171 172 164
-3292.7593 2136.7466 1677.3301 0.717 -0.619 -0.321 178 179 173
-4494.0718 3137.3594 2222.1973 0.171 -0.535 -0.827 193 198 192
-4905.3584 3774.3413 2327.1458 -0.198 -0.822 -0.534 62 64 61
-3557.2998 2885.1284 1650.9696 0.233 -0.503 0.832 29 33 20
-3550.1123 2888.0833 1645.2317 0.275 -0.493 0.826 28 32 18
-3487.1228 2851.8933 1612.1512 0.607 -0.510 0.609 21 24 12
-3445.1462 2842.4702 1586.0336 0.341 -0.400 -0.851 42 46 30
-3436.4949 2843.9233 1579.7100 0.465 -0.454 -0.760 32 36 19
-3425.5928 2843.3835 1572.3979 0.760 -0.482 0.436 33 35 19
-3039.6541 2678.6423 1353.9167 -0.208 -0.575 -0.791 27 19 13
-3002.5610 2660.9875 1333.4231 0.577 -0.348 -0.739 6 15 8
-2892.7151 2590.7537 1277.7089 -0.332 -0.887 0.321 8 8 8
-2808.7847 2560.0220 1228.7836 0.096 -0.949 0.300 22 59 75
-2800.5259 2560.2991 1223.0544 0.096 -0.945 0.313 18 65 93
-2783.2634 2560.0659 1211.3044 0.386 -0.881 -0.273 16 89 137
-2832.5220 2659.7568 1217.3881 0.825 0.073 -0.561 38 142 192
-3170.0496 3146.4922 1313.4957 0.791 -0.605 -0.089 38 23 14
-3082.9473 3177.9258 1245.1705 0.776 -0.355 0.521 24 20 12
-3077.4775 3192.9331 1237.2678 0.836 -0.373 0.404 32 12 8
-3088.1877 3215.2114 1238.4235 0.792 -0.610 0.022 24 11 6
-2922.3623 3375.5571 1080.4915 0.885 -0.102 -0.455 174 110 60
-2864.1016 3430.6924 1025.3365 -0.312 -0.915 0.256 206 152 110
-2852.5098 3427.7954 1018.2061 -0.235 -0.918 0.320 211 162 124
-2840.9421 3424.8835 1011.0962 0.333 -0.873 0.356 216 187 173
-2782.7229 3456.4631 962.4982 0.869 -0.279 0.408 230 216 223
-2796.9604 3487.0618 963.7620 0.915 -0.236 0.328 231 219 225
-3343.1072 4260.2036 1123.2726 0.466 -0.874 -0.136 247 192 195
-3348.0254 4281.4556 1120.7488 0.915 -0.368 -0.162 244 184 187
-3368.8203 4324.0195 1123.1843 0.022 -0.562 -0.827 217 187 175
-3378.9243 4352.5103 1122.2035 -0.012 -0.618 -0.786 214 177 168
-3340.0249 4375.5083 1089.2065 0.955 -0.017 -0.296 207 169 159
-2322.4160 3163.9326 728.5355 0.184 -0.677 0.713 150 121 113
-2315.7134 3165.6296 723.4778 0.451 -0.592 0.668 133 103 94
-2332.0955 3258.9351 708.8303 -0.007 -0.972 0.236 154 101 89
-2320.2256 3264.9878 699.0289 0.379 -0.855 0.354 155 106 94
-2316.7971 3307.5994 684.8728 0.448 -0.894 0.032 200 169 163
-3523.9021 5489.3120 906.3629 -0.236 -0.570 -0.787 193 161 156
-3147.2285 5203.1841 727.8649 0.715 -0.476 0.512 200 169 164
-3041.6665 5177.8452 662.6402 0.249 -0.966 0.071 201 170 167
-3031.5857 5179.8960 655.1722 0.249 -0.966 0.071 202 171 166
-2796.9651 5363.2705 443.7741 0.759 -0.625 0.180 117 77 80
-2560.8826 5795.9878 162.2698 0.760 -0.404 0.509 156 102 83
-2473.8411 5874.1919 81.0237 0.792 -0.192 0.580 130 84 69
-2418.8623 5844.7720 51.5496 0.677 -0.285 0.678 144 100 86
-2062.7732 5341.6538 -52.7212 -0.132 -0.566 -0.814 212 184 180
-2056.2700 5349.7744 -59.4227 -0.132 -0.566 -0.814 218 192 189
-2045.7275 5346.9722 -65.8614 0.081 -0.524 -0.848 173 148 147
-1979.0887 5293.1777 -96.5603 0.154 -0.985 0.071 171 145 149
-1961.1340 5294.9839 -109.3493 0.493 -0.865 -0.092 176 153 157
-4354.6567 2785.8306 2212.5583 0.914 -0.403 0.036 175 176 168
-4345.5522 2788.3342 2205.6404 0.926 -0.377 0.016 175 176 168
-4358.5557 2805.8875 2209.6226 0.707 -0.702 0.083 172 173 165
-4540.9844 3411.4517 2165.1895 0.252 -0.938 0.238 194 196 191
-3523.5020 2797.4580 1641.5677 -0.102 -0.746 0.658 16 15 10
-3451.0735 2771.3733 1599.3750 0.697 -0.375 0.611 33 33 25
-3457.5618 2785.6951 1599.8091 0.694 -0.344 0.632 22 25 12
-3482.3953 2833.6653 1603.3812 0.395 -0.487 0.779 28 32 17
-3467.9531 2830.1687 1594.4922 0.394 -0.489 0.779 29 32 17
-3459.2827 2831.6301 1588.1615 0.490 -0.487 0.723 27 31 15
-3434.9939 2837.4329 1569.9504 0.374 -0.383 -0.845 49 49 28
-3422.1230 2835.1553 1561.7944 0.684 -0.512 0.520 49 46 25
-3351.4619 2790.8467 1525.8964 0.511 -0.718 0.472 55 52 32
-3279.9192 2816.0105 1470.0022 -0.590 -0.785 -0.187 22 25 11
-3250.5444 2798.2114 1454.9058 -0.592 -0.805 0.053 29 30 18
-2949.4277 2631.2886 1295.8165 -0.092 -0.948 0.304 7 9 13
-2941.8008 2632.5288 1290.2605 -0.115 -0.960 0.254 6 10 12
-2817.1917 2563.2253 1224.4889 0.257 -0.939 -0.228 27 55 74
-2803.2783 2558.0190 1216.4384 0.256 -0.916 -0.309 22 62 91
-2803.1802 2574.5833 1211.7476 0.234 -0.659 -0.715 23 86 134
-2845.5874 2684.9902 1209.8942 0.766 0.076 -0.638 37 106 160
-2847.0081 2712.7996 1203.1016 -0.259 -0.965 -0.038 44 101 138
-3112.6982 3161.9509 1259.2061 0.809 -0.239 0.538 36 31 23
-3079.1538 3167.3479 1234.7860 0.808 -0.329 0.489 21 18 13
-2967.4932 3222.6079 1143.0867 0.242 -0.929 0.280 26 27 22
-2935.5342 3465.3459 1053.4948 0.862 -0.499 0.091 188 114 53
-2870.3235 3430.9146 1018.5623 -0.312 -0.915 0.256 189 115 55
-2861.3628 3431.3486 1012.3202 -0.262 -0.916 0.303 186 115 60
-2843.6089 3420.6448 1003.1810 0.333 -0.873 0.356 174 129 96
-3345.8364 4254.1567 1113.5631 0.122 -0.948 0.293 224 192 192
-3369.0073 4299.5952 1116.7063 0.134 -0.763 -0.632 213 180 180
-3360.3826 4302.9351 1109.8824 0.213 -0.687 -0.695 206 180 172
-3339.4946 4289.8691 1099.2617 0.751 -0.515 -0.413 204 177 170
-3297.4233 4248.2666 1082.1373 0.544 -0.746 0.384 198 168 162
-3294.5798 4259.1509 1077.1566 0.544 -0.751 0.374 193 163 157
-3282.0845 4257.0415 1069.2102 0.542 -0.750 0.380 198 171 163
-2329.1113 3165.8982 722.8522 0.121 -0.804 0.582 127 100 90
-2336.1621 3187.4131 721.6624 0.927 -0.322 0.192 118 90 80
-2332.7488 3193.9304 717.5115 0.880 0.001 -0.475 130 87 70
-2326.6367 3196.5547 712.6039 0.889 -0.008 -0.457 132 88 67
-2336.4792 3257.3933 702.3437 -0.007 -0.972 0.236 148 101 78
-2322.3660 3260.1196 691.9421 0.523 -0.847 0.097 117 73 54
-3046.3713 5172.0337 652.7746 0.311 -0.943 0.119 206 176 172
-3034.6658 5171.2070 645.0095 0.293 -0.950 0.105 194 166 162
-2934.4941 5399.2612 512.9217 0.773 -0.576 0.267 184 154 150
-2926.2756 5405.0190 505.7006 0.772 -0.572 0.279 188 158 155
-2813.7244 5358.9087 441.6911 0.054 -0.179 -0.982 119 84 83
-2524.2324 5425.6382 225.3173 -0.177 -0.912 0.370 178 125 111
-2200.7969 4851.2739 164.7219 -0.502 -0.768 0.397 161 103 82
-2472.4773 5850.5854 71.3380 0.792 -0.192 0.580 98 56 33
-2464.4573 5857.4028 63.9567 0.643 -0.313 0.699 97 55 32
-2067.6147 5360.3579 -68.3656 -0.061 -0.538 -0.841 219 189 187
-2056.4946 5356.0752 -74.7660 0.078 -0.510 -0.857 216 187 185
-2045.7170 5352.6348 -81.1675 -0.244 -0.711 -0.659 208 177 179
-2034.1768 5347.0342 -87.4870 -0.202 -0.790 -0.579 215 184 187
-2027.0139 5353.3262 -94.1362 -0.441 -0.809 -0.388 221 190 193
-4361.5166 2803.3647 2200.6714 0.446 -0.467 -0.764 172 173 165
-3299.7217 2101.0078 1674.2626 0.704 -0.471 -0.532 174 175 167
-3330.2371 2203.9539 1666.1224 0.628 -0.631 -0.456 186 189 182
-3796.2490 2559.2080 1883.9449 0.900 -0.433 0.041 178 181 172
-4546.8516 3410.2258 2156.4001 0.254 -0.937 0.239 187 189 184
-3510.5444 2781.5876 1626.6414 -0.115 -0.749 0.652 17 16 11
-3463.5388 2750.7927 1603.2534 0.280 -0.621 0.732 25 24 19
-3469.3594 2764.4126 1603.3922 0.520 -0.395 0.757 20 19 14
-3470.1719 2800.2734 1593.8635 0.244 -0.451 0.858 35 37 20
-3202.3992 2749.1609 1425.6793 0.135 -0.492 0.860 39 37 25
-3136.8154 2715.3611 1390.4705 0.951 -0.297 0.082 55 46 41
-3005.7866 2645.4163 1320.8066 -0.413 -0.811 0.415 17 15 13
-2809.5032 2584.1384 1204.2186 0.207 -0.582 -0.786 56 119 164
-2847.0654 2663.8286 1207.4213 0.770 0.079 -0.634 52 120 166
-2813.6560 2700.0483 1174.4608 0.098 -0.988 -0.122 25 116 156
-2948.8352 3474.2087 1048.9585 0.969 -0.245 -0.024 192 112 49
-2867.5107 3431.4851 1005.5273 -0.257 -0.916 0.310 191 114 55
-2846.2693 3416.4150 995.2830 0.333 -0.873 0.356 168 111 66
-2801.8521 3430.1465 961.1407 0.281 -0.597 0.751 180 136 103
-3315.4529 4204.3984 1093.6025 -0.051 -0.796 0.604 218 184 176
-3298.3369 4196.1963 1084.2399 -0.051 -0.796 0.604 210 177 168
-3259.9895 4159.6772 1068.3639 -0.051 -0.814 0.579 204 173 161
-3225.9500 4128.6299 1053.8866 -0.040 -0.810 0.585 201 171 159
-3205.4238 4115.4312 1043.6038 0.441 -0.626 0.643 201 170 160
-3174.6995 4088.4170 1030.2526 0.467 -0.609 0.642 200 170 159
-2349.2549 3198.5259 717.7031 0.949 -0.294 0.110 123 96 88
-2340.6504 3255.5454 695.8055 0.001 -0.972 0.236 128 85 65
-2308.7271 3279.1304 667.4106 0.484 -0.866 -0.129 209 178 175
-2238.0942 3352.8933 598.5174 0.977 -0.167 -0.134 201 169 166
-3159.4905 5216.0195 702.8495 0.205 -0.946 -0.250 196 165 162
-3091.1177 5196.7104 661.6650 0.682 -0.456 0.573 94 63 60
-3080.1345 5197.3413 653.9999 0.597 -0.511 0.619 138 107 104
-2880.7012 5078.4883 551.4521 0.060 -0.183 -0.981 199 169 167
-2862.9680 5374.8589 456.0354 -0.205 -0.242 -0.948 175 141 139
-2857.4753 5385.7139 449.2390 -0.216 -0.267 -0.939 137 103 101
-2564.4346 5450.6147 231.2101 -0.102 -0.886 0.453 184 131 117
-2486.0815 5759.4067 90.9733 0.937 -0.001 0.349 158 102 79
-2469.6511 5797.4268 69.0822 0.801 -0.163 0.576 147 103 80
-2436.4878 5821.2095 39.7863 0.646 -0.305 0.700 87 45 21
-2187.2861 5476.9863 -33.3266 -0.115 -0.993 -0.042 185 156 143
-2075.0608 5386.1016 -84.2836 -0.051 -0.534 -0.844 221 190 188
-2043.7183 5378.7656 -103.5890 -0.525 -0.787 -0.324 215 183 186
-1991.0090 5311.6323 -120.6485 -0.288 -0.882 -0.372 209 178 180
-4367.6377 2820.4753 2188.3284 0.080 -0.631 -0.772 168 169 161
-3341.8782 2153.4680 1679.2408 0.914 -0.218 -0.343 167 168 162
-3333.0159 2202.2471 1659.3984 0.589 -0.687 -0.425 187 190 183
-3797.1936 2563.6411 1872.9066 0.853 -0.491 0.176 184 187 180
-3207.6797 2748.8528 1419.3405 0.178 -0.459 0.870 48 39 30
-3144.4595 2717.3008 1385.2578 0.963 -0.242 -0.115 58 50 47
-2843.2673 2561.9199 1224.3154 -0.034 -0.989 0.144 45 58 64
-2850.8140 2585.8330 1222.6792 0.574 -0.807 -0.137 31 55 70
-2939.4319 3478.5085 1030.2091 -0.263 -0.869 0.419 194 113 50
-2914.6150 3459.4019 1018.7332 -0.309 -0.854 0.418 195 114 51
-2873.0698 3419.2258 1001.8409 0.035 -0.949 0.314 194 113 50
-2839.6060 3400.4666 984.3831 0.321 -0.839 0.440 191 118 61
-2826.9878 3396.1499 977.0195 0.829 -0.482 0.284 187 119 67
-2758.1846 3424.8054 922.0897 0.830 -0.392 0.398 175 133 113
-2731.4263 3401.6052 910.4519 0.737 -0.485 0.471 195 152 131
-3221.6797 4071.3130 1054.4012 -0.727 -0.532 -0.434 203 161 140
-2443.5381 3244.2729 759.1146 -0.678 -0.684 0.269 166 138 128
-2359.5388 3205.5603 712.9209 0.858 -0.133 -0.495 68 42 35
-2330.5730 3256.2317 678.8636 0.497 -0.862 -0.102 70 33 20
-2326.9844 3262.6978 674.5910 0.486 -0.869 -0.095 106 72 66
-2321.4592 3266.3103 669.8086 0.486 -0.869 -0.095 199 166 161
-2317.1577 3271.7444 665.3431 0.478 -0.874 -0.092 205 174 171
-2313.1440 3277.6206 660.9482 0.477 -0.869 -0.129 209 178 175
-3169.0962 5218.5249 693.7798 0.204 -0.942 -0.267 204 173 170
-3137.7126 5184.5483 682.0463 0.738 -0.470 0.485 205 174 171
-3111.3533 5178.4463 665.8384 0.612 -0.502 0.611 205 174 171
-3093.5747 5167.3491 656.8837 0.304 -0.707 0.639 198 167 164
-3091.2534 5182.9565 650.8848 0.682 -0.456 0.573 174 143 140
-3080.4944 5183.9414 643.2852 0.597 -0.511 0.619 105 74 71
-3037.2905 5147.7549 624.1346 0.097 -0.667 0.739 172 144 140
-3015.7358 5149.1421 609.0753 0.122 -0.691 0.713 202 174 170
-2928.4568 5111.5649 560.3286 0.110 -0.325 -0.939 199 169 167
-2978.8647 5263.5649 551.5874 -0.057 -0.529 -0.847 199 169 167
-2838.3135 5125.4277 495.0670 -0.218 -0.647 -0.731 187 158 154
-2830.2727 5130.5332 488.1502 -0.218 -0.647 -0.731 192 163 159
-2822.3516 5135.8633 481.2512 -0.217 -0.642 -0.735 195 166 162
-2815.7742 5143.7368 474.5464 0.023 -0.440 -0.898 186 157 153
-2890.1736 5433.5952 443.0939 -0.218 -0.263 -0.940 137 103 101
-2253.9268 4918.9634 155.8957 0.220 -0.975 -0.010 173 115 95
-2235.0137 4897.3364 149.1505 -0.291 -0.890 0.350 173 115 95
-2482.5510 5731.4824 81.3869 0.937 -0.001 0.349 165 108 88
-2483.5581 5759.4937 74.1406 0.932 -0.014 0.362 162 108 87
-2451.9165 5812.6680 37.5540 0.627 -0.336 0.703 151 109 85
-2417.0569 5832.2153 8.2996 0.856 -0.055 0.514 83 44 22
-2398.9197 5813.4834 1.2625 0.783 -0.140 0.606 84 53 32
-2288.5461 5692.4531 -39.5680 0.008 -1.000 0.023 183 154 138
-2105.6055 5370.9097 -72.9985 0.508 -0.842 -0.182 195 166 162
-2092.8979 5388.2119 -86.5443 0.494 -0.837 -0.233 220 189 187
-2088.0737 5401.0146 -93.4521 0.464 -0.853 -0.238 226 195 193
-2062.7603 5384.4321 -105.9805 -0.149 -0.984 0.102 215 183 186
-2058.4875 5398.7539 -112.9432 -0.140 -0.987 0.083 208 176 179
-2035.8417 5441.5249 -140.4631 -0.091 -0.657 -0.748 207 177 181
-2034.6613 5464.8291 -147.8649 0.037 -0.790 -0.612 204 178 181
-2004.9153 5408.3848 -152.1223 -0.593 -0.547 -0.591 210 193 196
-4387.3877 2820.6140 2190.0107 -0.205 -0.706 -0.678 159 160 152
-4825.9727 3561.8665 2276.4841 0.938 -0.315 -0.143 193 198 192
-3503.2092 2765.5525 1605.2615 -0.185 -0.803 0.567 16 15 10
-3437.0298 2735.9490 1568.7603 0.697 -0.364 0.618 106 106 100
-3163.5303 2695.0759 1394.6805 0.425 -0.501 0.754 52 37 28
-3141.8289 2683.9912 1383.1038 0.928 -0.292 -0.233 58 43 36
-2917.0845 2602.4766 1253.7229 -0.386 -0.869 0.310 10 15 19
-2852.9009 2566.2419 1220.4680 -0.211 -0.977 0.005 42 55 61
-2862.9333 2592.5493 1219.7794 0.369 -0.921 -0.127 35 55 66
-2850.5874 2780.7815 1157.7198 0.987 -0.053 0.151 70 58 52
-2839.9016 3161.0996 1042.0132 0.750 -0.563 0.346 50 28 6
