ply
format ascii 1.0
element vertex 785
property float x
property float y
property float z
property float nx
property float ny
property float nz
property uchar diffuse_red
property uchar diffuse_green
property uchar diffuse_blue
end_header
-2811.5090 5359.2803 1671.5328 0.904 -0.291 0.313 164 128 94
-2874.3340 5879.6606 1662.2032 0.049 -0.852 -0.521 98 81 65
-2847.2036 6006.7505 1625.8613 0.841 -0.410 0.354 31 27 24
-2733.4004 5970.7969 1538.7184 -0.133 -0.970 0.203 22 21 17
-2714.9109 5956.1699 1525.5686 -0.156 -0.968 -0.198 29 28 24
-2619.5205 5956.3545 1449.0457 0.961 -0.230 0.155 33 68 123
-2580.4180 5919.5205 1421.9126 0.502 -0.480 -0.720 26 39 87
-2020.4249 5697.3281 998.3024 -0.235 -0.958 0.165 9 11 10
-1896.8158 6760.2627 777.1966 0.226 -0.951 -0.211 60 48 48
-1890.1110 6906.9365 754.9884 -0.037 -0.486 -0.873 76 64 64
-1548.6255 6157.8525 567.0799 -0.154 -0.638 -0.754 193 167 168
-3836.0286 2813.6809 2772.9934 0.367 -0.639 -0.676 197 192 186
-3834.5227 2821.7710 2770.8413 0.359 -0.674 -0.646 197 192 186
-3821.6133 3209.1516 2715.1812 -0.120 -0.945 0.305 222 219 214
-4211.4014 5049.7363 2811.8711 0.306 -0.934 -0.183 227 226 221
-4155.4629 5015.0796 2771.1443 0.743 0.009 -0.669 185 177 168
-4041.0962 5547.3066 2617.3147 -0.175 -0.863 0.474 121 89 68
-3715.3286 6405.1196 2256.1516 -0.105 -0.684 0.721 144 105 72
-2996.2317 6038.1206 1723.4154 0.816 -0.228 0.531 84 66 52
-1933.3914 6859.9976 776.3898 0.495 0.123 -0.860 55 43 43
-1897.0331 6897.0249 742.9506 0.672 -0.175 -0.720 60 48 48
-1873.9871 6853.5757 729.5848 -0.472 -0.881 -0.019 59 47 47
-1851.3700 6811.1450 716.4432 -0.451 -0.892 0.017 66 50 51
-3844.3474 2815.0396 2767.1946 0.367 -0.639 -0.676 205 200 194
-3842.7341 2823.0427 2764.9509 0.359 -0.674 -0.646 198 193 187
-4220.1548 5048.9717 2801.1040 0.306 -0.934 -0.183 227 226 221
-4166.5044 5017.2935 2762.0083 0.732 0.005 -0.681 199 191 183
-4171.1597 5058.8091 2760.7778 0.729 -0.251 -0.637 137 118 102
-4077.2769 5564.4067 2625.4585 -0.186 -0.859 0.476 119 87 66
-4051.8167 5548.6509 2606.9915 -0.186 -0.859 0.476 119 87 66
-3614.6821 6491.8369 2145.1863 0.629 -0.777 -0.034 120 81 48
-2887.1758 5791.1479 1647.3784 0.854 -0.244 0.460 54 36 22
-3145.4312 6412.9888 1779.5991 0.114 -0.466 -0.877 48 30 16
-2831.7581 5827.8184 1598.7195 0.833 -0.553 0.023 47 31 20
-2761.4744 5992.6631 1522.8955 -0.050 -0.880 -0.472 23 22 18
-1949.5508 6043.3467 868.0225 0.969 -0.200 0.148 12 12 14
-1940.3401 6048.0547 860.1005 -0.253 -0.939 0.233 12 12 14
-1931.0067 6087.1826 847.9757 -0.259 -0.935 0.242 11 12 14
-1597.8768 6290.1089 557.5632 0.408 -0.783 -0.469 141 115 116
-4226.1431 5044.7642 2788.5513 0.456 -0.885 -0.095 227 226 222
-4239.6323 5079.4258 2795.1003 0.681 -0.701 -0.211 231 228 222
-4227.2217 5081.7983 2784.9121 0.684 -0.701 -0.203 199 191 183
-4218.2368 5088.4570 2776.9358 0.682 -0.697 -0.220 144 132 121
-4180.3462 5058.6201 2750.3357 0.729 -0.251 -0.637 137 118 102
-4105.9424 5570.6235 2628.7744 -0.190 -0.727 0.660 125 93 72
-2461.6519 3604.5820 1556.0068 0.715 -0.533 -0.453 81 54 37
-2895.2969 5450.4282 1677.6493 0.875 0.023 -0.484 151 115 81
-2846.3552 5662.6890 1612.8185 0.487 -0.805 0.340 105 86 68
-2732.4309 5450.8193 1547.6841 0.224 -0.973 -0.063 50 32 18
-2636.1350 5415.6362 1475.1438 0.845 -0.531 -0.061 26 19 14
-1935.5632 6073.8364 836.3265 -0.252 -0.937 0.243 12 12 12
-1884.6001 6116.8198 790.4506 0.916 -0.293 0.273 15 15 17
-4440.9614 3404.0391 3144.8240 -0.258 -0.636 -0.727 194 191 182
-4438.3208 3412.9929 3141.6133 -0.225 -0.615 -0.756 199 196 187
-4243.1079 5036.4878 2785.2681 0.576 -0.818 0.011 227 226 222
-4232.6743 5041.2476 2776.3708 0.438 -0.881 -0.181 227 226 222
-4246.5542 5076.3228 2783.0828 0.681 -0.701 -0.211 231 228 222
-4231.9966 5076.0078 2771.5300 0.677 -0.703 -0.220 198 190 183
-4224.8726 5084.9839 2764.7466 0.677 -0.703 -0.220 144 132 121
-4220.0757 5096.9121 2759.4509 0.680 -0.702 -0.210 137 118 102
-4098.7588 5546.6641 2607.1938 0.033 -0.445 -0.895 125 93 72
-4090.5771 5555.4546 2599.5916 0.069 -0.443 -0.894 119 87 66
-2467.2263 3603.4741 1548.5149 0.715 -0.533 -0.453 81 54 37
-3311.3232 6299.3784 1887.0352 0.750 -0.278 -0.600 146 110 76
-2801.5122 5600.5137 1567.5695 0.667 -0.627 0.402 41 23 11
-2581.8086 5600.3726 1392.6432 0.871 -0.231 0.434 26 25 21
-2009.8254 6043.6987 882.3290 0.121 -0.973 -0.197 28 28 28
-2014.4972 6092.1440 880.0540 0.772 -0.428 -0.469 31 31 30
-2001.4811 6085.2271 870.5455 0.681 -0.469 -0.563 37 35 34
-1997.3835 6106.4741 864.6535 0.674 -0.481 -0.561 39 38 36
-1975.3278 6070.5923 851.5314 0.657 -0.528 0.538 36 34 32
-1965.9777 6075.0161 843.5388 -0.272 -0.921 0.280 36 33 32
-3861.6128 2803.8267 2745.5291 -0.028 -0.824 -0.566 210 205 199
-4459.2026 3412.5840 3143.8254 -0.258 -0.636 -0.727 197 194 186
-4456.0757 3421.1609 3140.2593 -0.225 -0.615 -0.756 201 198 189
-4189.7739 4889.9922 2743.5339 0.761 -0.629 -0.163 229 228 224
-4183.3965 4899.3252 2737.2893 0.761 -0.629 -0.163 230 229 225
-4259.9224 5028.0464 2781.8982 0.443 -0.524 -0.727 227 226 222
-4247.5459 5065.8521 2767.2979 0.424 -0.598 -0.680 231 228 223
-4241.8467 5076.5776 2761.4163 0.424 -0.598 -0.680 203 195 188
-4236.1362 5087.3218 2755.5237 0.424 -0.598 -0.680 145 133 122
-4020.5715 4868.6006 2611.7390 0.873 -0.016 -0.487 138 109 85
-4133.1533 5560.8486 2614.0090 0.056 -0.449 -0.892 134 102 81
-4120.7788 5563.8125 2603.7998 0.072 -0.455 -0.888 125 93 72
-4115.2412 5576.3838 2597.8145 0.072 -0.455 -0.888 119 87 66
-3752.1584 6147.1230 2237.3123 -0.451 -0.633 0.629 133 94 62
-3360.0786 6242.9419 1913.5964 0.808 -0.208 -0.552 139 103 69
-3422.7610 6637.9116 1913.6577 0.829 -0.529 0.182 130 96 67
-1443.0231 5873.3003 436.3996 0.802 -0.515 0.303 231 197 192
-1512.4523 6210.0620 449.1572 0.531 -0.793 0.298 231 197 193
-3871.3967 2806.3203 2740.7378 -0.033 -0.821 -0.570 210 207 200
-4134.8433 4728.8564 2703.2415 0.659 -0.737 -0.148 226 227 222
-4240.5073 5027.7842 2748.7476 0.458 -0.275 -0.845 230 229 226
-4259.6777 5069.2573 2758.6396 0.419 -0.606 -0.676 230 226 222
-4253.1777 5078.9883 2752.2344 0.424 -0.598 -0.680 221 213 207
-4059.9077 4906.9341 2620.9514 0.865 -0.025 -0.501 139 110 89
-4165.7837 5572.3335 2619.6338 0.142 -0.404 -0.904 131 100 79
-4153.9521 5576.1396 2609.7583 0.065 -0.437 -0.897 131 100 79
-4142.9727 5581.1201 2600.4080 0.077 -0.422 -0.904 122 91 70
-4137.8750 5594.3579 2594.6663 0.077 -0.422 -0.904 117 86 65
-4132.7656 5607.6270 2588.9106 0.077 -0.422 -0.904 117 86 65
-3742.1943 6137.1284 2211.1250 0.738 -0.635 0.229 139 98 66
-3380.8892 6135.0122 1924.7275 0.435 -0.705 0.560 118 82 50
-3352.5789 6106.9912 1905.8584 0.397 -0.717 0.574 127 91 59
-3387.5054 6382.4922 1898.2433 0.393 -0.502 -0.771 141 102 73
-2827.6040 5593.7007 1555.1478 -0.044 -0.259 -0.965 40 29 18
-1643.1256 6013.4521 561.5287 -0.178 -0.916 -0.360 34 29 25
-3883.9678 2810.9773 2737.8489 -0.042 -0.826 -0.562 210 207 200
-4142.9756 4711.5293 2695.0327 -0.046 -0.461 -0.886 226 227 222
-4255.2329 5034.4404 2741.8132 0.491 -0.530 -0.692 230 229 227
-4272.4087 5073.3877 2750.3352 0.501 -0.636 -0.587 230 226 223
-4185.0562 5585.3706 2614.3572 0.222 -0.464 -0.858 131 100 79
-4172.9019 5588.7808 2604.2861 0.201 -0.546 -0.813 131 100 79
-4158.2104 5588.6245 2592.6704 0.223 -0.493 -0.841 122 91 70
-4034.8240 6077.6943 2431.1423 0.966 -0.229 0.122 69 42 25
-3908.4485 6086.2520 2329.9358 0.880 -0.125 0.458 125 86 57
-3610.4565 6184.8096 2081.0664 0.092 -0.845 0.527 140 95 62
-3688.5103 6374.3872 2118.1526 0.457 -0.743 0.489 140 95 62
-3602.1438 6270.3271 2063.3259 -0.049 -0.341 -0.939 142 99 65
-3510.9531 6180.7285 2002.7917 -0.242 -0.967 0.079 128 85 51
-3445.2795 6110.5811 1959.9296 -0.243 -0.970 -0.011 122 79 45
-3472.3079 6210.8994 1968.2482 0.249 -0.863 0.439 118 81 49
-3421.5928 6483.3286 1892.5398 -0.279 -0.899 0.338 135 98 71
-2817.4067 5554.7314 1535.1686 0.932 -0.266 -0.247 39 29 19
-2749.6108 5944.4180 1430.6344 0.889 -0.045 -0.455 27 18 13
-3896.6260 2815.6851 2734.9817 -0.036 -0.819 -0.572 210 207 200
-4231.0156 4975.6572 2712.7268 0.889 -0.427 0.164 228 227 225
-4281.3911 5072.8647 2739.6541 0.419 -0.603 -0.679 231 226 223
-4265.4438 5088.6821 2724.9475 0.407 -0.626 -0.665 151 138 131
-4205.9131 5600.5361 2609.9624 0.206 -0.486 -0.849 131 100 79
-4186.3506 5593.7188 2595.4014 0.201 -0.536 -0.820 131 100 79
-4173.8218 5596.6118 2585.1121 0.228 -0.504 -0.833 122 91 70
-3961.7532 5880.7129 2379.7544 -0.344 -0.326 -0.881 68 41 25
-3917.9001 5857.2959 2348.1921 -0.295 -0.290 -0.911 69 42 25
-3939.5305 6190.9102 2321.0237 0.679 -0.228 0.698 110 71 41
-3928.2175 6196.3750 2311.3547 0.680 -0.228 0.697 101 60 29
-3419.7932 5782.9341 1964.2628 0.905 -0.270 0.330 133 88 55
-3504.2739 6150.3784 1982.2939 -0.242 -0.969 0.053 136 93 59
-3482.4106 6211.0732 1956.9552 0.625 -0.623 -0.471 117 80 48
-3481.2341 6311.7197 1942.6697 0.212 -0.186 -0.959 127 91 59
-3497.8555 6369.1377 1948.1910 0.192 -0.659 -0.728 127 91 59
-3487.4893 6402.3428 1935.5896 0.350 -0.637 -0.687 127 91 59
-3444.7432 6347.4077 1909.0848 0.140 -0.634 -0.761 125 86 57
-3422.7463 6492.7583 1872.4071 0.209 -0.867 0.452 127 91 64
-3419.9553 6514.6782 1867.2917 0.649 -0.706 0.283 129 98 74
-3352.6868 6463.7036 1820.8743 -0.740 -0.649 0.176 94 66 44
-1982.2983 6017.2949 796.6995 0.265 -0.767 0.584 100 60 38
-1749.7277 5829.9658 637.6899 0.591 -0.525 0.613 73 59 56
-3907.5505 2819.0286 2730.8896 -0.036 -0.819 -0.572 210 207 200
-4188.1587 4760.4395 2690.3914 0.214 -0.666 -0.715 223 224 219
-4245.4668 4896.0342 2717.3223 0.632 -0.499 -0.592 33 32 30
-4241.6709 4908.4922 2712.6458 0.650 -0.483 -0.587 70 69 67
-4245.0059 4929.6440 2712.4238 0.667 -0.730 -0.152 182 181 179
-4294.7642 5077.7573 2731.7070 0.029 -0.524 -0.851 231 225 224
-4284.2134 5082.4839 2722.7429 -0.152 -0.661 -0.735 223 214 210
-4276.2944 5090.4702 2715.4163 -0.152 -0.663 -0.733 156 144 136
-4193.3599 5040.2744 2656.7395 0.938 -0.291 -0.186 139 110 87
-4206.4448 5607.8394 2590.4866 0.243 -0.548 -0.800 131 100 79
-4187.8779 5602.3960 2576.5686 0.237 -0.525 -0.817 123 92 71
-4038.4727 6051.2920 2398.0947 0.966 -0.231 0.119 68 41 24
-4012.7046 6034.0635 2380.0840 0.969 -0.240 0.065 71 44 27
-3887.9941 6020.5640 2283.4878 0.336 -0.711 0.617 138 99 68
-3665.9910 6272.2490 2074.3306 0.950 -0.140 0.278 141 96 63
-3611.1714 6250.0044 2034.0699 0.405 -0.363 -0.839 153 110 76
-3454.5813 6091.4795 1931.8828 0.035 -0.846 0.532 117 74 40
-3475.4885 6179.8745 1936.4554 0.869 -0.460 -0.183 118 81 49
-3497.8391 6272.1514 1941.6434 0.445 0.020 -0.895 117 81 49
-3499.5999 6327.1509 1935.6121 0.212 -0.186 -0.959 127 91 59
-3504.1733 6361.8418 1934.5405 0.247 -0.191 -0.950 127 91 59
-3506.2339 6392.0166 1932.0955 0.274 -0.176 -0.946 127 91 59
-3477.0916 6606.6943 1880.1317 -0.338 -0.941 -0.024 129 98 76
-3383.5242 6504.7734 1820.0428 -0.743 -0.648 0.168 94 66 44
-2813.6855 5511.5000 1504.3607 0.922 -0.178 0.342 39 29 19
-2718.9485 5757.0552 1396.4655 -0.491 -0.756 -0.433 26 17 10
-2216.2126 6266.3486 931.0046 -0.289 -0.434 -0.853 21 18 13
-1641.1273 5912.4790 524.9103 0.423 -0.640 -0.642 15 12 7
-4200.7021 4764.6699 2682.7034 0.214 -0.666 -0.715 215 216 211
-4256.4307 4898.1841 2708.2917 0.672 -0.608 -0.423 40 39 37
-4250.8569 4908.4917 2702.4875 0.650 -0.483 -0.587 38 37 35
-4250.7993 4925.5054 2700.1084 0.676 -0.721 -0.153 81 80 78
-4246.8203 4937.8315 2695.2834 0.802 -0.596 0.036 207 206 204
-4300.3345 5090.7676 2716.4644 -0.034 -0.568 -0.822 232 223 219
-4224.4727 5067.5869 2659.8828 0.960 -0.237 -0.147 139 110 88
-3970.4683 6043.4790 2325.9436 0.308 -0.635 0.709 128 92 66
-3907.0837 5988.9482 2283.4910 0.376 -0.660 0.651 142 103 74
-3876.5369 6008.9902 2256.6787 0.922 -0.038 0.385 154 115 84
-3860.0137 6075.2192 2234.5791 0.811 -0.151 0.565 123 82 50
-3891.1587 6197.5146 2242.3406 0.983 0.024 0.184 126 85 53
-3723.7725 6280.7246 2099.0688 0.720 -0.647 -0.251 124 79 46
-3678.5828 6276.4351 2064.0586 0.965 -0.130 0.226 152 107 74
-3515.9072 6286.9341 1934.4700 0.916 -0.261 -0.304 109 73 41
-3523.7949 6432.2764 1920.7496 0.423 -0.590 0.687 127 91 59
-3478.1960 6372.4155 1893.0387 0.466 -0.726 0.505 127 88 59
-3471.6196 6547.9990 1863.7765 -0.264 -0.958 0.111 103 66 40
-3465.0754 6562.7065 1856.6042 0.840 -0.420 -0.344 129 97 75
-3404.2021 6470.6299 1821.2794 0.177 -0.918 0.356 120 89 68
-2676.2891 5214.6108 1420.1276 0.948 -0.195 -0.252 39 29 19
-2679.2651 5701.5381 1355.6890 -0.373 -0.654 -0.659 27 18 11
-1845.0527 6248.0347 623.5800 0.862 0.219 -0.456 26 17 12
-4213.2700 4768.9082 2675.0007 0.214 -0.666 -0.715 215 216 211
-4260.0454 4908.4927 2692.3276 0.650 -0.483 -0.587 30 29 27
-4259.4258 4924.8052 2689.5669 0.672 -0.722 -0.165 44 43 41
-4256.7603 4938.7080 2685.5330 0.799 -0.600 0.029 196 195 193
-4244.2964 4940.7515 2675.4475 0.794 -0.607 0.008 230 229 227
-4252.6309 4985.4727 2675.7681 0.663 -0.616 -0.425 233 232 229
-4310.9634 5092.2446 2706.7561 0.291 -0.722 -0.628 232 224 218
-4303.7671 5101.1519 2699.8560 0.291 -0.722 -0.628 177 164 157
-4272.2153 5115.5459 2673.0391 0.285 -0.654 -0.701 139 110 89
-3827.9404 5847.4502 2221.6765 0.869 -0.365 -0.333 136 99 70
-3887.6743 5987.7070 2249.0994 0.364 -0.695 0.620 159 120 91
-3537.1008 6281.7432 1932.4469 0.468 0.033 -0.883 107 71 39
-3536.9941 6307.2031 1928.8145 0.463 0.032 -0.886 95 59 27
-3436.7827 6487.1929 1824.9276 0.864 -0.458 -0.211 118 87 65
-3403.5566 6449.3179 1804.0795 0.256 -0.902 0.349 107 79 57
-3039.0938 6222.7158 1549.0696 -0.687 -0.325 -0.650 49 40 33
-2287.1094 6453.9258 925.5267 0.254 -0.658 -0.709 25 22 17
-2288.3037 6491.7437 921.1951 0.338 -0.611 -0.716 35 32 27
-1762.6626 5824.5449 600.8525 0.908 -0.392 0.149 51 38 35
-1571.4611 5847.1777 447.3480 0.998 -0.022 0.059 224 189 183
-4225.8608 4773.1548 2667.2837 0.214 -0.666 -0.715 214 215 210
-4287.8481 4879.9551 2700.8167 0.666 -0.359 -0.654 193 194 189
-4273.1255 4896.1855 2686.9622 0.640 -0.461 -0.615 24 23 21
-4269.0894 4908.3179 2682.0762 0.640 -0.461 -0.615 38 37 35
-4268.8765 4925.0986 2679.5330 0.674 -0.693 -0.255 49 48 46
-4262.1382 4934.0625 2672.9749 0.674 -0.693 -0.255 181 180 178
-4199.9619 4875.7881 2632.4221 0.098 -0.691 -0.716 222 221 219
-4252.7417 4974.2891 2659.9033 0.664 -0.621 -0.417 235 234 230
-4322.8384 5095.2461 2697.7971 0.291 -0.722 -0.628 231 224 217
-4296.2524 5133.7515 2671.4768 0.236 -0.715 -0.658 138 110 90
-3820.6689 5820.3423 2200.9565 0.880 -0.350 -0.321 128 91 64
-3869.3928 5965.2778 2218.6790 0.883 -0.160 0.442 154 115 86
-3698.0486 6224.9917 2047.4108 -0.450 -0.876 -0.175 153 108 75
-3663.8948 6214.6719 2022.0635 -0.458 -0.878 -0.136 132 87 54
-3425.9890 6010.3989 1864.2482 0.363 -0.005 -0.932 128 86 52
-3549.1846 6310.9731 1918.3878 0.455 0.017 -0.890 96 60 28
-3419.4270 6327.0630 1814.2587 0.806 -0.592 0.007 106 67 38
-3018.8789 6079.5063 1534.9092 0.114 -0.058 -0.992 28 19 12
-3074.2808 6276.7388 1550.4681 -0.680 -0.314 -0.663 41 32 25
-2235.5974 6276.9268 892.1323 0.305 -0.832 0.464 28 25 20
-2213.5776 6279.0312 874.5503 0.299 -0.954 0.027 32 29 24
-4238.4756 4777.4092 2659.5520 0.214 -0.666 -0.715 216 217 212
-4297.2114 4863.3809 2693.2087 0.674 -0.363 -0.643 227 228 223
-4243.2026 4832.7412 2655.2979 0.564 -0.758 -0.328 169 170 165
-4212.1382 4879.5156 2624.2314 0.099 -0.701 -0.707 217 216 214
-4260.8691 4972.9214 2648.9802 0.664 -0.621 -0.417 233 232 228
-4335.2407 5098.8789 2689.1372 0.267 -0.526 -0.807 231 226 217
-4328.0435 5107.7969 2682.2153 0.286 -0.514 -0.809 181 170 162
-3922.7834 5965.9189 2241.2739 0.315 -0.616 0.722 123 87 60
-3839.8154 5902.1113 2185.4429 0.211 -0.977 0.018 136 98 70
-3720.5886 6197.2861 2049.5754 0.536 -0.622 -0.571 124 79 46
-3707.6116 6273.5122 2028.4451 0.271 -0.660 -0.701 132 87 54
-3567.3198 6325.6328 1911.0275 0.457 0.017 -0.890 109 73 41
-3567.0115 6350.8384 1907.1609 0.455 0.016 -0.891 99 63 32
-3553.1936 6351.1929 1896.2833 0.502 -0.715 -0.486 99 63 32
-3499.9705 6515.5264 1830.9481 0.593 -0.791 0.149 102 66 39
-3041.7764 6134.0474 1526.8051 0.113 -0.057 -0.992 36 27 19
-2233.1858 6276.7041 872.7397 0.302 -0.953 0.006 28 25 20
-2222.1318 6277.6177 863.9473 0.298 -0.955 -0.003 27 24 19
-1782.2296 5767.6304 592.6180 0.592 -0.801 -0.082 52 42 38
-1551.8147 5936.0645 387.8592 0.656 -0.398 -0.640 215 176 172
-1554.3400 6024.8359 377.0711 0.936 -0.153 0.318 247 208 204
-1179.7747 4576.8022 291.8402 0.519 -0.798 -0.306 241 203 199
-4249.0376 4779.2285 2650.5381 0.202 -0.667 -0.717 220 220 218
-4247.7671 4860.8291 2637.6279 0.312 -0.728 -0.610 35 35 33
-4240.8530 4869.3672 2630.9734 0.312 -0.728 -0.610 39 39 37
-4226.6333 4869.1284 2619.8870 0.123 -0.708 -0.695 186 186 184
-4225.0288 4884.0879 2616.4478 0.144 -0.719 -0.680 218 218 216
-4348.9263 5104.0645 2681.2263 0.267 -0.526 -0.807 233 230 212
-4289.8130 5102.2837 2635.2532 0.577 -0.596 -0.559 138 110 97
-3881.8386 5885.6597 2201.7729 0.756 -0.598 -0.266 116 82 57
-3912.0962 5955.8271 2215.1914 0.214 -0.695 0.686 123 88 63
-3829.8633 5870.4878 2163.3379 -0.258 -0.961 0.096 134 101 75
-3794.0273 5835.7056 2140.3894 0.666 -0.722 0.189 136 101 75
-3745.6042 6247.4404 2042.3911 0.425 -0.856 -0.294 158 115 81
-3711.4966 6213.0171 2020.7417 0.593 -0.639 -0.491 135 92 58
-3695.3369 6258.9893 2001.3896 -0.405 -0.909 -0.100 148 105 71
-3560.2344 6243.2866 1898.0170 0.555 0.053 -0.830 137 101 71
-3483.9390 6306.8765 1829.0591 -0.452 -0.791 0.412 100 69 42
-3395.5471 6269.1470 1765.4362 0.274 -0.749 0.603 98 67 40
-3444.3804 6469.2192 1774.4125 0.529 -0.762 0.374 89 63 45
-3085.6912 6125.7886 1544.0277 0.161 -0.054 -0.985 26 17 8
-3140.6350 6375.3062 1550.5629 0.221 -0.602 0.767 34 22 12
-2449.0508 5830.0254 1089.2919 -0.314 -0.250 -0.916 26 22 19
-1780.0415 5766.5571 575.3176 0.563 -0.824 0.067 19 13 7
-1733.6741 5812.4277 532.3544 -0.070 -0.963 0.260 38 36 32
-1608.5413 6010.5977 405.5471 -0.649 -0.760 0.028 219 190 191
-4478.2739 3216.9736 3044.0928 0.972 -0.169 -0.165 192 189 184
-4477.0107 3226.3945 3041.7100 0.971 -0.168 -0.168 205 202 197
-4491.7915 3248.2212 3050.0142 0.836 -0.412 -0.363 204 201 194
-4252.0024 4755.7524 2639.3274 0.751 -0.659 -0.038 220 220 218
-4323.6177 4856.1909 2680.3489 0.738 -0.654 0.164 220 220 218
-4266.7759 4855.8647 2636.0203 0.375 -0.698 -0.611 162 162 160
-4257.4980 4861.5718 2627.9309 0.310 -0.724 -0.616 81 81 79
-4250.6289 4870.1621 2621.2947 0.310 -0.724 -0.616 34 34 32
-4239.9502 4874.1938 2612.3599 0.123 -0.708 -0.695 197 197 195
-4238.0571 4888.8042 2608.7163 0.144 -0.719 -0.680 225 225 223
-4228.3955 4894.0776 2600.3916 0.131 -0.724 -0.678 233 234 230
-4280.8135 4974.6748 2629.3669 0.721 -0.637 -0.273 223 224 216
-4363.6089 5110.4438 2673.8792 0.381 -0.611 -0.694 233 231 211
-4289.6777 5090.4688 2619.1216 0.498 -0.626 -0.600 137 110 98
-4224.0444 5026.7246 2577.3306 0.376 -0.613 -0.695 141 108 100
-4020.6494 5885.4023 2291.2449 0.103 -0.258 -0.960 49 30 13
-3990.3103 5861.1958 2271.1475 0.166 -0.298 -0.940 55 36 19
-3888.0867 5924.6387 2181.9353 0.256 -0.671 0.696 134 100 75
-3922.4062 6164.3730 2173.1902 0.984 -0.094 -0.152 129 88 56
-3654.1240 5771.8965 2021.9215 0.780 -0.553 0.293 139 98 66
-3732.3313 6086.3779 2036.3589 0.949 -0.053 0.311 141 101 65
-3625.3145 6317.4302 1918.5580 0.040 -0.327 -0.944 141 99 67
-3551.1101 6233.6338 1873.0482 0.474 0.050 -0.879 135 100 70
-3485.9370 6502.8184 1782.2621 0.761 -0.311 0.569 84 60 41
-3469.5471 6525.3027 1766.1333 0.764 -0.317 0.562 83 60 42
-3487.7512 6588.1641 1771.0266 0.903 -0.381 0.201 83 60 42
-2444.1895 4667.6567 1241.0092 0.193 -0.887 -0.419 42 32 22
-3082.2625 6178.5396 1515.1813 0.217 -0.170 -0.961 58 46 32
-3085.2661 6320.6738 1496.4559 -0.402 -0.656 -0.639 40 28 15
-2470.2080 6090.9956 1050.3220 -0.333 -0.943 0.015 13 9 10
-1777.3344 5730.2773 562.8625 0.761 -0.631 0.147 16 11 5
-1695.0586 5752.5181 495.3319 -0.488 -0.873 -0.001 35 34 29
-4275.6636 4855.5972 2625.8093 0.310 -0.724 -0.616 197 197 195
-4268.8042 4864.1846 2619.1716 0.310 -0.724 -0.616 159 159 157
-4256.9785 4866.8569 2609.5537 0.306 -0.715 -0.628 84 84 82
-4250.1953 4875.5537 2602.9592 0.306 -0.715 -0.628 212 212 210
-4247.4004 4889.0664 2598.7483 0.545 -0.580 -0.605 233 233 231
-4243.1489 4900.8721 2593.6587 0.537 -0.585 -0.608 234 234 231
-4279.3354 4961.6787 2612.7107 0.706 -0.659 -0.260 221 223 212
-4362.7085 5080.1738 2659.8557 0.074 -0.763 -0.642 224 226 207
-4374.1904 5111.7944 2664.0464 0.352 -0.615 -0.706 234 232 211
-4320.2070 5063.5264 2629.2390 0.348 -0.877 -0.332 202 195 177
-4292.5742 5082.4478 2604.8577 0.493 -0.638 -0.591 138 111 98
-4248.0049 5044.9380 2575.7681 0.406 -0.740 -0.536 142 109 101
-4038.0991 5985.4829 2270.6797 0.484 -0.558 0.674 75 56 39
-3773.9897 6092.0767 2048.8203 -0.418 -0.900 -0.121 133 93 57
-3695.3286 6150.0859 1978.7914 0.917 -0.146 0.372 121 78 44
-3600.8218 6280.2119 1885.5638 0.441 -0.091 -0.893 137 101 72
-3598.8789 6302.0322 1880.7670 0.451 -0.083 -0.888 128 93 63
-3619.7141 6365.4346 1887.4650 0.468 0.034 -0.883 115 80 52
-3616.1353 6384.6670 1881.7823 0.457 0.018 -0.889 105 70 42
-3392.3882 6276.9414 1723.6223 0.345 -0.710 0.614 95 68 45
-3439.0669 6392.8350 1742.5629 0.274 -0.957 -0.090 77 53 34
-3342.2932 6258.4951 1687.3582 0.467 -0.695 -0.547 76 53 35
-3381.5659 6361.1431 1702.5201 0.428 -0.857 -0.288 76 53 35
-2433.5962 5917.0874 1030.5703 0.673 -0.461 -0.578 30 26 25
-1704.4418 5757.3193 486.3731 -0.484 -0.875 -0.000 40 39 35
-1536.3375 5932.8618 328.9575 0.881 -0.125 0.456 204 178 179
-1509.0234 5900.7104 312.5087 0.762 -0.173 0.625 218 191 192
-4367.8311 4886.4546 2675.6294 0.897 -0.431 0.093 223 223 221
-4284.5425 4855.3179 2615.5920 0.484 -0.784 -0.388 205 205 203
-4277.1768 4863.2988 2608.6436 0.484 -0.784 -0.388 218 218 216
-4269.8052 4871.2871 2601.6899 0.484 -0.784 -0.388 147 147 145
-4259.2241 4875.4507 2592.8232 0.547 -0.757 -0.356 211 211 209
-4254.9902 4887.2202 2587.7329 0.541 -0.756 -0.368 234 234 232
-4248.6470 4896.4897 2581.3833 0.537 -0.765 -0.355 236 236 233
-4386.3501 5115.0566 2655.1372 0.352 -0.615 -0.706 232 230 209
-4327.0825 5060.4707 2617.3655 0.370 -0.748 -0.551 205 198 180
-4319.8408 5069.1777 2610.4031 0.370 -0.748 -0.551 142 128 114
-4299.5063 5079.4341 2593.0188 0.454 -0.640 -0.620 138 111 98
-4250.5522 5036.5884 2561.4783 0.664 -0.744 -0.077 141 108 100
-4037.7739 5544.2129 2318.4636 0.003 -0.333 -0.943 79 53 40
-3997.6799 5507.0386 2292.9492 -0.039 -0.469 -0.882 73 47 34
-4076.5369 5983.9448 2281.4883 0.063 -0.765 0.641 59 40 23
-4054.9595 5973.3691 2266.3179 0.009 -0.743 0.669 70 51 34
-4036.0588 5966.7729 2252.6218 0.430 -0.613 0.663 70 51 34
-3983.1094 5907.6860 2220.4524 -0.076 -0.938 0.338 68 49 32
-3982.0986 5928.3379 2216.5132 0.309 -0.704 0.639 71 51 33
-3925.1790 6088.8560 2147.7307 0.888 -0.172 0.425 138 97 65
-3808.5151 6132.8965 2050.2542 -0.451 -0.889 -0.082 157 117 81
-3801.6431 6145.2407 2043.0238 -0.270 -0.931 -0.246 157 117 81
-3575.1958 6342.4756 1836.7598 -0.274 -0.701 0.658 119 84 56
-3562.3887 6344.6396 1826.4667 -0.286 -0.730 0.621 120 85 57
-3377.2898 6203.3853 1704.0411 0.308 -0.766 0.564 105 78 51
-3440.4028 6375.9736 1726.7900 -0.047 -0.999 0.020 72 48 29
-3418.6848 6360.6177 1712.2395 0.775 -0.468 0.424 71 48 30
-3347.9604 6250.3145 1674.0615 0.438 -0.712 -0.549 71 48 30
-3373.8730 6326.7046 1682.5574 0.225 -0.844 -0.487 71 48 30
-3113.1702 6202.6914 1498.6873 0.982 -0.027 -0.185 63 51 37
-3119.8821 6243.3877 1497.6958 0.983 -0.026 -0.181 61 49 35
-3102.1531 6454.6934 1451.6466 -0.571 -0.350 -0.743 35 25 15
-2462.2668 5910.0508 1037.0206 0.664 -0.324 -0.674 52 48 47
-2458.4038 5928.8057 1031.1526 0.691 -0.354 -0.630 52 48 47
-2458.0776 5985.3838 1022.2616 -0.232 -0.656 0.718 36 34 35
-1810.2593 5720.0845 558.8209 -0.127 -0.856 -0.501 9 4 0
-4322.9980 4839.9443 2630.6775 0.466 -0.577 -0.671 227 227 225
-4310.4819 4858.4961 2618.0857 0.491 -0.728 -0.479 215 215 213
-4299.4097 4862.1157 2608.9275 0.554 -0.728 -0.404 207 207 205
-4294.3940 4872.9028 2603.3621 0.539 -0.716 -0.443 231 231 229
-4287.8198 4881.8682 2596.8689 0.539 -0.716 -0.443 171 171 169
-4400.2607 5120.4272 2647.2358 0.325 -0.628 -0.707 229 227 206
-4337.8589 5062.1758 2607.8015 0.370 -0.748 -0.551 211 204 186
-4315.2842 5087.3105 2586.3799 0.468 -0.659 -0.589 138 111 98
-4262.2910 5039.6147 2552.6167 0.649 -0.758 -0.060 141 108 100
-4253.0654 5629.9185 2454.0371 0.057 -0.531 -0.846 102 71 53
-4083.4880 5555.0059 2333.9602 -0.137 -0.374 -0.918 88 58 47
-4073.1604 5580.8462 2321.9392 0.069 -0.366 -0.928 72 46 33
-3973.6865 5769.1689 2215.5332 0.458 -0.338 -0.822 52 33 18
-3658.5903 6373.0737 1877.3373 -0.619 -0.522 -0.587 106 71 41
-3608.5000 6359.0962 1840.6064 -0.274 -0.701 0.658 113 78 50
-3409.4658 6376.2651 1683.3965 -0.033 -0.943 -0.331 77 54 36
-2515.9019 4786.1592 1235.7878 0.646 -0.745 -0.168 31 22 13
-3123.2534 6311.5171 1471.1783 0.198 -0.930 0.309 61 49 35
-2471.6201 5911.4395 1027.1389 0.664 -0.324 -0.674 21 17 16
-1846.7190 5780.0767 562.2434 -0.066 -0.829 -0.555 19 14 8
-1820.6201 5727.6104 550.1025 -0.120 -0.847 -0.518 14 9 3
-1467.6644 5452.4790 318.6384 0.892 -0.059 0.447 31 19 15
-1451.4849 5604.4917 282.5338 0.726 -0.115 0.678 33 21 17
-214.8273 892.1116 52.0348 0.046 -0.658 -0.752 225 151 152
-4349.0186 4859.6758 2630.5930 0.431 -0.670 -0.604 227 227 225
-4316.4678 4871.4668 2603.5107 0.682 -0.652 -0.331 210 210 208
-4310.3730 4880.9990 2597.2896 0.682 -0.652 -0.331 227 227 225
-4298.5503 4883.7549 2587.6929 0.560 -0.705 -0.436 195 195 193
-4292.0889 4892.8765 2581.2520 0.560 -0.705 -0.436 174 174 172
-4285.6191 4902.0098 2574.8027 0.560 -0.705 -0.436 224 224 222
-4279.1411 4911.1548 2568.3450 0.560 -0.705 -0.436 229 229 226
-4319.3159 4976.4443 2589.2305 0.897 -0.049 -0.439 235 236 228
-4407.5254 5117.7251 2635.4121 0.711 -0.697 0.092 229 227 207
-4343.9990 5058.2388 2595.5154 0.442 -0.813 -0.379 210 203 187
-4274.5259 5043.2373 2544.0227 0.339 -0.939 0.052 141 108 100
-4189.1465 4955.3052 2491.6553 0.039 -0.545 -0.837 138 106 92
-4109.1396 5577.4995 2331.9175 0.074 -0.396 -0.915 88 58 47
-3992.2288 5913.0264 2188.6001 -0.146 -0.976 0.159 63 43 25
-3871.8010 5814.7163 2110.6968 0.435 -0.508 0.744 114 80 55
-3690.7200 6412.3789 1876.4685 -0.616 -0.522 -0.590 128 93 65
-3388.0029 6289.2793 1661.1650 0.198 -0.533 -0.822 82 59 41
-3499.0874 6556.9600 1705.2245 0.693 -0.488 0.530 84 61 43
-2686.9343 5132.4536 1299.4572 -0.204 -0.361 -0.910 31 22 13
-2901.4138 5704.0693 1375.9218 0.900 -0.435 -0.041 39 27 13
-3181.3623 6581.7441 1455.0610 -0.567 -0.326 -0.757 30 20 10
-3117.9746 6474.4111 1422.7867 -0.585 -0.357 -0.729 30 20 10
-2506.6047 5947.8843 1031.6080 -0.550 -0.532 -0.644 10 6 5
-1979.4722 5573.6265 681.8063 -0.613 -0.191 -0.767 26 19 13
-3499.0867 2508.6841 2330.2029 0.262 -0.809 -0.526 206 205 201
-4406.9937 5123.2461 2616.2612 0.715 -0.694 0.080 210 203 187
-4394.1938 5125.3877 2606.0168 0.755 -0.656 0.006 155 141 127
-4384.1401 5130.8545 2597.3677 0.764 -0.644 0.034 133 112 98
-4281.3047 5040.1387 2532.2505 0.339 -0.939 0.052 141 109 100
-4004.9702 5917.1904 2178.7668 -0.157 -0.975 0.160 63 43 25
-3987.3457 5912.2461 2165.9182 -0.157 -0.975 0.160 84 56 33
-3850.4915 5744.6670 2086.7214 0.668 -0.538 0.513 84 49 27
-3879.8550 5855.9268 2091.7207 0.183 -0.981 0.071 130 98 73
-3878.7927 5876.4048 2087.6377 0.408 -0.902 0.141 132 98 73
-3755.7410 5858.5381 1995.2766 -0.604 -0.797 0.013 150 111 80
-3618.4707 6068.3628 1855.6522 0.904 -0.163 0.394 125 82 50
-3568.9666 6005.9771 1827.2860 0.857 -0.189 0.479 118 75 43
-3515.7947 6569.2710 1696.4355 0.753 -0.413 0.513 84 61 43
-3051.9260 6311.6528 1378.5641 0.102 -0.667 0.738 37 27 17
-2429.7871 5961.8740 952.9150 -0.650 -0.426 -0.629 19 13 15
-2155.3564 6685.9385 625.2697 -0.169 -0.851 -0.498 20 15 9
-1593.6027 5767.9302 336.8381 -0.350 -0.849 0.397 51 54 45
-4413.3340 5119.4326 2603.9258 0.612 -0.715 -0.337 217 209 197
-4402.1987 5123.5923 2594.6541 0.631 -0.708 -0.318 161 147 135
-4388.7500 5124.9214 2584.0527 0.617 -0.725 -0.307 135 115 101
-4273.0981 5018.6802 2511.8862 0.293 -0.956 0.005 137 108 98
-3940.4111 5846.6890 2121.2595 -0.029 -0.994 0.108 86 55 33
-3672.5576 5955.6802 1896.7946 -0.367 -0.754 -0.544 156 115 80
-3656.3430 5951.5132 1884.9447 -0.341 -0.716 -0.609 140 98 64
-3644.1462 5954.0767 1875.1110 -0.341 -0.716 -0.609 151 109 75
-3612.2510 5923.0977 1855.4795 0.882 0.000 -0.472 165 123 89
-3678.6531 6204.3135 1861.3589 -0.532 -0.793 -0.298 104 64 34
-3520.0112 6294.2617 1724.3143 -0.280 -0.813 -0.510 77 50 23
-2795.6401 5315.7803 1322.8534 -0.350 -0.090 -0.932 31 22 13
-3180.0618 6396.0073 1445.3385 0.423 -0.860 0.286 74 62 51
-2151.8418 6644.6763 611.0788 0.122 -0.813 -0.569 21 16 10
-2109.4680 6582.4971 588.3920 0.003 -0.990 -0.144 31 26 20
-1607.5758 5790.5903 328.6311 -0.389 -0.848 0.360 57 63 54
-4111.8564 3133.2114 2678.7263 0.422 -0.693 0.584 206 205 201
-4349.3779 4877.8667 2576.3269 0.893 -0.437 -0.111 222 223 218
-4367.1104 5000.3423 2569.9541 0.928 -0.137 -0.347 223 225 222
-4381.1426 5034.3750 2575.2029 0.907 -0.078 -0.415 226 227 222
-4421.4600 5117.7891 2592.6338 0.612 -0.715 -0.337 234 226 219
-4410.1035 5121.6812 2583.2419 0.631 -0.708 -0.318 174 162 152
-4398.9395 5125.7915 2573.9624 0.620 -0.720 -0.311 139 121 108
-4297.0698 5036.6758 2510.0127 0.344 -0.939 0.030 134 107 88
-4055.3262 5985.6445 2168.3494 -0.111 -0.380 -0.918 62 38 23
-3909.6768 5805.9521 2085.4712 0.350 -0.516 0.782 76 51 35
-3890.8062 5798.5430 2072.1357 0.350 -0.516 0.782 81 56 39
-3847.3354 5752.8325 2046.1038 0.379 -0.574 0.726 97 73 54
-3873.6150 5815.4541 2056.1152 0.462 -0.666 0.585 104 80 61
-3692.9895 5836.7100 1913.3884 -0.185 -0.772 -0.608 156 119 87
-3684.2603 6196.5234 1847.7758 -0.549 -0.803 -0.231 76 40 16
-3692.6477 6411.4897 1819.0630 0.178 -0.984 0.025 115 82 60
-3561.1672 6403.4429 1719.0183 0.029 -0.832 0.554 98 70 46
-2955.6438 6065.4443 1307.5193 0.202 -0.545 0.813 42 38 32
-2957.5698 6096.1133 1303.9852 0.169 -0.557 0.813 42 38 32
-1731.2291 5889.9058 392.3163 -0.530 -0.819 0.221 37 36 32
-1600.6273 5629.5244 334.2434 -0.385 -0.923 0.025 43 43 38
-1600.3602 5663.3359 328.5042 -0.184 -0.816 0.548 56 56 51
-4327.8413 4841.9624 2548.5239 0.969 -0.248 0.009 222 223 218
-4333.9985 4865.7480 2549.3171 0.888 -0.084 -0.452 222 223 218
-4343.1616 4943.6919 2543.4426 0.874 -0.073 -0.480 232 233 228
-4402.1592 5065.6797 2568.6128 0.864 -0.081 -0.497 229 227 222
-4416.0127 5117.3638 2570.7024 0.602 -0.724 -0.338 173 161 151
-4405.1289 5121.8066 2561.5903 0.608 -0.720 -0.333 141 121 108
-4341.8174 5079.9502 2519.8115 0.589 -0.766 -0.260 135 108 87
-4284.1152 5026.8550 2484.2129 0.061 -0.543 -0.837 131 103 82
-3697.3186 5130.8232 2015.4119 0.873 -0.425 -0.239 51 30 13
-3580.3040 5072.2876 1935.0729 0.611 -0.673 -0.417 53 32 15
-4180.3330 6025.6396 2238.7126 -0.066 -0.384 -0.921 76 54 40
-3816.4514 5886.5786 1981.7556 -0.472 -0.853 -0.222 148 117 89
-3774.7075 5864.2334 1953.3380 -0.472 -0.865 -0.168 125 91 65
-3693.5386 5866.6938 1890.4679 0.025 -0.718 -0.696 148 112 80
-3677.9094 6001.3335 1856.1123 0.833 -0.371 -0.412 124 88 54
-3687.0688 6307.2983 1812.4202 -0.067 -0.976 0.207 109 78 57
-3464.4233 6008.0771 1690.7095 0.337 -0.938 -0.085 109 78 57
-3234.9705 6441.0674 1442.3319 0.094 -0.914 0.395 35 26 19
-2572.3689 6078.5225 992.5622 0.790 -0.612 -0.024 41 40 38
-2517.0330 6085.8916 948.7572 0.102 -0.779 0.619 50 40 39
-2393.7798 6064.3618 857.4803 0.290 -0.260 -0.921 31 18 44
-2398.3042 6136.5630 848.9884 -0.299 -0.828 -0.474 19 9 30
-2127.5559 6508.5361 578.9515 0.813 -0.273 0.514 29 21 18
-4427.2852 5119.5317 2561.2190 0.571 -0.180 -0.801 174 162 152
-4392.1914 5112.2529 2535.4849 0.336 -0.812 -0.477 139 115 96
-4385.8286 5139.8267 2525.9644 0.574 -0.751 -0.326 131 103 82
-3713.0315 5159.5161 2005.8513 0.652 -0.484 -0.583 52 31 14
-3229.8928 4509.0483 1744.0259 0.478 -0.869 -0.129 56 35 18
-4189.2217 6068.1592 2218.9592 -0.050 -0.368 -0.929 84 62 49
-4006.1838 5968.2622 2095.1450 -0.524 -0.732 0.435 74 53 36
-3931.3916 5874.6499 2053.4231 -0.478 -0.768 0.426 79 58 41
-3715.8225 5864.8223 1889.4863 0.039 -0.729 -0.684 146 110 78
-3701.8694 5864.4360 1878.8334 0.073 -0.735 -0.674 150 114 82
-3555.2334 6303.5732 1692.4099 -0.384 -0.832 -0.401 102 74 50
-3104.5786 6205.6562 1362.6951 0.423 -0.861 0.282 25 21 17
-3092.8340 6207.9438 1353.2891 0.317 -0.900 0.300 25 22 17
-2549.9353 6001.6509 970.9272 0.772 -0.567 0.287 44 43 41
-2567.4548 6189.4253 952.8341 0.612 -0.791 -0.021 64 53 52
-2534.1265 6135.3755 936.3147 0.102 -0.791 0.604 77 60 61
-2497.6621 6072.8579 918.8094 0.132 -0.797 0.589 82 58 64
-2419.5657 5904.1904 887.1603 0.273 -0.732 0.624 86 56 64
-2376.8523 5880.7173 858.2944 0.566 -0.763 0.311 57 32 55
-2409.5444 6142.5913 839.4056 -0.178 -0.632 -0.754 26 6 27
-2375.5583 6495.1167 754.0665 0.234 -0.517 -0.823 33 22 20
-2369.0249 6510.0640 746.5364 0.234 -0.517 -0.823 33 22 20
-1437.0729 5201.0742 250.6058 0.429 -0.815 0.389 53 49 50
-1470.8389 5608.8257 208.0307 -0.392 -0.741 0.545 49 48 46
-4436.8818 5119.6714 2550.7778 0.211 -0.127 -0.969 180 168 158
-4414.1333 5145.0552 2529.0146 0.310 -0.249 -0.918 135 107 86
-3243.3442 4517.2681 1738.1595 0.473 -0.860 -0.193 78 57 40
-4183.4038 6021.7568 2202.8796 0.949 -0.198 0.247 94 72 59
-3981.4204 5958.9717 2058.6941 -0.230 -0.707 0.668 76 55 38
-3943.4087 5922.1133 2035.8221 -0.278 -0.712 0.645 82 60 42
-3908.4360 5889.6924 2014.5249 0.069 -0.865 0.498 79 48 27
-3896.1587 5892.6060 2004.6152 0.075 -0.878 0.473 110 78 55
-3872.6599 5877.8198 1989.1141 -0.150 -0.715 -0.683 112 80 57
-3860.1418 5902.4883 1975.3170 -0.277 -0.555 -0.784 119 87 62
-3856.7827 5919.5059 1969.8450 -0.298 -0.561 -0.772 115 83 58
-3724.4275 5885.5190 1874.1455 0.017 -0.686 -0.728 148 112 80
-3800.1636 6032.8120 1907.1461 -0.112 -0.687 -0.718 146 110 78
-3814.9829 6080.5098 1910.3905 -0.254 -0.740 -0.623 148 109 78
-3710.0364 5999.0005 1843.7955 -0.448 -0.829 -0.334 105 69 35
-3673.7822 6198.8833 1781.9758 0.434 -0.275 -0.858 101 65 41
-3693.6816 6258.2959 1787.1212 0.512 -0.457 -0.727 100 65 41
-3351.0566 6207.8359 1533.0002 0.187 -0.656 0.731 84 59 37
-2985.7285 5864.7207 1311.2836 0.556 -0.606 -0.569 30 21 14
-2772.6165 5744.5894 1168.3259 0.148 -0.614 0.775 29 28 24
-2565.6758 5962.0918 972.6322 0.438 -0.816 0.376 49 48 46
-2566.3079 5991.5972 968.0948 0.716 -0.576 0.394 48 47 45
-2518.2856 5958.7871 936.8581 0.696 -0.712 -0.086 45 48 43
-2421.2422 6119.6206 835.0742 0.216 -0.242 -0.946 40 8 30
-2409.0015 6117.5298 826.0443 -0.353 -0.522 -0.777 33 3 23
-2362.9932 6601.7095 708.3559 0.272 -0.603 -0.750 26 15 13
-2342.6272 6611.5322 691.0682 0.273 -0.632 -0.726 42 31 29
-1674.6837 5848.2231 308.8399 -0.418 -0.847 -0.329 40 39 35
-1594.2994 5624.7515 285.2415 0.007 -0.959 -0.282 42 38 35
-1465.3501 5556.9409 197.9106 -0.289 -0.818 0.498 57 56 54
-4415.4702 5047.8862 2528.9990 0.861 0.027 -0.507 230 227 223
-4459.7109 5135.6982 2547.7217 0.210 -0.132 -0.969 194 182 172
-4359.5518 5067.3511 2482.8450 0.580 -0.770 -0.265 135 108 86
-4290.5410 5796.5923 2304.3132 0.059 -0.378 -0.924 59 37 23
-4287.5229 5813.2407 2299.1333 -0.588 -0.756 -0.289 60 38 24
-3550.9707 5009.1719 1874.0101 0.479 -0.717 -0.506 96 74 61
-4151.6362 6070.1372 2150.8433 0.903 -0.369 0.220 46 24 9
-3981.6094 5921.5791 2046.3195 0.096 -0.826 0.555 45 24 7
-3993.9915 5962.9106 2048.6714 -0.297 -0.682 0.668 53 32 15
-3919.5935 5891.6665 2004.0109 0.110 -0.859 0.500 58 27 8
-3904.0256 5889.4473 1992.4784 0.105 -0.848 0.519 60 28 8
-3889.4116 5888.6641 1981.4282 -0.150 -0.715 -0.683 86 54 31
-3896.5908 5922.1919 1981.1431 0.778 -0.527 0.342 121 89 66
-3856.4072 5925.5781 1949.8041 -0.422 -0.840 -0.341 96 64 39
-3771.7942 5901.7983 1889.1431 -0.007 -0.768 -0.640 137 101 69
-3760.7451 5906.3672 1879.8988 0.019 -0.753 -0.657 130 94 62
-3820.5383 6026.7974 1904.9020 -0.049 -0.817 -0.574 124 88 56
-3815.1331 6041.0347 1898.3105 -0.111 -0.677 -0.728 116 80 48
-3777.0867 6118.2642 1855.8774 0.809 -0.018 -0.587 144 108 74
-3663.6243 6091.5361 1773.6443 0.670 -0.531 0.519 109 73 49
-3735.7446 6289.3950 1794.7344 0.596 -0.785 -0.172 92 56 32
-3479.5046 5983.2017 1651.4003 0.054 -0.536 -0.842 100 69 48
-3548.9678 6305.9434 1648.9281 0.093 -0.731 0.676 95 67 43
-3161.6235 5948.5103 1414.0837 -0.484 -0.443 -0.755 33 24 17
-2803.5830 5741.7417 1175.6947 0.153 -0.596 0.788 19 18 14
-2601.9370 5999.8994 976.8571 0.445 -0.815 0.371 24 23 21
-2578.6152 5971.8301 963.8462 0.474 -0.787 0.394 44 43 41
-2431.2070 5861.5117 870.0419 -0.392 -0.656 -0.645 73 50 53
-2317.0732 5795.6934 794.0336 0.270 -0.576 -0.771 81 49 66
-2476.8562 6761.6704 749.8029 0.092 -0.240 -0.966 20 9 7
-2410.3689 6745.9077 701.6328 0.636 -0.500 -0.587 20 9 7
-2389.2581 6719.7383 689.9865 0.545 -0.532 -0.648 22 11 9
-2352.8740 6648.5854 674.4052 0.448 -0.481 -0.753 22 11 9
-2213.8206 6409.3521 609.2191 -0.342 -0.489 -0.802 24 15 10
-1546.6570 5523.4927 251.3039 -0.536 -0.844 -0.007 41 37 38
-1532.1021 5503.4414 243.6206 -0.553 -0.833 -0.034 41 37 38
-3251.2986 2370.1567 2089.4729 0.721 -0.470 -0.510 202 201 197
-4424.6777 5047.6802 2518.5122 0.862 0.029 -0.507 230 228 223
-4373.3491 5072.7266 2474.9255 0.697 -0.688 -0.204 135 108 88
-3510.2312 4524.7764 1911.1688 -0.413 -0.780 0.471 94 65 49
-3351.6199 4372.8140 1816.5194 -0.196 -0.771 0.606 87 60 43
-3961.1450 5379.4985 2106.4548 -0.619 -0.772 -0.143 50 28 14
-4175.7358 6001.8960 2161.7495 0.988 -0.055 0.142 85 63 50
-4179.1968 6029.1880 2159.6292 0.988 -0.055 0.148 73 51 38
-4160.7139 6068.3169 2138.6777 0.907 -0.365 0.209 51 30 14
-4130.1411 6044.4165 2119.4932 0.983 -0.151 -0.102 55 34 17
-4056.3423 5976.6206 2074.9463 0.955 -0.171 0.244 63 42 25
-4037.4277 5969.8662 2061.6750 0.953 -0.149 0.264 59 38 21
-3848.0759 6101.9414 1893.9567 0.104 -0.782 -0.614 117 81 49
-3785.2939 6115.2124 1843.6754 0.810 -0.022 -0.586 134 98 64
-3786.9968 6141.7437 1840.3448 0.810 -0.022 -0.586 128 92 58
-3597.9453 5961.6099 1727.3574 0.276 -0.889 0.366 109 73 49
-3611.4519 6008.2886 1729.5278 0.447 -0.762 0.469 98 62 38
-3522.1685 6066.0054 1651.2408 0.212 -0.419 -0.883 96 65 44
-3456.2881 6267.9565 1565.6552 0.348 -0.600 0.720 84 59 37
-2607.4412 5991.6729 965.3771 0.445 -0.815 0.371 23 22 20
-2512.7009 5901.9980 908.6509 -0.173 -0.573 -0.801 57 60 55
-2393.5083 6030.2803 795.1956 0.162 -0.811 -0.563 32 15 21
-2575.4250 7047.4326 756.6163 -0.367 -0.929 -0.040 22 8 7
-1510.6117 5638.5815 189.0515 -0.304 -0.794 0.526 54 53 51
-3162.4937 2170.4338 2046.9484 0.744 -0.634 -0.212 193 192 187
-3254.8230 2392.0051 2078.1982 0.693 -0.398 -0.601 188 187 183
-4431.5127 5044.6548 2506.7129 0.862 0.029 -0.507 229 227 223
-4492.3906 5169.6606 2531.0449 0.203 -0.149 -0.968 140 123 109
-3429.2729 4484.4849 1841.4054 0.890 0.006 -0.455 83 56 39
-2693.0310 3712.4346 1416.3972 0.342 -0.702 -0.625 100 77 60
-4162.3247 6055.2432 2122.8152 0.907 -0.365 0.209 57 36 19
-4149.1650 6057.7256 2112.3406 0.980 -0.147 -0.134 65 44 27
-3975.7510 5903.8804 2007.2852 -0.225 -0.670 0.707 97 76 57
-3939.0598 5869.1973 1985.4343 -0.265 -0.702 0.661 110 88 68
-3899.2693 5873.2183 1954.3792 0.922 -0.288 0.260 60 28 8
-3880.2642 5909.7549 1933.4282 0.839 -0.435 0.326 85 53 30
-3577.7236 5933.4424 1698.5226 0.266 -0.886 0.381 105 69 45
-3622.3640 6033.8115 1714.8262 0.937 -0.164 -0.309 103 67 43
-3514.6985 6011.4277 1636.6760 -0.069 -0.948 -0.311 101 70 49
-3553.8513 6105.0439 1649.9883 0.297 -0.704 -0.645 96 65 44
-3539.6084 6103.8853 1639.3313 0.287 -0.705 -0.649 88 57 36
-3582.9070 6230.7017 1649.9373 0.345 -0.463 0.817 85 57 33
-2609.8308 5976.0962 952.8637 0.456 -0.817 0.353 23 22 20
-2523.3269 5934.3057 894.2816 0.451 -0.574 -0.684 57 58 53
-2516.9006 5974.6582 882.2488 0.150 -0.983 0.107 64 55 52
-1650.9070 6036.3647 210.9313 0.678 -0.535 0.504 42 38 39
-1512.8650 5653.5376 173.3215 -0.149 -0.795 0.589 47 46 44
-3164.3508 2160.7832 2040.5573 0.752 -0.623 -0.215 187 186 181
-3163.7134 2167.4160 2038.8854 0.743 -0.633 -0.215 191 190 185
-3262.3767 2385.7852 2074.9209 0.731 -0.500 -0.465 202 201 197
-4445.6802 5050.3320 2498.9551 0.867 0.024 -0.498 230 230 224
-4456.5566 5115.3149 2495.6084 0.542 -0.162 -0.825 144 126 114
-4458.8037 5135.5259 2493.7029 0.549 -0.160 -0.821 136 113 98
-3249.4614 4320.1860 1718.9969 0.985 -0.083 -0.154 67 42 26
-3793.4595 5173.0142 1980.5188 -0.558 -0.829 -0.031 111 87 68
-2620.7329 3557.7527 1376.8033 0.159 -0.873 -0.462 104 80 61
-4158.6431 6034.2700 2104.4146 0.909 -0.364 0.201 65 40 24
-4118.8237 5996.4434 2080.8708 0.884 -0.417 0.211 73 49 32
-3988.7332 5886.6323 2001.4894 0.111 -0.822 0.558 92 68 50
-3938.7366 5853.4673 1969.3643 -0.264 -0.703 0.660 92 67 48
-3921.6240 5848.8433 1957.1650 0.225 -0.755 0.615 75 45 24
-3897.9797 5899.9170 1930.0287 0.810 -0.157 0.564 105 73 52
-3878.8481 5914.1709 1912.9150 0.773 -0.292 0.563 96 64 41
-3586.4668 5885.8359 1695.4165 0.241 -0.970 0.044 111 75 51
-3661.9312 6085.0894 1717.2125 0.962 -0.263 -0.077 109 73 49
-3644.8069 6249.1182 1674.8300 0.586 -0.801 -0.123 98 65 43
-3574.0088 6147.7212 1639.0781 0.204 -0.731 -0.651 91 58 36
-3560.7878 6197.6836 1620.0748 0.334 -0.468 0.818 73 45 20
-3184.9697 5842.3403 1397.5688 -0.725 -0.674 0.141 77 55 37
-3167.5459 2159.2700 2033.7583 0.752 -0.623 -0.215 185 186 180
-3166.9475 2165.9226 2032.0989 0.743 -0.633 -0.215 190 191 183
-4457.7065 5053.4507 2489.9927 0.862 0.023 -0.506 234 235 222
-4471.1938 5121.4873 2487.9207 0.540 -0.155 -0.827 149 134 126
-4508.3286 5183.5020 2504.9075 0.844 -0.450 -0.291 128 106 99
-3450.7319 4524.4873 1820.6331 0.889 -0.181 -0.420 73 44 27
-2624.7175 3528.2837 1373.3853 0.419 -0.472 0.775 120 89 64
-2622.5093 3538.1838 1369.9146 0.451 -0.472 0.757 120 89 64
-2799.7146 3848.6343 1448.3458 0.337 -0.829 -0.447 115 85 61
-3996.6616 5861.8159 1993.2872 0.995 -0.072 -0.066 100 71 51
-3945.5613 5848.8115 1956.8136 -0.083 -0.782 0.617 78 49 29
-3925.3049 5839.3462 1943.1361 0.218 -0.752 0.623 112 80 59
-3793.4119 6009.2603 1812.1487 0.250 -0.643 0.724 122 91 66
-3756.2646 6040.1924 1778.3212 0.743 -0.565 0.359 126 95 71
-3555.1514 5816.3330 1666.0432 0.214 -0.959 0.184 133 97 71
-3565.3108 5902.1279 1658.2267 0.528 -0.756 0.388 116 80 54
-3654.8091 6249.0381 1663.4119 0.517 -0.836 -0.184 108 72 47
-3584.3591 6148.5596 1628.0757 0.065 -0.698 -0.713 108 72 47
-3600.4236 6201.6436 1630.6697 0.633 -0.696 -0.339 108 73 47
-3080.3433 5743.2354 1318.4985 -0.399 -0.769 -0.499 27 18 11
-2702.2144 5292.8086 1112.7435 0.928 -0.349 0.130 30 24 16
-2556.3579 5971.6880 878.9807 0.193 -0.974 0.118 41 33 27
-2493.3337 5901.4087 843.8184 0.254 -0.953 0.167 29 17 12
-2442.3716 5914.8706 802.6573 -0.057 -0.956 0.287 33 30 18
-2480.7097 6157.4941 787.8532 0.110 -0.812 -0.573 18 17 5
-1962.0344 6307.1714 366.6351 0.196 -0.802 0.565 33 32 27
-3172.4766 2159.0605 2028.0469 0.584 -0.640 -0.499 185 186 180
-3170.2754 2164.5039 2025.3798 0.729 -0.644 -0.232 190 191 183
-4335.8569 4816.0488 2423.5415 0.429 -0.879 -0.209 230 231 226
-4395.5034 4935.2759 2446.9329 0.804 -0.585 0.110 166 169 161
-4521.7803 5170.4844 2499.6079 0.914 -0.383 -0.137 149 134 127
-4512.9951 5177.6260 2491.6362 0.895 -0.425 -0.138 127 106 99
-3253.1765 4288.6504 1699.0063 0.960 0.011 -0.281 119 87 64
-3257.1965 4309.7749 1698.1842 0.965 0.003 -0.263 125 93 70
-2647.0828 3512.2805 1381.5725 0.508 -0.427 0.748 120 88 65
-2624.1924 3505.7104 1365.4148 0.470 -0.446 0.762 120 88 63
-2597.9768 3520.1309 1342.8883 0.574 -0.437 0.692 116 84 59
-4142.3472 5892.2705 2079.5513 0.374 -0.475 -0.797 92 64 43
-3995.4863 5844.9985 1976.8243 0.991 -0.103 -0.085 109 78 57
-3835.2356 5902.6782 1844.7090 0.746 -0.546 0.382 89 58 37
-3778.1299 5990.8413 1785.2400 -0.251 -0.832 -0.494 127 97 73
-3658.5754 6237.9434 1649.2800 0.524 -0.843 -0.121 108 72 46
-3595.9468 6151.5840 1617.6033 0.024 -0.807 -0.591 108 72 46
-3612.4998 6205.4219 1620.2925 0.695 -0.714 -0.085 108 73 46
-3489.2705 6130.9160 1540.4800 0.292 -0.830 -0.475 105 74 46
-3487.0437 6151.4619 1535.0259 0.328 -0.888 -0.322 105 73 48
-3488.5347 6203.8394 1526.5586 0.377 -0.611 0.696 95 66 45
-3353.5974 6101.7803 1442.9150 -0.763 -0.627 0.157 74 47 26
-3211.9441 5955.3965 1362.3000 -0.357 -0.858 -0.370 32 23 16
-2469.5315 6047.2314 782.3733 0.670 -0.717 0.194 22 17 5
-2375.8997 5837.3354 749.8198 0.738 -0.666 0.103 21 16 4
-2014.8978 6417.0073 369.7853 0.429 -0.558 0.711 28 26 21
-793.2988 2999.6052 69.4802 -0.565 -0.673 -0.477 65 61 56
-3176.7720 2158.3760 2021.9421 0.213 -0.565 -0.797 185 186 180
-3174.7808 2163.9719 2019.3970 0.276 -0.435 -0.857 190 191 183
-3278.1892 2369.6101 2059.5588 0.863 -0.481 -0.153 200 201 196
-4341.5186 4812.1416 2411.7197 0.448 -0.871 -0.200 230 231 226
-4407.5039 4905.1855 2444.4250 0.805 -0.585 0.102 228 229 224
-4393.4590 4922.1035 2430.6550 0.805 -0.585 0.102 164 168 160
-4492.0898 5123.7832 2467.9336 0.527 -0.153 -0.836 150 133 127
-4517.0566 5171.0508 2478.0718 0.893 -0.426 -0.147 128 107 100
-2608.7534 3449.5930 1352.4869 0.637 -0.742 0.206 120 88 65
-2586.4316 3456.1414 1334.3730 0.343 -0.895 0.285 120 88 63
-4066.4927 5808.1094 2018.8315 0.825 -0.432 0.364 81 53 32
-4048.8794 5803.2139 2006.4043 0.825 -0.436 0.359 76 48 27
-3994.5818 5785.8530 1968.5149 0.927 -0.372 0.039 102 71 50
-3782.9478 5959.8081 1776.0337 0.046 -0.813 -0.580 133 103 79
-3781.5625 5980.3013 1771.1852 -0.194 -0.789 -0.583 134 104 80
-3766.4729 5978.3379 1760.1250 -0.453 -0.677 -0.580 133 103 79
-3681.6104 5861.0205 1717.6283 -0.147 -0.967 0.207 137 107 83
-3601.1631 5976.9585 1635.2253 0.309 -0.951 -0.033 128 92 66
-3562.6292 6147.7329 1574.3875 -0.480 -0.734 -0.480 91 60 32
-3572.9490 6215.3721 1569.6593 -0.459 -0.887 -0.040 92 61 33
-3483.8887 6079.0615 1527.5060 -0.671 -0.715 -0.194 98 67 39
-3521.1069 6270.7231 1520.1469 0.082 -0.776 0.625 108 80 59
-3517.2461 6288.8745 1513.8584 0.075 -0.755 0.651 113 85 64
-3371.7036 6117.7075 1435.4056 -0.769 -0.625 0.134 74 47 26
-3086.2917 5815.3833 1275.3768 -0.161 -0.985 -0.065 23 14 7
-3046.8660 5762.1504 1255.3979 -0.175 -0.985 -0.000 27 18 11
-3243.0200 6173.1758 1327.6952 0.811 0.154 -0.565 35 26 19
-3122.9033 6036.4126 1262.1133 -0.767 -0.505 -0.395 28 19 12
-2573.1687 5914.3677 868.5405 0.289 -0.859 -0.422 83 72 67
-2562.0203 5942.6333 854.8591 0.058 -0.953 -0.299 82 72 63
-2500.4150 5931.5444 810.2740 0.319 -0.837 0.444 59 49 40
-2472.7354 5919.0459 791.6353 0.024 -1.000 0.011 43 33 23
-2467.3545 5933.7554 784.8341 0.012 -0.999 0.043 39 29 19
-2451.9229 5923.3330 775.0833 -0.028 -0.999 0.028 32 21 11
-2407.5068 5867.7261 751.7665 -0.086 -0.996 0.021 25 14 4
-2321.1184 6049.1670 652.7205 0.346 -0.592 0.728 64 12 11
-2294.8818 6008.1206 640.4673 -0.077 -0.868 0.490 63 10 10
-2264.2058 5984.4810 621.6258 -0.021 -0.814 0.581 56 3 4
-1936.9932 6201.6577 333.6268 0.208 -0.828 0.520 39 38 33
-3184.6514 2160.3682 2018.0472 0.276 -0.435 -0.857 183 184 178
-3182.9319 2166.1704 2015.6594 0.276 -0.435 -0.857 188 189 181
-4146.0503 3058.6870 2576.0957 -0.182 -0.946 -0.267 204 205 200
-4349.2368 4810.6274 2401.0266 0.448 -0.871 -0.200 230 231 226
-4401.5776 4920.8530 2419.9060 0.819 -0.565 0.096 167 171 163
-4504.8716 5127.6909 2459.1697 0.527 -0.153 -0.836 155 138 131
-4498.3184 5137.3486 2452.4055 0.535 -0.162 -0.829 127 106 99
-4202.3530 5950.8906 2076.1372 0.864 -0.430 0.262 94 66 45
-3998.7556 5756.2231 1958.7888 -0.373 -0.916 -0.152 74 43 22
-3972.4941 5738.0107 1942.3586 0.930 -0.367 -0.000 103 72 51
-3948.0635 5722.3804 1926.8278 0.980 -0.180 -0.089 116 85 64
-3775.8066 5932.1592 1757.2999 0.205 -0.809 0.550 139 109 85
-3727.8372 6082.7744 1692.7965 0.016 -0.756 -0.655 134 98 72
-3718.4309 6090.3701 1684.2632 0.016 -0.756 -0.655 132 96 70
-3709.4873 6122.4688 1671.4833 0.130 -0.785 -0.606 131 95 69
-3681.8904 6122.7109 1650.5824 0.587 -0.308 -0.749 117 81 55
-3569.8398 6118.7773 1566.6410 -0.415 -0.745 -0.522 98 66 38
-3523.0415 6083.6328 1537.8667 0.033 -0.724 -0.689 97 66 38
-3450.0156 6072.7578 1484.7192 -0.455 -0.874 -0.171 94 63 39
-3397.9719 6148.8477 1431.1158 -0.770 -0.624 0.133 74 47 26
-2559.8469 5943.7788 836.1917 0.011 -0.917 -0.398 109 99 90
-2458.4431 5889.8350 769.6771 0.294 -0.955 0.039 60 43 35
-2384.2241 5815.0112 727.6231 0.679 -0.727 0.105 30 12 4
-2251.2473 5955.2925 600.8162 0.354 -0.760 0.545 98 8 20
-3191.4460 2161.5444 2013.4711 0.279 -0.429 -0.859 183 184 178
-3191.0999 2168.3733 2011.9143 0.276 -0.435 -0.857 186 187 179
