ply
format ascii 1.0
element vertex 788
property float x
property float y
property float z
property float nx
property float ny
property float nz
property uchar diffuse_red
property uchar diffuse_green
property uchar diffuse_blue
end_header
-2389.8374 3377.9321 460.4901 -0.065 -0.548 -0.834 217 118 75
-2276.5347 3679.4365 284.4295 0.976 0.052 0.210 219 190 184
-4149.7139 2667.8765 1911.5365 0.978 0.082 0.193 184 182 169
-4267.0278 3119.6523 1848.0404 0.010 -0.822 -0.569 45 41 30
-3376.6982 2634.0342 1380.9778 -0.330 -0.922 0.201 111 79 57
-3376.5193 2657.8506 1373.1732 0.274 -0.689 -0.671 125 75 56
-3369.6516 2692.3843 1357.2275 0.520 -0.848 0.103 124 63 34
-3363.8926 2695.5332 1352.1781 0.532 -0.834 0.144 128 67 37
-3370.7412 2726.1831 1347.0927 0.481 -0.733 0.481 144 80 52
-3111.7273 2615.7651 1201.2655 0.472 -0.646 0.600 132 77 42
-3206.6267 2719.5188 1234.2849 0.981 -0.110 -0.162 103 55 29
-3253.8135 2771.5803 1250.5508 0.899 -0.167 -0.404 80 37 12
-3102.2881 2672.0464 1176.5063 -0.128 -0.665 0.736 36 31 20
-3038.1128 2636.0405 1143.1636 0.062 -0.993 -0.098 30 29 19
-2861.2363 2530.4753 1053.3060 0.285 -0.771 -0.570 90 72 66
-2856.7634 2534.0188 1049.0303 0.303 -0.727 -0.617 106 81 69
-2835.7371 2609.7742 1009.8755 -0.541 -0.807 -0.235 198 178 164
-3012.4429 2841.1057 1059.0613 0.983 0.138 0.123 165 117 84
-2934.7488 2849.9717 1001.7805 0.584 -0.418 -0.696 159 92 53
-2933.3721 2857.5706 998.3661 0.584 -0.418 -0.696 150 89 47
-2818.3601 2879.2009 910.8297 0.565 -0.825 -0.027 176 92 29
-2433.5430 2787.0261 670.9993 0.977 0.021 0.212 162 71 15
-2330.4714 3160.9805 478.2233 -0.055 -0.994 -0.093 75 40 28
-2462.8794 3418.8127 487.8350 0.731 -0.307 -0.609 201 114 60
-1896.7620 5504.8296 -581.3260 0.064 -0.996 -0.059 251 206 208
-1047.0521 5505.8071 -1176.8337 0.083 -0.282 -0.956 229 158 149
-4146.9551 2660.2698 1900.7739 0.978 0.082 0.193 178 176 164
-4238.2007 2788.0959 1923.0743 -0.289 -0.951 -0.107 184 181 166
-4211.1528 2777.0461 1907.7498 -0.274 -0.959 -0.070 184 181 166
-4206.7676 2782.0728 1903.0518 -0.375 -0.908 0.188 184 181 166
-4062.2212 2875.1489 1771.7688 0.711 -0.421 -0.563 183 182 172
-4286.3354 3109.5879 1852.3591 -0.017 -0.833 -0.553 15 24 20
-3383.3286 2657.7480 1367.6683 0.282 -0.681 -0.676 124 65 32
-3380.6504 2663.4919 1363.9308 0.287 -0.681 -0.673 133 74 40
-3356.1450 2707.2720 1332.5839 0.737 -0.661 0.138 124 61 25
-3327.9561 2690.7007 1318.2540 0.092 -0.678 0.729 124 61 24
-3298.6392 2673.0195 1303.4960 0.109 -0.655 0.747 125 61 24
-3266.6597 2677.1946 1279.7805 -0.276 -0.765 0.582 139 73 34
-3072.6833 2662.7043 1148.8574 0.221 -0.925 -0.308 29 32 6
-2873.7856 2536.7756 1050.6713 0.294 -0.760 -0.579 92 72 59
-2871.5945 2542.5588 1047.2616 0.294 -0.760 -0.579 107 85 71
-2869.3884 2548.3442 1043.8409 0.281 -0.768 -0.576 113 90 76
-2822.0513 2533.6785 1015.5042 -0.036 -0.517 -0.855 36 13 1
-3005.9492 2827.7888 1048.6034 0.982 0.143 0.125 172 131 99
-2975.2585 2813.9890 1031.6246 0.210 -0.579 0.788 172 117 76
-2953.9624 2800.8423 1021.0024 0.212 -0.591 0.778 175 117 72
-2941.8259 2859.7549 993.3910 0.596 -0.393 -0.700 109 59 30
-2835.6477 2872.9514 914.8675 0.818 -0.556 -0.147 186 101 57
-2421.7424 2765.1155 660.4751 0.983 -0.006 0.186 162 71 18
-4158.9434 2678.5364 1891.8900 0.978 0.079 0.192 179 175 164
-4237.1260 2765.1331 1918.1517 -0.107 -0.985 -0.137 182 178 166
-4225.4287 2764.9895 1910.0348 -0.107 -0.985 -0.137 180 176 164
-4080.6709 2882.9756 1770.4409 0.698 -0.430 -0.573 174 173 164
-3345.7622 2627.7173 1340.9602 0.574 -0.701 -0.423 134 77 40
-3337.8997 2628.9265 1335.0775 0.582 -0.694 -0.423 136 78 40
-3298.6182 2650.8579 1300.4937 0.839 -0.523 0.152 132 64 32
-3192.7974 2678.0073 1217.7649 0.969 -0.024 -0.246 142 73 34
-2994.7212 3002.9023 973.3304 0.918 -0.396 0.015 185 99 55
-2784.1528 2901.3821 859.5513 0.910 -0.252 0.329 191 98 54
-2419.8496 2765.0178 649.8651 0.985 0.104 0.135 159 67 16
-2347.2302 3168.6235 467.2637 -0.089 -0.983 -0.158 142 82 54
-995.0010 5555.9697 -1256.7961 0.903 -0.321 0.285 219 118 105
-4224.0439 2782.4558 1891.7148 0.652 -0.461 0.602 161 158 143
-4209.7017 2780.4080 1882.3971 0.443 -0.893 -0.078 161 158 143
-4224.3628 3048.1382 1804.5132 0.843 -0.128 0.523 64 82 87
-4231.8169 3062.9375 1804.8364 0.822 -0.153 0.549 56 73 75
-4260.5156 3159.0078 1793.2172 0.498 -0.056 0.865 4 17 20
-3364.1011 2613.7461 1348.1449 -0.514 -0.857 -0.031 99 46 8
-3445.2900 2714.9858 1371.3923 0.211 -0.323 0.923 119 66 28
-3365.0244 2670.3867 1330.1503 0.188 -0.443 0.877 131 63 35
-3355.6519 2670.3616 1323.6290 0.322 -0.222 0.920 134 61 36
-3176.0754 2664.8303 1200.3461 0.962 -0.194 -0.195 140 72 35
-3039.3560 2786.8979 1064.9327 0.274 -0.714 -0.644 167 150 140
-2876.0005 2631.8730 1002.1417 0.431 -0.502 0.750 167 151 138
-2916.0583 2748.6621 991.6183 0.224 -0.637 0.738 175 117 74
-2948.1724 2861.9822 976.7023 0.639 -0.400 -0.657 73 27 5
-2946.1194 2878.0161 969.9960 0.635 -0.404 -0.659 131 72 39
-2249.5332 2890.0413 480.7578 0.908 0.235 0.347 77 27 2
-2278.9644 2942.1084 484.1285 0.730 -0.415 -0.543 75 26 8
-2280.7053 2954.9836 481.1046 0.955 -0.205 -0.215 79 32 22
-2283.0283 3524.5198 295.3148 0.948 -0.128 -0.290 35 33 34
-4362.8247 3030.5261 1894.4044 -0.368 -0.898 0.242 174 171 156
-4183.0283 3099.8560 1746.4104 0.457 -0.072 0.886 36 55 64
-4137.1270 3081.5527 1720.5541 0.390 -0.102 0.915 17 35 43
-3508.8994 2713.8352 1405.5021 -0.253 -0.772 0.583 81 40 12
-3331.7864 2643.7781 1305.5468 0.255 -0.244 0.936 130 60 39
-3176.8311 2659.4790 1192.5918 0.585 -0.694 0.419 141 72 33
-3161.2964 2653.4106 1183.7993 0.603 -0.642 0.473 138 68 32
-3147.1284 2648.5437 1175.5593 0.560 -0.658 0.503 135 62 26
-2872.0747 2621.8076 993.1471 0.431 -0.502 0.750 148 132 119
-2990.4036 2946.1536 967.9893 0.916 0.003 -0.400 166 111 54
-2414.0405 2743.7480 634.2422 0.985 0.108 0.131 145 53 2
-2225.6289 2779.5132 491.3756 -0.198 -0.963 0.184 196 119 65
-2288.9805 2979.8137 469.0784 0.504 -0.648 -0.572 125 71 63
-2274.0027 2989.9319 455.3113 0.522 -0.669 -0.528 94 36 13
-2270.7344 2995.8147 451.0898 0.522 -0.669 -0.528 129 65 38
-2476.0776 3463.0835 439.0966 0.117 -0.521 -0.846 93 23 3
-4125.2139 3011.3823 1723.4969 0.551 -0.032 0.834 128 156 168
-4122.4058 3027.0334 1716.3287 0.559 -0.026 0.829 127 153 166
-3161.3743 2647.4646 1175.8302 0.603 -0.642 0.473 149 80 41
-3147.0764 2642.4844 1167.5665 0.560 -0.658 0.503 151 79 41
-2900.1008 2736.6016 964.7519 0.398 -0.743 0.538 172 110 67
-2996.8992 2936.7688 965.1934 0.212 -0.463 -0.861 158 114 57
-3002.3181 2951.9016 963.9086 0.210 -0.499 -0.841 155 112 59
-2994.6938 2953.1152 958.2117 0.916 0.003 -0.400 133 92 42
-2813.7603 2794.4993 885.5146 0.007 -0.986 0.169 63 45 13
-2819.8857 2810.1255 884.5558 0.687 -0.723 -0.072 58 47 22
-2411.9988 2734.2546 626.7336 0.985 0.108 0.131 157 65 14
-2242.2754 2718.6448 514.1309 0.502 -0.660 -0.558 196 117 61
-2239.3572 2724.1199 510.2795 0.502 -0.660 -0.558 197 118 62
-2238.3250 2732.1604 506.8819 0.642 -0.375 -0.669 198 119 63
-2235.7397 2738.1301 503.0966 0.694 -0.395 -0.601 197 117 63
-2258.9827 2798.5974 499.0666 0.642 -0.558 -0.526 195 117 70
-2189.5229 2741.5051 469.8914 0.243 -0.964 -0.110 178 99 54
-2283.7869 2985.4314 453.9818 0.505 -0.829 -0.240 125 59 31
-2277.4041 2997.4082 445.5576 0.512 -0.675 -0.531 145 69 33
-2414.7314 3288.6782 443.7518 0.346 -0.297 -0.890 212 126 74
-2475.0439 3477.0146 422.8132 -0.043 -0.604 -0.796 65 25 10
-2435.2576 3440.9282 407.2300 0.615 -0.721 0.319 28 14 3
-1552.5149 4490.0200 -555.3289 0.895 0.161 -0.416 246 197 196
-1643.6847 4810.0649 -598.7689 0.792 -0.003 -0.610 240 190 189
-4103.8154 2875.6270 1742.2242 0.907 -0.224 -0.355 91 90 82
-4179.9438 2967.8511 1764.0139 -0.488 -0.776 -0.399 154 176 186
-3541.1870 2803.6870 1376.5548 -0.220 -0.916 0.336 61 28 7
-3179.4492 2715.5791 1155.4995 0.834 -0.483 -0.267 114 56 20
-3115.7686 2672.7175 1125.7654 0.073 -0.523 0.849 107 59 23
-2350.8293 1975.3008 829.8744 0.153 -0.730 -0.667 86 52 43
-2889.2056 2569.8923 1003.3057 0.632 -0.375 -0.678 32 13 0
-2923.4880 2611.4453 1013.1106 0.575 -0.378 -0.725 51 32 18
-2966.4097 2678.3420 1020.3941 0.082 -0.838 -0.540 92 73 66
-2858.0691 2644.9617 956.5349 0.940 -0.247 0.237 195 155 122
-2939.8984 2745.0984 979.6180 -0.057 -0.835 0.548 168 115 75
-2825.7847 2800.8462 881.8418 0.654 -0.745 0.128 55 40 25
-2800.4788 2836.3643 852.3865 0.155 -0.984 -0.089 45 28 10
-2263.5327 2702.5854 525.2681 0.574 -0.549 -0.607 193 114 57
-2256.1814 2702.1333 520.3265 0.428 -0.698 -0.574 194 115 58
-2260.7856 2774.4036 499.2580 0.525 -0.081 -0.847 178 100 57
-2263.1335 2787.2273 496.5804 0.525 -0.081 -0.847 177 98 57
-2244.7222 2781.4172 485.7742 -0.154 -0.966 0.206 176 97 58
-2232.6116 2774.4622 479.7180 -0.163 -0.966 0.201 163 84 45
-2283.1138 2997.5959 439.8106 0.512 -0.675 -0.531 176 90 45
-2415.3972 3388.6091 400.2144 0.706 -0.702 0.088 38 16 6
-3479.1587 2744.3574 1342.8892 0.405 -0.904 0.141 41 29 10
-3468.9585 2743.8857 1335.9941 0.401 -0.913 0.081 33 26 8
-3491.5469 2779.9968 1339.4153 -0.292 -0.821 0.490 31 23 5
-3421.8811 2736.3284 1305.9897 -0.293 -0.819 0.493 54 47 27
-3386.7983 2714.0583 1289.2515 -0.293 -0.820 0.492 59 48 26
-3338.8279 2696.6802 1261.9473 -0.504 -0.816 -0.281 116 55 18
-3335.7642 2702.1721 1257.9729 0.034 -0.844 -0.536 118 55 16
-2538.0010 2062.0342 922.5348 0.321 -0.189 0.928 148 79 43
-3091.3567 2603.5186 1122.2769 0.060 -0.718 0.693 144 58 28
-3099.9272 2635.5718 1117.3744 0.636 -0.755 -0.163 120 54 15
-2896.7974 2579.3513 995.8884 0.623 -0.434 -0.650 50 31 17
-2994.6409 2691.5400 1025.6504 0.431 -0.585 -0.687 91 73 61
-2974.9199 2680.5137 1015.7372 0.082 -0.838 -0.540 91 72 65
-2957.7588 2748.2102 980.9966 0.243 -0.628 0.740 168 119 89
-2912.8835 2789.1826 936.1186 0.990 0.106 -0.094 152 91 49
-3042.3057 2971.0664 964.1724 0.190 -0.518 -0.834 83 46 19
-2821.0469 2789.0381 872.6548 0.582 -0.813 -0.008 47 31 28
-2812.2588 2788.4333 866.7814 0.658 -0.716 -0.232 50 31 28
-2808.4929 2793.2676 862.5436 0.658 -0.716 -0.232 49 30 28
-2227.4893 2760.1328 471.9271 -0.144 -0.963 0.228 143 62 29
-2401.7349 3334.2542 398.4566 0.362 -0.490 0.793 67 23 10
-2410.5083 3359.6621 395.9398 0.918 -0.271 -0.290 58 27 16
-2439.2041 3428.0374 392.6834 0.619 -0.720 0.312 22 15 10
-1255.1630 4537.6382 -801.0735 -0.111 -0.845 -0.523 244 184 186
-1101.1484 5908.6655 -1370.8098 -0.067 -0.432 -0.899 202 111 102
-693.8804 3749.5474 -922.9780 -0.369 -0.742 -0.560 226 103 96
-405.3069 2631.0244 -744.6400 -0.355 -0.592 -0.724 254 93 126
-4490.0171 3044.7034 1927.9598 -0.445 -0.893 0.065 178 172 155
-3397.5837 2636.5950 1312.6216 0.920 -0.345 0.183 57 26 8
-3364.5425 2624.4648 1293.9376 -0.390 -0.883 -0.259 96 63 51
-3373.9954 2640.4441 1295.0291 -0.368 -0.928 -0.056 110 92 79
-3471.9287 2732.0815 1331.4711 0.399 -0.914 0.078 126 128 115
-3470.8354 2739.3906 1328.2308 0.398 -0.913 0.093 114 125 112
-3482.0293 2765.6072 1327.0427 -0.267 -0.812 0.518 102 111 99
-3161.5154 2629.6450 1152.0237 -0.231 -0.960 -0.156 145 80 47
-3133.2402 2628.0007 1133.0641 -0.215 -0.970 -0.112 151 63 33
-3130.1580 2649.4336 1123.6478 -0.057 -0.960 0.275 128 51 15
-3006.4404 2696.8728 1022.1114 0.426 -0.589 -0.686 115 96 85
-2925.8994 2626.1401 990.5666 0.279 -0.777 -0.564 123 104 97
-2934.4407 2735.3025 959.3403 0.156 -0.713 0.683 140 85 48
-2860.2065 2806.6721 883.8249 0.650 -0.751 0.115 36 31 24
-2840.8315 2794.7944 874.4893 0.582 -0.813 0.015 35 29 21
-2834.6628 2797.0671 869.4581 0.581 -0.813 0.033 43 27 24
-2883.7617 2859.1172 882.2505 -0.067 -0.948 -0.312 47 25 21
-2802.9075 2816.3691 840.9728 0.862 -0.486 0.143 61 25 18
-2810.7422 2834.0510 840.3683 0.170 -0.982 -0.081 75 34 9
-2772.6409 2810.0796 822.2183 0.140 -0.988 0.066 132 70 21
-2409.8860 2729.2063 599.3058 0.884 -0.057 0.463 143 61 12
-2259.5281 2711.0989 501.6693 0.418 -0.691 -0.589 153 77 28
-2235.7151 2764.1211 467.1998 -0.079 -0.997 -0.015 136 59 29
-2195.7148 2728.3462 451.7530 -0.197 -0.969 0.150 128 51 19
-2372.2178 3098.7019 447.6497 -0.602 -0.515 -0.611 187 90 41
-2359.1287 3090.8271 441.2921 -0.626 -0.535 -0.567 195 96 42
-2324.9194 3052.4043 430.7433 0.707 -0.190 -0.681 200 97 38
-2448.5007 3359.5422 411.6058 0.770 -0.302 0.562 84 20 5
-1835.8141 3995.4753 -227.6001 -0.051 -0.993 -0.108 224 185 180
-4326.2212 2885.4001 1857.0800 0.005 -0.862 -0.507 178 165 149
-4432.8057 2970.5266 1901.3854 0.053 -0.834 -0.550 178 166 149
-4415.5000 2966.7405 1890.7568 0.068 -0.789 -0.611 181 168 152
-4409.9531 2971.4175 1885.3339 0.068 -0.789 -0.611 182 169 153
-4136.0430 2889.7422 1724.5521 0.835 -0.371 -0.406 17 21 22
-4181.8579 3002.7478 1717.4425 0.017 -0.484 -0.875 139 181 207
-4144.7886 3000.5886 1692.6390 0.242 -0.969 -0.050 138 181 206
-3396.2642 2629.6323 1303.8370 0.928 -0.290 0.234 63 31 13
-3371.0623 2616.2625 1291.0479 0.872 -0.325 -0.365 57 28 14
-3371.2454 2624.3127 1288.4186 -0.370 -0.880 -0.297 72 45 35
-3378.7861 2638.6453 1288.7091 -0.380 -0.924 -0.051 143 127 125
-3485.9507 2737.9651 1328.5565 0.409 -0.898 0.165 151 163 181
-3478.5583 2739.9036 1322.7993 0.391 -0.917 0.080 143 165 188
-3500.0908 2766.6328 1328.4877 -0.101 -0.684 0.722 142 168 190
-3074.8662 2584.5073 1097.8236 0.264 -0.956 0.127 124 62 24
-3060.4482 2579.1614 1089.7188 0.213 -0.968 0.128 120 58 20
-2922.9307 2600.9031 987.5213 0.871 -0.187 -0.454 62 34 21
-2940.3572 2634.2310 988.1219 0.827 -0.292 -0.480 122 104 97
-2932.6270 2634.8477 982.5844 0.205 -0.926 -0.316 134 116 112
-2885.7227 2854.4187 875.1131 0.529 -0.844 0.087 42 27 7
-2827.0608 2808.9907 850.2407 0.435 -0.707 -0.558 56 19 1
-2844.0247 2928.9956 820.8558 0.909 -0.118 -0.400 191 95 34
-2275.2268 2696.9980 508.3329 0.422 -0.624 -0.658 124 58 21
-2271.8914 2701.8530 504.3729 0.406 -0.703 -0.584 121 55 18
-2256.8284 2719.1123 488.0864 0.142 -0.513 -0.847 124 58 21
-2277.7520 2765.9841 486.4612 0.504 -0.051 -0.862 124 58 21
-2283.2866 2782.9900 484.4541 0.528 -0.074 -0.846 124 57 25
-2285.7781 2795.9792 481.7252 0.525 -0.081 -0.847 125 58 25
-2287.1104 2807.4641 478.7123 0.285 -0.318 -0.904 125 58 26
-2459.8330 3284.4714 434.4620 0.185 -0.380 -0.906 214 140 96
-1586.9949 4497.8672 -582.2700 0.998 0.008 -0.063 241 195 188
-1648.5157 4769.1641 -632.7353 0.099 -0.625 -0.775 175 131 123
-1539.3679 4569.9639 -639.7636 0.330 -0.942 -0.064 55 24 17
-1510.5046 4711.1724 -707.9828 0.833 -0.190 0.520 237 190 186
-1083.9205 5772.1597 -1365.0607 -0.071 -0.378 -0.923 213 119 110
-416.4192 2679.0793 -766.3394 0.424 -0.673 0.606 252 73 115
-4414.4707 2933.8276 1889.1144 -0.066 -0.977 -0.205 177 164 148
-4106.8594 2861.6074 1702.4230 0.995 -0.097 0.013 16 21 22
-3610.7175 2721.4377 1409.4708 0.531 -0.331 -0.780 124 141 151
-3408.0361 2657.5916 1292.0637 0.793 -0.494 0.358 134 120 119
-3476.2375 2723.6248 1316.2250 -0.023 -0.987 0.160 154 168 191
-3469.5527 2726.1345 1310.7627 -0.041 -0.983 0.178 147 170 200
-2503.6897 2106.6355 859.8593 -0.124 -0.816 -0.565 96 54 29
-2037.6133 1701.1818 678.9673 -0.224 -0.632 -0.742 89 57 38
-2852.8264 2495.4836 966.0428 0.663 -0.729 -0.169 88 57 37
-2917.5254 2589.6350 978.1093 0.797 -0.328 -0.507 44 16 3
-2935.9885 2615.7102 981.8257 0.761 -0.413 -0.501 106 81 71
-2935.7522 2623.6299 978.9351 0.751 -0.419 -0.510 123 102 96
-2904.8459 2709.4880 928.1031 0.160 -0.731 0.663 69 34 24
-2776.5735 2730.0920 832.7825 0.197 -0.666 -0.719 47 26 0
-2823.8271 2789.8584 844.6951 0.619 -0.773 -0.138 59 28 1
-2766.7568 2763.3579 814.5719 0.771 -0.485 -0.413 152 76 36
-2770.9941 2785.7998 809.7556 0.063 -0.989 -0.135 173 87 30
-2310.3691 2653.6304 538.4753 0.387 -0.502 0.774 137 72 34
-2298.0417 2646.9065 532.3130 0.630 -0.597 0.496 131 67 31
-2277.6482 2693.2046 502.3385 0.529 -0.404 0.746 120 57 22
-2271.8428 2694.8062 497.7940 0.527 -0.407 0.746 119 56 21
-2179.6523 2797.7251 398.9351 0.050 -0.958 -0.283 202 95 48
-2511.6033 3423.1079 411.8199 -0.378 -0.891 0.250 85 20 0
-2390.6401 3290.2588 374.3861 0.121 -0.992 -0.042 64 23 15
-2382.7190 3290.1372 368.9801 0.092 -0.994 -0.053 60 25 15
-2372.4517 3286.4343 363.1938 0.060 -0.998 -0.013 41 16 3
-1547.4703 4576.5303 -648.6078 0.254 -0.967 -0.034 58 27 19
-589.6866 3555.6816 -955.7024 -0.078 -0.341 -0.937 252 46 89
-423.2995 2679.3037 -768.2560 -0.247 -0.552 -0.796 253 84 121
-412.8888 2688.8003 -778.6876 -0.247 -0.553 -0.795 255 69 117
-4438.8462 2944.9395 1889.8010 -0.184 -0.932 -0.313 177 164 147
-4427.3984 2945.3755 1881.7908 -0.184 -0.932 -0.313 179 166 149
-4626.9351 3096.9429 1966.2317 -0.484 -0.874 -0.049 175 162 145
-4577.6182 3070.5583 1941.5217 -0.475 -0.880 0.019 161 148 131
-4053.8313 2799.1873 1676.0110 0.445 -0.379 -0.812 124 117 111
-4100.9351 2851.0066 1690.3843 0.891 -0.384 -0.244 17 23 23
-4110.7402 2866.7759 1691.6489 0.985 -0.173 -0.020 69 78 87
-3395.8782 2641.4011 1279.0172 0.969 -0.226 -0.100 127 113 114
-3468.7583 2727.6055 1299.1660 0.870 -0.402 0.285 150 179 208
-2950.3206 2575.2314 996.0751 0.573 -0.324 -0.753 94 64 46
-2912.0723 2562.3936 974.2676 0.774 -0.394 -0.496 80 49 29
-2908.7817 2567.1794 970.3495 0.683 -0.394 -0.615 62 33 15
-2917.1897 2583.3271 970.5237 0.574 -0.491 -0.655 41 12 2
-2929.0740 2602.9363 971.8846 0.721 -0.356 -0.594 72 44 33
-2928.1184 2610.1108 968.7414 0.721 -0.356 -0.594 96 71 63
-2806.1467 2711.8740 849.7285 0.302 -0.647 -0.700 47 24 6
-2794.3357 2733.9392 833.9706 0.135 -0.714 -0.687 65 34 5
-2785.1763 2732.8254 828.0687 0.202 -0.669 -0.715 77 42 10
-2972.4851 3000.2493 863.9515 -0.251 -0.869 -0.427 181 92 34
-2385.2905 2705.1846 563.1243 1.000 -0.016 0.009 115 50 12
-2354.7109 2684.9175 549.1571 0.595 -0.748 0.295 120 52 13
-2342.4983 2678.5464 542.9814 0.509 -0.688 0.517 118 53 15
-2301.4226 2644.4524 526.6018 0.670 -0.583 0.459 116 54 17
-2298.9663 2938.6682 422.9205 0.781 0.106 0.615 201 100 48
-2554.7317 3416.6211 432.8159 -0.602 -0.570 -0.560 90 30 6
-2396.1472 3289.5503 367.9971 0.078 -0.996 -0.031 64 23 15
-2389.9070 3291.9751 362.8724 0.059 -0.998 0.019 60 25 15
-2376.7866 3283.9900 356.6332 -0.142 -0.987 -0.072 41 16 3
-2290.5449 3469.6606 233.0612 0.981 0.068 0.181 37 35 36
-1539.5280 4555.8896 -659.0817 0.338 -0.920 0.201 56 24 17
-1534.0665 4563.4854 -665.4642 0.399 -0.914 -0.076 52 26 17
-1530.3169 4576.8252 -672.6629 0.522 -0.845 -0.115 52 26 17
-1525.1268 4585.4453 -679.2142 0.513 -0.857 -0.055 75 36 31
-1549.0625 4885.7090 -766.8737 0.809 0.056 -0.585 250 184 187
-752.1947 3977.3887 -999.0484 0.243 -0.263 -0.934 221 113 100
-428.0228 2694.4373 -776.8390 -0.244 -0.550 -0.798 254 83 123
-422.0184 2709.8352 -786.2990 -0.250 -0.563 -0.788 255 69 119
-419.4966 2722.2715 -792.3416 -0.202 -0.533 -0.822 255 69 117
-4377.5171 2869.8030 1861.7405 0.918 -0.264 -0.296 174 165 150
-4646.2461 3104.1602 1964.1268 -0.448 -0.893 -0.031 162 149 132
-4602.2144 3081.6538 1941.8058 -0.474 -0.880 0.008 135 122 105
-4104.3535 2847.4253 1682.3632 0.855 -0.394 -0.338 17 23 23
-4113.7876 2862.8879 1683.4335 0.940 -0.221 -0.260 81 91 99
-3392.8298 2632.9646 1269.6125 0.962 -0.253 -0.100 117 102 105
-3208.8201 2689.2554 1123.8826 0.952 -0.220 -0.213 96 50 19
-3207.8477 2696.5984 1120.6544 0.952 -0.220 -0.213 97 51 23
-3250.3511 2743.8948 1133.2797 0.551 -0.351 0.757 102 56 28
-3241.7261 2744.3542 1127.2090 0.551 -0.351 0.757 103 56 26
-2914.4138 2566.6938 964.8994 0.634 -0.404 -0.659 87 58 40
-2913.3083 2573.6062 961.7304 0.634 -0.404 -0.659 56 25 11
-2926.9697 2594.8811 963.6697 0.413 -0.433 -0.801 40 10 1
-2927.6614 2603.6328 961.0905 0.426 -0.424 -0.799 50 20 9
-2934.6506 2796.5796 898.5671 0.982 0.134 0.134 41 24 13
-2803.5950 2737.3296 829.4320 0.241 -0.677 -0.696 102 52 22
-2733.9094 2671.3643 804.6935 0.418 -0.735 -0.534 116 63 29
-2795.3372 2754.7168 817.7076 0.357 -0.754 -0.551 148 80 37
-3042.1565 3049.8616 883.8735 0.554 -0.237 -0.798 172 84 34
-3027.5112 3043.6074 876.0197 0.022 -0.746 -0.665 180 90 33
-2498.8196 2747.0559 617.1928 0.295 -0.934 -0.203 178 95 41
-2374.5305 2703.0098 547.3903 0.751 -0.536 0.385 118 53 15
-2352.3540 2684.1658 538.7681 0.442 -0.634 0.634 118 53 15
-2339.8286 2677.3865 532.5502 0.467 -0.646 0.603 117 53 17
-2328.0305 2671.4678 526.5303 0.673 -0.497 0.548 119 56 21
-2322.6033 2673.6013 522.0671 0.794 -0.374 0.479 120 57 22
-2404.4570 3293.0325 362.0582 0.113 -0.992 -0.047 64 23 15
-2397.9158 3295.0264 356.8802 0.101 -0.995 -0.020 60 25 15
-2475.1082 3447.9885 356.4126 0.206 -0.663 -0.720 22 7 0
-2305.3987 3497.3628 222.8949 0.955 0.044 -0.295 46 44 45
-1540.3390 4564.0752 -673.4998 -0.002 -0.977 -0.212 63 23 18
-1537.2598 4579.6147 -681.0309 -0.008 -0.987 -0.163 65 23 19
-1397.1927 4926.8413 -898.1471 0.992 -0.115 0.056 242 180 181
-767.4789 4045.5540 -1022.2044 0.243 -0.263 -0.934 221 111 99
-434.1274 2721.6550 -788.7679 -0.245 -0.550 -0.798 254 82 121
-430.3298 2722.3503 -791.6127 -0.247 -0.555 -0.795 254 71 116
-4436.6758 2863.2534 1892.5018 -0.453 -0.890 0.058 169 160 145
-4506.9038 2920.4797 1920.4462 0.688 -0.451 -0.569 165 156 141
-4478.0625 2908.8794 1904.7917 0.575 -0.596 -0.560 163 154 139
-4659.5610 3107.0591 1959.3589 -0.437 -0.899 -0.024 129 116 99
-4637.5957 3100.4104 1946.6692 -0.468 -0.884 0.003 148 135 118
-4108.6992 2844.5410 1674.7415 0.855 -0.394 -0.338 14 20 21
-4127.2788 2866.8210 1679.6278 0.913 -0.215 -0.348 110 121 129
-3584.0059 2681.8496 1372.9773 0.453 -0.330 -0.828 178 194 205
-3383.8127 2603.8118 1263.4454 0.956 -0.206 -0.207 63 35 22
-3390.1543 2624.8694 1260.3904 0.862 -0.282 -0.421 80 65 67
-3190.6277 2666.5964 1109.2693 0.992 -0.046 -0.117 114 74 50
-3182.7366 2667.5481 1103.5377 0.965 -0.144 -0.221 95 55 31
-3105.9185 2661.8909 1052.9818 0.201 -0.828 -0.524 100 58 33
-3094.9771 2659.8257 1046.2231 0.298 -0.791 -0.535 101 59 34
-2934.5347 2620.5413 950.2752 -0.444 -0.895 -0.043 71 34 19
-2953.0259 2705.2515 933.1839 0.192 -0.668 0.720 78 55 39
-2870.4062 2731.9507 867.3007 0.988 0.112 0.108 39 17 4
-2867.0110 2737.0508 863.1879 0.967 0.153 0.204 43 15 1
-2811.7227 2739.4897 824.5156 0.241 -0.677 -0.696 147 76 46
-2734.1831 2665.2935 797.5278 0.708 -0.564 -0.424 149 77 41
-3035.0818 3054.3167 866.7639 -0.068 -0.762 -0.644 187 94 33
-2406.7673 3299.3145 350.9993 0.088 -0.993 -0.076 61 26 16
-2304.2461 3485.4529 215.5301 0.949 -0.068 -0.309 34 32 33
-2009.1569 5167.1860 -576.7032 -0.416 -0.908 -0.061 242 198 195
-1819.4667 4853.3271 -596.2626 -0.429 -0.895 0.121 233 184 180
-1597.8257 4680.4194 -687.1586 0.478 -0.875 0.076 106 59 57
-790.4354 4161.5845 -1057.2524 0.213 -0.274 -0.938 222 109 98
-953.5194 5349.5840 -1362.7716 0.833 -0.037 -0.551 235 41 58
-4551.8735 2928.4045 1936.0743 -0.439 -0.895 0.080 169 162 146
-4113.0488 2841.6626 1667.1254 0.861 -0.399 -0.315 22 30 30
-3395.9768 2616.0691 1257.2640 0.900 -0.256 -0.353 72 47 38
-3191.7458 2661.5823 1101.7545 0.992 -0.046 -0.117 205 170 149
-3103.7590 2686.6672 1032.8231 0.651 -0.175 -0.739 99 63 39
-3103.1211 2694.3525 1029.6727 0.570 -0.103 -0.815 96 63 42
-2950.9692 2696.9060 924.8944 0.192 -0.668 0.720 66 49 32
-2956.5327 2710.9199 923.7421 0.912 -0.365 -0.187 67 50 32
-2860.6890 2647.9004 880.5708 0.175 -0.621 0.764 61 44 28
-2733.9646 2641.8472 796.1926 0.894 -0.256 -0.367 163 75 47
-3025.6877 2998.3975 869.4000 0.618 -0.348 -0.705 185 90 38
-2506.3013 2742.3994 605.2422 0.286 -0.935 -0.210 170 87 33
-2504.9187 2749.8203 601.6768 0.194 -0.962 -0.193 169 86 34
-2477.2500 2734.4866 588.2039 0.708 -0.703 -0.071 161 78 26
-2413.5139 3300.4216 344.7662 0.097 -0.993 -0.072 61 26 16
-2401.7244 3294.5720 338.7837 -0.136 -0.987 -0.086 43 18 5
-2497.3252 3462.7300 344.6478 0.158 -0.505 -0.848 24 9 1
-1849.8916 4922.5376 -613.0606 -0.532 -0.843 -0.085 230 179 175
-1810.5431 4934.2661 -644.0677 0.773 -0.113 -0.624 232 177 172
-1549.9703 4581.1953 -697.2374 0.404 -0.914 0.037 119 50 55
-1543.0310 4584.0322 -702.9772 0.404 -0.914 0.037 139 55 65
-4354.9150 2754.1509 1851.4524 0.362 -0.931 0.044 161 158 140
-4618.5596 2959.5332 1958.1073 -0.438 -0.899 0.011 165 158 142
-4628.5303 3045.0959 1934.4875 0.754 -0.561 -0.343 130 117 100
-4635.1841 3058.6777 1934.1940 0.746 -0.547 -0.379 138 125 108
-4119.8633 2840.6177 1660.5413 0.860 -0.404 -0.312 34 42 42
-3434.2058 2626.4519 1269.4287 0.537 -0.564 0.627 73 39 21
-3431.9065 2640.3457 1262.9232 0.915 -0.278 -0.292 70 44 33
-3435.1091 2650.9771 1261.3264 0.916 -0.282 -0.284 64 48 48
-3173.5237 2647.1084 1084.4447 0.962 -0.138 -0.234 186 156 138
-3118.4524 2604.9580 1061.8993 0.779 -0.186 0.599 184 154 136
-3122.1428 2706.1699 1028.4373 0.552 -0.110 -0.826 89 55 35
-2915.0630 2621.9292 917.2673 0.838 -0.435 -0.329 91 51 29
-2875.2461 2623.3625 889.6248 0.868 -0.353 -0.350 58 44 26
-2844.8794 2617.4944 871.0172 0.251 -0.555 0.793 57 44 27
-2834.8018 2656.9651 850.1196 0.978 0.210 -0.007 41 22 7
-2744.7292 2613.5864 804.1592 0.609 -0.522 -0.597 119 55 29
-3057.0464 2996.3525 880.9289 0.219 -0.505 -0.835 185 80 43
-3016.8560 2991.2783 855.3448 0.207 -0.480 -0.853 188 90 29
-2216.5845 2802.6165 377.0630 -0.243 -0.927 -0.287 209 128 68
-2829.9292 3750.5093 458.0869 -0.361 -0.768 -0.530 59 9 4
-2420.4631 3301.8149 338.5503 0.092 -0.989 -0.118 61 26 16
-2485.8457 3423.7061 339.7776 0.604 -0.455 -0.654 35 15 3
-1709.2144 4358.6460 -521.7911 0.965 -0.257 -0.046 235 186 182
-1927.3802 5024.4409 -609.7864 0.928 -0.362 0.085 233 182 178
-1881.8738 4919.7354 -603.5780 0.809 -0.556 0.191 226 175 171
-1855.8680 4894.9941 -612.5050 -0.389 -0.918 -0.072 226 175 171
-1817.0750 4907.9248 -643.5368 0.783 -0.103 -0.613 221 166 161
-1813.9434 4924.2490 -651.4736 0.771 -0.110 -0.628 225 170 165
-1596.8303 4662.4551 -706.3673 0.318 -0.735 -0.599 122 48 55
-1562.6093 4576.9404 -699.2900 0.498 -0.804 0.325 133 58 65
-1560.1060 4594.3252 -707.1754 0.576 -0.784 -0.232 144 67 75
-1557.4436 4611.3335 -715.0356 0.218 -0.888 0.404 180 90 103
-1546.1154 4599.7964 -718.6542 0.208 -0.898 0.387 238 146 157
-1535.7124 4591.1704 -722.6770 0.259 -0.955 0.142 208 121 130
-1527.0458 4588.2188 -727.5338 0.368 -0.927 0.074 151 71 78
-1519.9784 4590.5747 -733.1873 0.368 -0.927 0.074 175 102 106
-1513.6956 4595.5698 -739.2442 0.347 -0.934 0.080 226 159 161
-4250.0771 2669.2043 1798.8156 0.804 -0.256 0.537 156 153 137
-4602.9595 2951.1409 1938.0035 -0.435 -0.900 -0.005 172 163 150
-3451.9407 2635.3757 1268.0356 0.520 -0.486 0.702 78 42 24
-3409.5098 2607.9583 1248.9808 0.802 -0.553 0.226 74 41 27
-3446.5066 2646.6982 1260.2898 0.899 -0.394 -0.192 69 41 28
-2176.5266 1595.9568 772.2768 0.946 -0.036 0.321 119 130 149
-3858.1223 3053.6841 1394.7023 0.523 -0.784 0.335 139 188 210
-3119.2195 2599.7576 1054.4634 0.485 -0.501 -0.717 193 165 148
-2944.9380 2628.8093 925.5296 -0.502 -0.861 -0.083 112 65 42
-2932.4453 2624.7561 918.4819 -0.469 -0.852 -0.233 103 56 31
-2912.2751 2613.1165 908.9255 -0.485 -0.842 -0.236 77 37 15
-2900.3623 2609.5281 902.1060 -0.446 -0.856 -0.262 44 27 5
-2887.5850 2605.0459 895.0181 -0.446 -0.856 -0.262 37 30 11
-2845.7959 2595.9941 869.8313 -0.175 -0.964 -0.198 50 39 23
-2761.9749 2608.8455 808.2212 0.552 -0.623 -0.554 108 53 25
-3366.1987 3286.4941 976.8379 0.571 -0.481 -0.666 178 73 38
-2506.3625 2756.0691 581.7025 0.316 -0.928 0.197 161 77 26
-2506.4453 2802.2993 565.2241 0.040 -0.769 0.638 123 53 15
-2224.5112 2806.2451 372.0461 -0.243 -0.927 -0.287 206 133 77
-2755.3125 3571.2979 459.4611 0.316 -0.219 -0.923 205 141 91
-2428.1384 3304.2698 332.4274 0.087 -0.992 -0.097 61 26 16
-1704.5439 4328.3857 -526.0323 0.984 -0.179 -0.012 238 185 180
-1894.6323 4911.7119 -605.3687 0.924 -0.378 0.062 232 179 174
-1805.0839 4802.6357 -627.2661 0.923 -0.176 -0.342 218 158 152
-1695.8981 4626.0933 -638.3906 0.912 0.021 -0.410 225 165 160
-1560.2754 4574.8232 -712.3018 0.647 -0.745 -0.164 160 80 89
-1524.5729 4559.6265 -731.1508 0.322 -0.840 0.436 205 138 143
-1518.5668 4591.4370 -746.6132 0.432 -0.661 0.613 213 159 160
-845.2597 4332.3066 -1111.9054 0.200 -0.544 -0.815 218 111 97
-672.7626 4357.5913 -1238.2782 0.254 -0.938 0.235 252 109 136
-4641.1719 2971.1204 1944.3033 -0.434 -0.901 -0.004 122 115 109
-4622.1846 3027.7334 1911.0400 0.460 -0.805 0.375 140 134 121
-4128.6753 2834.9482 1645.3623 0.861 -0.401 -0.313 52 63 67
-3635.3369 2707.7944 1356.1827 0.589 -0.216 -0.779 152 188 212
-3424.9646 2615.0369 1246.7363 0.829 -0.514 -0.223 80 36 16
-3454.0354 2647.1228 1254.9268 0.759 -0.632 0.158 79 37 16
-2196.4775 1614.0253 772.9123 0.990 -0.099 0.102 169 185 201
-3819.3940 3005.0098 1374.1884 0.247 -0.950 0.192 160 192 218
-3749.1360 2972.0447 1338.3513 0.125 -0.973 0.196 149 192 217
-3130.5334 2604.1538 1050.7579 0.478 -0.478 -0.737 201 176 155
-2898.5693 2617.9880 888.2949 0.295 -0.724 0.623 25 20 16
-2895.6733 2623.2954 884.4189 0.355 -0.688 0.634 28 21 15
-2880.0718 2615.9724 876.4620 0.637 -0.588 0.498 31 23 14
-2849.5598 2593.7053 863.7598 0.027 -0.984 -0.177 32 24 16
-2842.5581 2594.8237 858.6036 0.027 -0.984 -0.177 32 24 17
-2837.4170 2597.7996 854.0424 -0.181 -0.924 -0.336 35 23 16
-2776.8018 2642.9819 796.6306 0.164 -0.654 0.738 182 84 47
-2528.1514 2766.3364 583.4277 0.339 -0.924 0.175 171 84 31
-2558.9529 2812.6582 587.6703 -0.005 -0.920 0.391 165 78 25
-2434.2344 3304.3582 326.0563 0.087 -0.992 -0.097 62 26 16
-1690.1833 4271.2148 -527.0209 -0.118 -0.954 0.275 241 179 169
-1636.5579 4672.4932 -707.8298 0.380 -0.621 0.685 104 25 31
-1530.8171 4586.0107 -748.4980 0.042 -0.999 0.004 184 137 140
-1603.3954 4911.1792 -816.2366 -0.025 -0.991 0.129 246 202 203
-4672.5669 3012.4871 1938.0592 0.321 -0.420 0.849 98 105 108
-4652.3403 3016.0029 1923.0798 0.484 -0.283 0.828 106 112 117
-4636.7686 3013.9402 1913.2742 0.484 -0.283 0.828 107 113 115
-4611.4497 3005.0364 1899.3403 0.499 -0.288 0.818 109 113 115
-4607.6772 3011.1516 1894.5701 0.389 -0.249 0.887 122 127 125
-4604.6523 3017.8035 1890.1118 0.279 -0.393 0.876 124 128 121
-4118.6626 2821.4675 1631.8624 0.820 -0.394 0.415 63 75 80
-3684.2170 2749.4358 1363.5381 0.526 -0.336 -0.781 112 139 157
-3716.6304 2800.5476 1366.9980 0.759 -0.386 -0.525 77 48 29
-3642.9277 2748.6531 1335.8417 0.889 -0.438 -0.131 81 41 18
-3465.3401 2650.6770 1250.9709 0.779 -0.581 0.234 82 37 15
-3038.1331 2553.3000 996.7279 0.687 -0.498 0.530 197 172 150
-3029.4575 2560.9905 988.0646 0.694 -0.503 0.515 197 172 150
-2976.4800 2663.8525 914.9230 -0.461 -0.877 0.135 52 20 4
-2946.0684 2650.5371 899.1353 -0.355 -0.934 -0.050 18 11 4
-2952.7524 2665.4001 898.2836 0.441 -0.642 0.626 19 11 9
-2954.9973 2675.9382 895.9894 0.590 -0.235 0.772 20 9 5
-2797.2378 2641.2920 801.6270 0.147 -0.510 0.848 171 78 38
-2529.2878 2751.7363 580.0633 0.306 -0.906 0.292 170 83 30
-2439.5435 3303.2710 319.5645 0.812 -0.552 -0.189 62 26 16
-2496.5012 3411.7622 318.8830 0.974 -0.214 -0.079 37 16 2
-2289.4648 3337.0464 205.6349 0.909 0.155 -0.387 15 13 14
-2310.9546 3396.3364 198.7314 0.902 0.101 -0.421 26 24 25
-1684.8091 4239.5176 -530.8519 -0.154 -0.902 0.404 242 178 168
-1674.6421 4232.3818 -535.1583 -0.152 -0.900 0.409 238 172 160
-1870.0575 4927.3257 -654.3386 0.210 -0.711 0.671 220 142 131
-1813.2899 4787.9590 -642.3498 0.963 0.067 -0.263 220 143 130
-1639.5988 4490.3794 -652.3135 0.837 -0.210 0.505 139 71 65
-1635.4259 4674.4170 -721.7721 0.617 -0.491 0.615 125 33 44
-1640.7297 4742.7837 -742.9302 0.430 -0.668 0.607 151 53 62
-1615.4272 4687.5474 -740.0781 0.454 -0.684 0.571 171 85 93
-512.9021 2644.1003 -747.3782 -0.209 -0.718 -0.663 235 17 49
-4094.7844 2525.3242 1712.0303 0.955 0.125 0.270 113 126 121
-4412.3354 2769.6887 1837.8097 -0.062 -0.958 -0.279 80 90 88
-4684.3076 2996.7439 1939.0651 0.188 -0.909 0.371 49 76 91
-4669.2979 2995.1445 1929.4954 0.194 -0.907 0.375 45 72 87
-4595.1162 2978.6038 1885.3445 0.414 -0.300 0.859 51 78 93
-4116.1235 2813.5413 1621.4821 0.797 -0.402 0.450 79 91 96
-3511.7715 2675.3354 1263.0459 0.794 -0.583 0.173 80 36 15
-3477.1113 2654.5947 1247.1567 0.726 -0.640 0.253 81 36 14
-2509.3896 1909.1154 864.1376 -0.117 -0.590 -0.799 149 184 196
-2813.7083 2215.7854 958.2722 0.701 -0.494 -0.515 195 170 161
-3101.5198 2629.7480 1002.1609 0.746 -0.239 -0.622 197 172 150
-3117.5742 2735.6016 974.4634 -0.344 -0.697 0.629 115 79 57
-2952.0813 2658.5679 890.5848 0.579 -0.232 0.782 17 5 1
-2853.0142 2675.7910 817.3036 0.209 -0.649 0.732 151 70 39
-2860.1807 2691.6082 816.3895 0.047 -0.518 0.854 159 73 35
-2499.6794 2782.2974 539.5172 -0.059 -0.791 0.609 130 49 17
-2490.0024 3380.8086 314.9668 0.982 -0.187 0.036 46 18 4
-2491.7651 3395.4846 310.8135 0.979 -0.201 0.035 37 16 2
-2316.7170 3421.2073 183.0435 0.626 -0.736 -0.259 27 25 26
-2308.8218 3421.0977 177.7432 0.649 -0.708 -0.279 34 32 33
-1871.7036 4862.7866 -643.0474 0.175 -0.744 -0.645 217 149 138
-1888.2913 4934.9653 -658.1185 0.619 -0.583 0.526 213 142 131
-1674.1304 4504.6221 -646.2241 0.971 -0.076 0.226 186 132 113
-1666.6461 4505.8857 -651.7466 0.835 -0.326 0.444 180 119 110
-4295.9878 2701.0337 1772.6136 0.216 -0.944 -0.249 45 72 79
-4685.6680 2991.3406 1929.3167 0.019 -0.947 0.320 34 80 101
-4668.2837 2988.1155 1918.7621 0.019 -0.947 0.320 29 78 100
-4137.5171 2798.5122 1629.9062 0.830 -0.371 0.416 123 123 100
-3694.7495 2778.7937 1338.2083 0.752 -0.470 -0.463 84 42 17
-3602.7859 2712.0051 1300.5952 0.902 -0.375 -0.212 87 41 18
-3523.6321 2679.2346 1259.1649 0.867 -0.437 0.241 79 37 16
-2758.8196 2143.3374 939.1949 0.113 -0.943 -0.313 40 35 37
-3268.0649 2786.1611 1047.4431 0.130 -0.633 -0.763 198 173 151
-3310.0352 2877.4272 1042.3346 0.638 -0.699 -0.322 65 30 8
-3238.4514 2827.2358 1012.3989 -0.373 -0.706 0.602 96 61 39
-2943.1267 2643.6167 880.3030 0.589 -0.234 0.773 77 59 48
-2847.7585 2655.7693 811.4643 0.286 -0.524 0.802 131 65 45
-2834.3440 2650.3882 804.3798 0.394 -0.493 0.776 142 72 41
-2830.9524 2655.2563 800.3061 0.193 -0.616 0.764 150 75 37
-2723.8801 2669.2402 722.8947 0.932 0.086 0.351 181 93 41
-2567.6809 2793.0066 572.0876 -0.030 -0.769 0.639 171 84 31
-2554.0244 2785.8645 565.4849 -0.035 -0.768 0.639 166 79 25
-2526.9421 2790.0674 545.6609 -0.077 -0.757 0.648 144 58 19
-2502.6975 2779.0281 533.3380 -0.136 -0.825 0.549 131 50 17
-2491.8660 3386.4495 303.4419 0.973 -0.229 -0.009 37 16 2
-2248.3938 3241.1650 192.3056 0.794 -0.063 -0.604 10 8 9
-2260.8811 3272.9377 189.0932 0.866 -0.040 -0.499 15 13 14
-1882.9081 4875.3843 -653.2865 0.170 -0.744 -0.646 217 149 138
-1727.3575 4525.6182 -630.1342 -0.076 -0.910 0.408 207 132 118
-1685.9868 4497.9365 -647.9210 0.694 -0.619 -0.368 181 131 108
-1642.8617 4486.8311 -672.9664 0.829 -0.528 0.184 155 98 89
-4239.8838 2634.1736 1747.9503 0.785 -0.262 0.561 35 72 84
-4221.9629 2629.8010 1737.4860 0.800 -0.242 0.549 39 73 89
-4140.9971 2795.0522 1622.0088 0.846 -0.363 0.390 106 107 84
-4140.2251 2810.9224 1615.6384 0.802 -0.270 0.533 21 26 22
-4135.3208 2815.5771 1610.6179 0.802 -0.270 0.533 111 122 127
-3888.1467 3128.5999 1328.6658 0.240 -0.910 0.337 200 175 173
-3876.2495 3127.6721 1320.9906 0.246 -0.907 0.340 198 174 164
-2966.0461 2627.1558 892.1470 0.252 -0.397 0.882 169 131 108
-2534.9839 2792.8533 540.5890 0.022 -0.794 0.608 151 65 26
-2522.1196 2786.4946 534.2643 0.039 -0.790 0.611 145 61 25
-2507.3064 2777.7029 527.5231 0.471 -0.795 0.383 136 55 23
-2251.2322 2796.4639 348.0485 -0.169 -0.985 0.027 225 184 150
-2488.4619 3372.2690 295.6472 0.967 -0.249 -0.048 41 20 6
-2524.6001 3437.8872 295.8102 0.693 -0.463 -0.553 25 8 1
-1732.5936 4522.6265 -637.7646 -0.076 -0.910 0.408 201 126 112
-1656.6139 4462.6250 -666.8459 -0.289 -0.954 0.080 150 100 89
-1645.5317 4452.8623 -670.7149 0.837 -0.434 0.334 184 133 122
-1032.0424 5240.6104 -1374.5128 0.359 -0.290 -0.887 229 117 105
-4421.0513 2774.0972 1806.6321 0.289 -0.953 -0.089 31 77 98
-4380.4067 2786.9202 1774.5393 0.328 -0.780 0.532 22 82 101
-4374.7632 2791.1733 1769.1665 0.311 -0.774 0.552 21 81 97
-4325.7808 2765.5713 1745.7148 0.927 -0.363 -0.093 20 82 99
-4323.5986 2772.1387 1741.8118 0.927 -0.363 -0.093 23 81 98
-4139.4644 2787.9565 1612.0979 0.846 -0.363 0.390 95 96 73
-4131.4893 2798.5198 1602.8165 0.833 -0.358 0.421 29 35 30
-3629.6982 2681.7593 1308.6108 0.591 -0.410 -0.695 153 182 202
-2754.9473 2589.4307 754.4930 0.090 -0.643 0.760 95 49 17
-2549.8157 2785.3633 543.8645 0.141 -0.867 0.478 162 75 22
-2523.9043 2781.7166 527.7888 -0.033 -0.783 0.622 144 61 25
-2493.0847 2762.6421 514.1329 0.037 -0.770 0.637 124 52 17
-2482.0681 2758.3579 508.3119 0.037 -0.770 0.637 116 50 13
-2352.3198 2847.9854 387.8071 0.156 -0.944 -0.290 180 97 66
-2282.2102 2773.4756 368.2817 0.703 -0.686 -0.187 173 104 75
-2781.5264 3467.4265 446.7845 0.686 -0.139 -0.714 187 131 98
-2427.8831 3262.2476 285.0108 0.307 -0.945 -0.109 55 28 13
-2531.7729 3439.2141 289.2628 0.786 -0.377 -0.489 25 9 1
-1733.3380 4506.7480 -643.6346 -0.091 -0.898 0.431 201 126 112
-1704.9429 4470.8018 -649.4032 -0.349 -0.937 -0.007 192 133 114
-1654.6890 4438.6777 -671.2913 -0.223 -0.965 0.139 101 57 44
-1566.6066 4761.1338 -850.1111 0.934 -0.111 0.341 239 184 187
-1024.0095 5113.5293 -1345.7390 0.060 -0.904 -0.422 222 120 105
-1040.6382 5254.7090 -1386.9081 0.425 -0.276 -0.862 224 112 100
-4303.5298 2736.4153 1729.9755 0.215 -0.731 0.648 19 74 84
-4316.4146 2753.2629 1732.3407 0.747 -0.638 -0.188 19 74 85
-4203.5083 2811.9114 1634.6659 0.004 -0.767 0.641 161 145 122
-4133.2915 2777.5164 1600.3569 0.414 -0.152 -0.898 80 81 59
-4128.9619 2790.6848 1592.5383 0.720 -0.587 0.370 39 47 42
-3631.1057 2677.0225 1300.7083 0.594 -0.413 -0.690 153 182 203
-3778.1292 2802.9377 1352.4412 0.868 -0.252 -0.427 134 144 152
-3839.3816 3054.4182 1299.7545 0.489 -0.506 -0.710 72 67 66
-3264.3159 2832.3296 996.5364 -0.259 -0.618 0.743 167 132 110
-3165.5015 2747.6343 961.7919 -0.258 -0.614 0.746 162 126 104
-2664.8010 2612.0103 676.2447 -0.111 -0.942 -0.315 145 72 35
-2569.3418 2801.8328 541.3519 0.397 -0.874 -0.280 161 75 24
-2548.0063 2794.6716 529.6998 -0.162 -0.906 0.391 150 65 27
-2452.0994 2883.7451 432.0878 0.692 -0.714 -0.109 129 56 21
-2290.6196 2702.5276 391.2787 -0.087 -0.984 0.158 148 58 28
-2376.7473 2824.4929 403.6036 0.118 -0.944 -0.308 147 57 25
-2370.1038 2825.4038 398.8037 0.117 -0.950 -0.290 147 57 26
-2366.2380 2859.1279 383.6288 0.113 -0.948 -0.298 207 123 93
-2796.5964 3466.9326 445.8196 0.819 -0.573 0.013 179 120 91
-2793.5081 3486.5093 436.4439 0.795 -0.200 -0.573 223 177 143
-2796.2766 3502.2112 432.4453 0.786 -0.223 -0.577 230 192 156
-2811.7273 3535.2593 430.4903 0.311 -0.631 -0.711 228 194 157
-1093.4390 4963.7285 -1255.9062 0.948 -0.289 -0.132 218 130 125
-1049.7089 5271.3354 -1400.0077 0.410 -0.285 -0.866 217 105 93
-4328.7852 2747.8914 1731.0098 0.760 -0.522 -0.387 18 64 71
-4202.2739 2805.0178 1624.8036 -0.002 -0.772 0.636 160 144 122
-4130.5923 2785.8967 1583.9460 0.711 -0.599 0.368 49 57 54
-3844.2727 2866.7332 1361.7604 0.971 -0.200 0.134 70 53 38
-3849.9744 3056.7280 1294.2921 0.483 -0.506 -0.714 82 76 74
-3525.5652 3025.0740 1088.7915 0.314 -0.549 -0.774 189 154 134
-2891.8132 2577.2854 832.1481 0.448 -0.507 -0.736 167 127 101
-2885.2883 2578.9180 827.1633 0.427 -0.521 -0.739 170 134 108
-2799.3718 2526.0552 789.4279 -0.295 -0.932 0.211 172 141 118
-2642.8232 2632.2070 644.6995 -0.192 -0.979 -0.066 154 78 24
-2663.5078 2663.3867 646.8605 0.765 0.071 0.640 153 76 22
-2794.2415 3443.1001 441.9026 0.662 -0.414 0.625 213 154 127
-2794.3579 3514.5300 415.1791 0.803 -0.245 -0.544 219 186 154
-2452.5220 3292.3650 269.4836 0.638 -0.481 -0.601 42 20 8
-1918.3831 4574.1719 -569.3795 0.700 -0.393 0.595 238 192 188
-1905.0571 4561.2080 -573.4445 0.703 -0.387 0.597 240 192 187
-1874.5946 4636.3418 -622.0480 0.094 -0.994 -0.052 239 177 165
-1746.5074 4508.5674 -659.9329 0.225 -0.970 0.095 198 127 111
-1609.9512 4502.6416 -749.2122 0.630 -0.363 0.687 155 97 98
-4363.3354 2781.8149 1729.6776 0.964 -0.257 -0.073 8 29 43
-4390.7559 2817.0024 1734.7368 0.931 -0.310 -0.190 7 23 29
-3591.6626 2762.6584 1220.8049 0.945 -0.326 -0.011 129 139 152
-3818.2998 3077.7991 1253.4464 0.288 -0.592 0.753 190 163 139
-3775.9231 3059.3467 1232.0686 0.417 -0.840 0.346 194 168 145
-3767.2876 3060.9951 1225.6708 0.417 -0.840 0.346 194 168 145
-3762.0737 3112.1396 1202.8815 -0.100 -0.934 0.343 168 139 113
-3597.6907 3066.2476 1110.2604 0.109 -0.991 -0.074 191 160 135
-3575.0566 3054.7100 1099.4768 0.444 -0.887 0.129 178 144 120
-3559.2913 3049.4360 1090.9233 0.301 -0.943 0.138 171 137 113
-2798.1968 2511.1750 785.0383 0.109 -0.933 -0.343 169 127 107
-2771.4192 2563.8040 747.2666 0.692 -0.657 0.301 177 139 128
-2773.3328 2573.8252 744.7645 0.188 -0.969 0.162 186 145 135
-2570.6492 2580.0110 606.8730 0.526 -0.705 -0.476 108 58 24
-2574.5740 2695.4465 565.9319 0.749 0.017 0.663 167 86 46
-2319.3745 2600.2710 431.1718 0.389 -0.831 -0.398 134 57 16
-2753.5415 3461.7930 396.4039 0.837 -0.499 -0.225 222 185 168
-2457.0850 3290.1858 262.8962 0.639 -0.474 -0.606 46 22 7
-1904.1764 4541.8687 -579.2866 0.750 -0.370 0.548 231 182 176
-1900.7509 4554.7432 -586.4365 0.746 -0.375 0.551 232 182 176
-1929.2170 4719.9951 -629.7651 -0.445 -0.797 -0.409 229 178 172
-1918.3885 4713.9199 -634.7145 -0.555 -0.756 -0.346 234 179 169
-1892.7896 4667.8237 -634.4382 -0.538 -0.825 0.176 238 174 159
-1723.1603 4447.0161 -664.5541 0.001 -0.921 0.391 157 108 88
-1738.7723 4514.4219 -679.5519 0.153 -0.967 0.204 99 55 39
-1697.8505 4511.5942 -705.8537 -0.297 -0.941 0.163 45 29 20
-1643.1301 4513.5381 -743.1849 -0.297 -0.888 -0.350 70 50 45
-4402.8477 2802.9958 1736.2622 0.295 -0.940 -0.169 12 25 39
-4436.3506 2834.1899 1746.7860 0.024 -0.846 -0.533 11 24 33
-4427.9014 2836.6272 1740.2205 -0.194 -0.953 -0.232 9 21 27
-4418.3936 2838.3257 1733.2286 -0.047 -0.933 -0.358 17 24 26
-4600.4409 2998.7847 1793.8445 0.496 -0.381 0.780 101 91 72
-3720.6365 2746.9536 1302.1271 0.677 -0.209 -0.706 94 115 130
-3668.1292 2811.7756 1242.4697 0.923 0.089 0.374 178 175 178
-3606.3328 2768.7781 1217.5393 0.912 -0.410 0.022 173 182 196
-3807.9119 3061.9902 1240.8005 0.286 -0.596 0.750 189 163 138
-3772.8591 3049.8928 1221.9933 -0.141 -0.933 -0.331 189 163 140
-3761.8259 3104.9846 1193.7155 -0.074 -0.974 0.216 162 132 106
-3799.5173 3195.7981 1184.4038 0.663 -0.652 -0.368 190 158 133
-3785.2551 3192.5371 1176.1208 0.578 -0.816 0.024 196 164 139
-3705.4280 3158.1870 1135.8716 -0.477 -0.871 0.118 181 149 124
-2756.6533 2519.0095 745.1488 0.487 -0.865 -0.117 169 131 119
-2809.9600 2588.7529 754.2593 0.131 -0.721 -0.681 169 135 125
-2581.4197 2602.3848 596.5229 0.544 -0.789 -0.285 98 45 12
-2577.1611 2606.0457 592.2905 0.612 -0.632 -0.476 102 47 12
-2580.9573 2670.0508 570.5285 0.781 0.107 0.616 133 63 28
-2791.5779 3445.2373 416.8694 0.902 -0.425 -0.071 141 103 82
-2461.4873 3287.7727 256.2911 0.629 -0.489 -0.604 46 22 7
-2560.6707 3444.6458 262.9524 0.687 -0.442 -0.576 29 11 1
-1862.4260 4502.0762 -604.5568 0.556 -0.801 -0.221 228 179 172
-1932.3308 4710.4551 -636.9920 -0.358 -0.852 0.383 229 179 171
-1921.2131 4703.6089 -641.8149 -0.358 -0.852 0.383 233 177 167
-1746.1545 4472.0693 -670.7832 0.095 -0.995 0.031 177 125 101
-1738.8516 4473.9951 -676.3892 -0.024 -0.914 0.406 148 102 81
-1749.0085 4525.7319 -689.2482 -0.174 -0.983 0.059 89 48 32
-1495.1232 4991.7490 -1035.6276 -0.075 -0.276 -0.958 241 190 187
-647.1725 3841.1763 -1164.9214 0.342 -0.940 0.020 255 62 115
-4469.3228 2850.8003 1750.4578 -0.224 -0.948 -0.228 16 25 32
-4450.3359 2846.0464 1739.6221 -0.195 -0.951 -0.239 8 20 22
-4574.2866 2982.8550 1769.9766 0.932 -0.173 0.317 127 112 93
-4257.3765 2810.0344 1624.8048 -0.086 -0.751 0.655 155 140 119
-3722.0093 2742.0569 1294.0499 0.670 -0.211 -0.712 110 131 146
-3847.2505 2858.8735 1332.8972 0.869 -0.391 -0.304 75 50 37
-3512.3208 2644.8147 1191.4631 0.862 -0.423 0.278 78 39 20
-3707.5552 2846.7119 1244.4633 0.934 -0.347 0.086 169 179 192
-3684.9712 2836.4197 1233.3453 0.870 -0.459 0.180 160 179 201
-3740.3193 2908.4302 1242.7302 0.459 -0.784 -0.418 167 184 194
-3781.0156 3050.2205 1215.7119 -0.089 -0.946 -0.313 183 156 135
-3826.0388 3202.9033 1187.4177 0.724 -0.335 -0.603 150 118 93
-3801.7024 3200.2778 1172.2050 0.757 -0.443 0.481 163 131 106
-3781.3787 3201.1865 1158.3168 0.519 -0.843 -0.143 181 149 124
-2854.2129 2619.1384 762.7778 -0.528 -0.721 -0.450 168 132 123
-2639.3955 2617.9697 620.0940 -0.464 -0.873 0.152 130 85 60
-2597.0332 2580.0205 606.3572 -0.445 -0.895 0.040 118 74 51
-2581.5969 2579.6511 596.2133 0.509 -0.802 -0.313 99 56 34
-2574.9692 2580.6428 591.4187 0.481 -0.776 -0.407 96 52 28
-2571.3821 2584.9910 587.3687 0.481 -0.776 -0.407 96 46 18
-2582.6975 2614.3210 583.7100 0.605 -0.629 -0.488 89 36 6
-2577.8354 2617.3350 579.3198 0.636 -0.590 -0.498 87 32 1
-2571.3564 2678.6233 551.6038 0.793 0.085 0.604 110 44 10
-2429.0498 2651.2859 467.2240 0.711 -0.521 0.472 127 59 22
-2797.1360 3467.3215 400.9222 0.822 -0.340 0.457 133 95 72
-2775.9880 3450.6604 393.1927 0.834 -0.265 0.484 146 108 87
-2693.9426 3386.1528 363.1551 0.855 -0.518 0.040 212 175 159
-2706.9468 3427.3955 356.0737 0.893 0.243 0.379 217 180 164
-2466.7939 3286.6777 249.7875 0.614 -0.502 -0.609 46 22 7
-2570.7842 3450.1772 256.6526 0.593 -0.441 -0.674 29 11 1
-2237.6909 3232.0159 118.0084 0.903 0.118 -0.414 19 18 16
-1856.2683 4601.5303 -658.9920 -0.398 -0.817 0.417 196 133 116
-1827.3193 4545.0913 -656.7327 0.612 -0.332 0.718 199 133 117
-1763.2841 4502.7231 -683.2228 -0.210 -0.933 -0.294 172 120 95
-1126.3606 5048.5737 -1315.9954 0.709 -0.139 -0.692 230 142 132
-4456.0449 2746.4482 1769.6660 -0.291 -0.856 0.427 11 46 60
-4386.4082 2708.0828 1738.0874 -0.293 -0.859 0.419 10 48 59
-4473.7856 2856.1143 1739.3546 -0.005 -0.923 -0.385 12 23 25
-3731.8994 2776.7368 1276.4611 0.517 -0.800 0.305 85 43 22
-3512.5000 2639.1511 1183.3848 0.862 -0.423 0.278 77 40 20
-3792.0459 3053.0288 1210.3699 -0.089 -0.946 -0.313 178 151 130
-3775.9907 3048.2393 1201.5319 -0.147 -0.955 -0.257 178 152 129
-3761.1182 3044.4326 1193.1029 -0.172 -0.950 -0.260 178 152 128
-3797.5747 3208.7288 1154.2614 0.619 -0.664 0.419 172 140 115
-2677.0059 2644.1658 625.8349 -0.454 -0.879 0.145 190 147 132
-2611.5764 2589.7068 603.2338 -0.442 -0.897 0.019 193 149 134
-2597.4932 2590.9080 593.4069 0.679 -0.472 -0.563 184 140 125
-2593.1682 2619.6523 579.4935 0.803 -0.576 -0.152 147 99 73
-2546.0251 2669.0688 529.1672 0.656 0.005 0.754 95 42 12
-2452.3613 2672.7058 465.4821 0.888 -0.427 0.174 116 54 21
-2328.4426 2635.5979 397.3217 0.229 -0.837 -0.497 132 62 25
-2796.6797 3457.7800 393.0110 0.822 -0.340 0.457 121 83 62
-2831.4846 3651.5764 341.7436 0.910 0.256 0.326 68 26 10
-2472.1104 3285.5918 243.2808 0.613 -0.502 -0.611 46 22 7
-2577.7195 3451.0398 249.9851 0.593 -0.441 -0.674 29 11 1
-1962.1945 4731.2520 -650.9279 -0.401 -0.896 0.192 229 180 173
-1854.9602 4580.3818 -664.3104 -0.359 -0.805 0.473 195 129 113
-1817.6676 4523.6064 -667.3105 0.697 -0.410 0.588 196 130 114
-1813.0404 4533.3154 -674.1157 0.698 -0.411 0.586 195 130 112
-1792.1234 4565.9663 -700.5632 0.730 -0.616 -0.296 165 113 88
-1746.6564 4575.5181 -734.4675 0.191 -0.903 0.384 40 26 19
-1659.6394 4507.5430 -766.2352 0.850 -0.258 -0.460 73 58 55
-4387.8911 2695.5000 1732.3202 -0.343 -0.900 0.271 0 29 37
-4447.8872 2848.8550 1712.9226 0.969 -0.070 -0.237 68 74 71
-4516.1738 2921.2539 1730.2906 0.995 -0.053 -0.082 118 106 89
-3791.2356 2793.3821 1298.4829 0.448 -0.249 -0.859 78 85 90
-3796.9126 2806.2136 1297.2960 0.485 -0.232 -0.843 73 46 33
-3510.8452 2632.0081 1174.6875 0.700 -0.433 0.567 75 40 20
-3698.9524 2827.1116 1224.2034 0.944 -0.305 0.125 166 177 192
-3810.3840 3043.8455 1214.4720 0.611 -0.721 0.326 181 155 132
-3807.0173 3059.2258 1206.2980 -0.026 -0.888 0.460 172 146 123
-3787.4177 3051.4028 1196.3094 -0.147 -0.955 -0.257 171 145 122
-3794.6638 3198.9133 1144.1554 0.746 -0.662 0.068 168 136 111
-3088.0635 2814.7288 823.4994 -0.534 -0.765 -0.360 163 123 111
-2688.5696 2650.3682 621.8006 -0.444 -0.884 0.143 181 138 130
-2638.4417 2612.7625 603.0497 -0.449 -0.886 0.113 194 150 141
-2616.0361 2596.6653 594.3940 0.763 -0.644 -0.054 198 153 145
-2611.9880 2600.5696 590.1993 0.775 -0.629 -0.054 198 154 145
-2604.9128 2601.1526 585.2779 0.781 -0.621 -0.063 197 154 145
-2356.9124 2534.8345 446.2740 0.857 0.074 0.510 103 45 17
-2752.2324 3309.9875 409.3340 0.311 -0.229 -0.922 218 174 141
-2689.9414 3397.9783 334.0083 0.891 0.246 0.381 203 166 150
-2478.3281 3285.8057 236.8644 0.613 -0.502 -0.611 47 23 8
-2586.9517 3455.2239 243.5410 0.594 -0.440 -0.673 29 11 1
-1929.5375 4695.2915 -671.7011 -0.516 -0.802 0.301 228 164 148
