ply
format ascii 1.0
element vertex 792
property float x
property float y
property float z
property float nx
property float ny
property float nz
property uchar diffuse_red
property uchar diffuse_green
property uchar diffuse_blue
end_header
-2723.1160 2829.2288 848.5073 0.674 -0.209 -0.708 177 101 65
-2719.4417 2835.3560 845.5682 0.659 -0.199 -0.726 183 95 58
-2747.8088 2882.2876 849.6255 0.892 -0.027 -0.450 195 90 51
-2662.4609 2906.0723 804.7932 0.275 -0.904 0.329 180 87 37
-2343.1553 2984.5488 639.1432 0.685 -0.645 -0.340 160 81 32
-2329.8230 3090.6177 611.9003 -0.005 -0.937 -0.350 139 110 93
-2302.0083 3076.9646 601.5222 -0.083 -0.666 -0.741 140 111 90
-2309.6206 3128.0342 595.0027 0.044 -0.965 -0.260 112 82 62
-2264.2236 3317.3079 536.2305 0.863 -0.230 0.449 4 10 18
-2237.7708 3451.2393 497.3090 -0.110 -0.563 -0.819 31 31 28
-2456.0637 5351.2095 224.2422 0.487 -0.314 -0.815 149 102 82
-2563.2332 5634.1357 218.6849 -0.302 -0.953 0.019 141 94 74
-2644.5044 5932.6260 197.8732 0.339 -0.773 0.537 125 80 59
-2561.6699 5904.5542 164.4768 -0.435 -0.885 -0.165 123 82 62
-2432.1428 5787.7305 126.6765 -0.224 -0.950 -0.219 114 84 66
-2463.3237 5946.0938 110.0220 0.621 -0.657 -0.426 106 81 61
-2444.4094 5924.5410 105.3909 -0.194 -0.772 -0.605 101 80 62
-2434.9827 5924.7803 100.9113 -0.190 -0.772 -0.607 82 63 47
-2413.5627 5897.0171 96.3299 0.032 -0.995 0.093 63 45 30
-2440.8433 5982.8809 92.1777 0.186 -0.976 0.110 47 27 13
-2424.5681 5967.0835 87.6493 0.114 -0.973 0.202 36 13 3
-2398.6968 5928.4844 83.1178 0.689 -0.694 -0.207 39 16 3
-2392.0425 5934.9932 78.7020 0.607 -0.771 -0.193 41 22 5
-2195.1172 5614.7271 49.4413 0.054 -0.963 0.265 58 56 35
-1961.0109 5141.6079 32.9243 -0.228 -0.973 0.029 159 130 122
-1989.0776 5230.9609 28.4519 -0.299 -0.930 -0.213 162 132 124
-1979.1705 5245.9639 20.8270 0.208 -0.843 0.496 174 144 136
-1972.9310 5250.2344 17.0488 0.199 -0.847 0.492 178 150 146
-1909.3832 5148.6880 7.2498 0.425 -0.829 0.364 233 214 216
-1904.4873 5155.8613 3.5294 0.433 -0.824 0.365 223 207 207
-1909.6766 5188.9424 -0.5722 0.524 -0.827 0.201 214 198 198
-1910.3737 5210.6484 -4.5367 0.458 -0.889 -0.011 215 197 197
-1755.4083 4980.5049 -31.8896 0.619 -0.777 -0.115 235 225 226
-1749.9993 4985.3257 -35.3861 0.619 -0.777 -0.115 239 230 231
-4520.0889 2791.8303 1689.3469 0.567 -0.689 0.452 83 71 57
-4449.7549 2783.9854 1657.9617 0.851 -0.249 0.463 86 73 57
-4469.6128 2817.4333 1660.6051 0.911 -0.218 0.351 41 25 10
-4294.2236 2865.1606 1568.9458 0.416 -0.888 -0.193 137 179 201
-3607.6675 2638.0085 1292.5594 0.363 -0.825 -0.433 107 170 215
-3092.2913 2551.5237 1068.3566 0.208 -0.851 -0.482 178 151 140
-2872.9700 2631.2449 949.7488 0.539 -0.498 -0.680 159 141 126
-2868.2407 2636.4031 946.5067 0.615 -0.375 -0.693 197 176 160
-2871.1128 2657.2195 943.7080 0.603 -0.549 -0.579 137 103 89
-2904.5574 2723.2468 946.2303 0.882 -0.028 0.470 89 36 25
-2725.4185 2827.0784 841.6458 0.663 -0.205 -0.720 159 94 59
-2724.8525 2836.1877 839.5673 0.663 -0.205 -0.720 177 98 61
-2655.8193 2875.2375 799.4561 -0.336 -0.885 -0.321 189 99 49
-2352.2490 2990.2224 634.3631 0.691 -0.642 -0.331 171 93 44
-2315.0740 2956.3794 623.6863 0.037 -0.995 0.096 175 100 51
-2327.4556 2980.9492 624.5952 0.279 -0.813 0.511 162 89 41
-2328.3958 3125.1340 596.3324 0.062 -0.932 -0.358 118 88 68
-2317.2786 3132.2026 589.7175 0.037 -0.966 -0.256 118 88 70
-2304.9736 3299.5425 550.6408 0.943 -0.334 0.003 54 20 9
-2242.7793 3417.2739 498.0698 0.993 -0.116 0.008 18 18 16
-2265.6516 3461.3784 500.0040 -0.152 -0.983 0.107 24 24 22
-2247.2297 3446.7397 494.2887 -0.162 -0.981 0.109 25 25 23
-2251.7480 3464.8599 492.7980 -0.168 -0.985 0.046 24 24 22
-3288.6558 6075.7227 458.7707 -0.320 -0.171 -0.932 185 137 126
-3275.0818 6073.0146 452.9513 -0.288 -0.150 -0.946 185 137 125
-3095.9846 6378.9570 308.1517 0.309 -0.083 -0.948 171 123 109
-2238.0657 4853.2471 209.9996 0.985 -0.167 0.030 149 102 82
-2555.3079 5897.9780 150.6298 -0.423 -0.899 -0.118 126 83 64
-2414.9229 5863.5889 91.7147 0.943 -0.230 0.242 101 80 61
-2412.6160 5880.0996 87.3472 0.049 -0.976 0.210 95 76 59
-2400.2788 5873.2778 82.9261 0.018 -0.981 0.195 94 73 54
-2429.8923 5964.5835 78.6218 0.114 -0.973 0.202 88 65 47
-2415.9109 5954.0469 74.1699 0.244 -0.623 -0.743 68 45 27
-2415.2024 5974.6904 69.7284 0.343 -0.210 -0.916 48 28 11
-2187.8579 5582.7549 41.2560 0.007 -0.973 0.231 91 84 65
-1995.2644 5232.7603 20.7128 -0.198 -0.963 -0.184 161 131 123
-1907.8423 5131.2324 -0.0272 0.394 -0.849 0.353 231 214 215
-1955.3604 5312.5220 -13.8579 0.686 0.124 -0.717 215 197 197
-1908.1545 5211.0352 -15.7675 0.454 -0.891 -0.003 216 198 198
-1935.1870 5301.1172 -21.0374 0.450 -0.885 0.118 213 197 198
-1918.0505 5276.9185 -24.2474 0.446 -0.886 0.128 219 205 205
-1918.0105 5297.1411 -28.2919 0.321 -0.936 -0.143 221 209 211
-1914.8173 5309.1992 -32.1881 0.316 -0.941 -0.123 219 209 210
-1922.1920 5349.1309 -36.6829 0.246 -0.934 0.259 219 209 210
-1832.3422 5192.1396 -47.5190 0.020 -0.664 -0.747 240 230 231
-1843.8452 5243.2246 -52.3002 0.017 -0.677 -0.736 242 233 236
-1841.8604 5258.2822 -56.2275 0.090 -0.640 -0.763 240 234 238
-1839.3840 5272.0757 -60.1334 0.154 -0.930 -0.335 239 234 238
-4665.3589 2672.6641 1769.5835 0.895 -0.101 -0.435 16 11 5
-4535.9971 2721.0842 1699.5083 0.558 -0.753 0.349 33 29 19
-4507.4478 2737.4951 1682.8959 0.826 -0.475 -0.304 70 58 44
-4511.6938 2772.4583 1677.8710 0.883 -0.452 0.127 81 72 57
-4478.0879 2796.7747 1657.3145 0.239 -0.871 0.429 88 75 59
-4461.1323 2797.8381 1649.1884 0.903 -0.234 0.361 42 29 13
-4453.7212 2815.3706 1642.2162 0.908 -0.232 0.350 101 88 72
-4337.0967 2999.6917 1550.8512 0.137 -0.935 0.329 103 163 210
-2885.9614 2610.9548 951.5258 0.524 -0.532 -0.665 156 136 132
-2884.5154 2618.8479 949.2692 0.460 -0.336 -0.822 110 88 85
-2882.7534 2626.4937 946.9147 0.538 -0.554 -0.635 113 91 85
-2878.7251 2632.2476 943.8817 0.569 -0.523 -0.635 178 153 139
-2874.1267 2637.5212 940.6788 0.615 -0.375 -0.693 189 161 147
-2875.9771 2648.2600 939.3903 0.574 -0.529 -0.625 163 132 119
-2867.2227 2650.0129 934.9534 0.563 -0.825 -0.052 118 82 70
-2754.2861 2811.7227 849.8406 0.466 -0.782 -0.414 51 38 29
-2748.6018 2815.9563 846.3394 0.543 -0.770 -0.334 52 30 7
-2741.8579 2819.1733 842.5474 0.546 -0.783 -0.299 50 20 0
-2736.7947 2823.9756 839.2221 0.546 -0.783 -0.299 79 41 10
-2730.3977 2827.4958 835.5312 0.870 0.062 -0.489 131 79 42
-2730.7991 2837.5305 833.7076 0.663 -0.205 -0.720 167 102 62
-2736.5981 2852.8003 833.3539 0.841 -0.021 -0.541 176 99 55
-2673.7156 2888.6208 796.8289 0.036 -0.918 -0.394 204 114 64
-2320.5227 2918.5469 626.0007 -0.077 -0.426 -0.901 177 101 52
-2357.1646 2990.9707 628.5874 0.696 -0.644 -0.319 183 105 56
-2318.6870 2955.6665 617.7054 0.037 -0.995 0.096 188 113 64
-2330.9929 2980.1099 618.5499 0.273 -0.828 0.489 174 101 54
-2332.9963 3125.4512 590.3586 0.168 -0.941 -0.292 125 94 74
-2330.1812 3132.4175 587.6487 0.082 -0.921 -0.382 124 94 76
-2319.7957 3129.9233 583.3018 0.030 -0.949 -0.313 126 95 77
-2238.0137 3415.6831 487.8688 0.992 -0.121 0.023 24 24 22
-2232.2766 3419.0161 484.5235 0.993 -0.118 0.032 21 21 19
-2225.3123 3432.1135 478.6486 0.907 -0.130 -0.400 20 20 18
-2998.4390 5212.2690 482.7154 0.176 -0.939 0.296 186 148 137
-2580.9868 5604.2451 209.3434 0.383 -0.726 0.571 140 93 73
-2572.2671 5626.7124 200.7716 -0.193 -0.968 -0.158 140 93 73
-2521.4180 5852.0874 131.8759 -0.425 -0.891 -0.159 109 71 50
-2427.1187 5748.0659 108.7133 -0.480 -0.876 -0.054 107 75 54
-2441.8528 5845.7925 96.0052 0.971 0.184 0.151 107 78 57
-2436.3103 5876.5498 87.2548 0.970 0.225 0.093 98 74 54
-2431.8540 5888.1240 82.8557 0.940 -0.279 0.198 100 79 60
-2425.3169 5894.9023 78.4465 0.188 -0.969 0.163 105 84 65
-2435.2126 5962.0850 69.6014 0.114 -0.973 0.202 105 84 63
-2429.5581 5971.1128 65.1533 0.265 -0.383 -0.885 97 76 55
-2432.7148 6000.8882 60.6596 0.305 -0.216 -0.927 86 68 48
-2336.0962 5882.5820 39.2773 0.508 -0.631 0.587 79 64 47
-2200.4749 5599.0181 32.8104 -0.035 -0.974 0.224 139 124 107
-1905.4083 5131.0898 -11.1210 0.352 -0.935 -0.038 212 194 194
-1923.2875 5256.2612 -27.8613 0.390 -0.917 -0.085 212 196 197
-1907.6052 5235.7446 -31.0685 0.254 -0.942 0.217 216 202 202
-1905.9404 5251.5337 -35.0096 0.408 -0.911 0.059 221 210 211
-1908.9829 5279.7080 -39.2359 0.426 -0.891 0.157 220 210 211
-1886.7271 5241.6123 -41.9880 0.469 -0.883 0.020 217 208 209
-1878.9160 5241.2461 -45.5600 0.475 -0.880 0.020 224 214 215
-1853.8569 5215.2603 -52.0472 0.667 -0.720 0.194 233 223 224
-1837.5995 5212.2227 -59.0256 0.686 -0.692 0.223 240 231 234
-1834.5933 5224.3848 -62.8659 0.758 -0.605 0.242 239 233 237
-1839.2957 5257.4116 -67.2899 0.734 -0.646 0.209 240 233 240
-1842.1605 5285.6680 -71.6155 0.270 -0.962 -0.036 240 234 238
-4666.1875 2669.6860 1759.0544 0.908 -0.125 -0.400 31 26 20
-4536.9185 2739.6794 1684.8320 0.727 -0.640 -0.250 68 58 46
-4513.0386 2747.9001 1672.0708 0.458 -0.813 -0.359 90 78 64
-4530.9585 2768.9094 1676.1644 0.739 -0.651 0.171 97 85 71
-4517.4209 2783.0139 1667.0249 0.562 -0.700 0.441 99 90 75
-4429.3809 2808.2788 1620.9945 0.987 -0.119 0.112 131 115 100
-4277.3867 2868.8801 1538.1007 0.295 -0.879 -0.374 129 172 203
-3589.1313 2726.1333 1246.8945 0.126 -0.817 -0.562 81 40 25
-3555.9456 2732.4890 1230.1829 0.352 -0.825 0.443 148 153 153
-3777.5598 3051.5322 1268.8627 0.368 -0.844 -0.390 174 146 135
-2881.6653 2567.5828 949.9446 0.830 -0.225 -0.510 97 73 65
-2886.1987 2607.3635 944.0276 0.898 -0.089 -0.432 120 95 85
-2892.3833 2621.6040 944.0305 0.588 -0.392 -0.707 91 64 55
-2891.0833 2629.6438 941.8041 0.554 -0.608 -0.569 142 115 105
-2885.2090 2633.8589 938.2227 0.554 -0.546 -0.628 184 151 139
-2880.8438 2639.3362 935.0881 0.610 -0.436 -0.661 172 136 124
-2874.3008 2642.9692 931.3130 0.431 -0.893 -0.131 134 98 84
-2872.3677 2650.5046 928.8942 0.624 -0.780 -0.047 94 56 43
-2812.3955 2832.9482 864.2070 0.776 0.519 -0.358 43 37 36
-2758.8362 2792.5867 847.4468 0.570 -0.574 -0.588 44 36 35
-2741.0176 2785.4197 840.6078 0.647 -0.643 -0.411 43 35 34
-2754.5337 2807.6643 842.4048 0.476 -0.805 -0.354 43 33 30
-2757.7422 2820.2898 841.3497 0.521 -0.806 -0.282 59 41 19
-2745.9558 2818.7446 836.1815 0.546 -0.783 -0.299 49 24 0
-2740.8918 2823.5464 832.8583 0.546 -0.783 -0.299 67 33 3
-2360.1895 2989.5005 622.3751 0.691 -0.642 -0.331 186 108 59
-2317.2854 2949.0586 610.5851 0.273 -0.859 0.433 186 111 62
-2319.4175 2961.4387 609.0791 0.303 -0.872 0.383 180 107 59
-2221.4695 3397.3022 475.6141 0.953 -0.228 -0.199 23 23 21
-2215.1775 3399.7542 472.1940 0.928 -0.307 -0.209 19 19 17
-2218.1660 3415.4910 470.4090 0.922 -0.091 -0.376 14 14 12
-2232.5837 3447.7449 470.6060 0.923 -0.190 -0.333 11 12 7
-2423.3367 5746.6650 95.5466 0.134 -0.989 -0.066 101 68 49
-2437.0300 5820.4355 87.0320 0.970 0.124 0.207 112 83 62
-2433.7063 5834.4077 82.6681 0.977 0.127 0.169 110 84 65
-2438.8989 5911.6650 69.4977 0.970 0.109 0.216 108 87 68
-2408.1675 5862.3511 65.1570 0.032 -0.978 0.205 108 87 68
-2410.2231 5888.9839 60.7403 0.777 -0.371 0.509 103 85 65
-2401.1123 5889.6455 56.3709 0.897 -0.159 0.413 103 85 65
-2422.2629 5961.2969 51.7509 0.626 -0.212 -0.751 102 84 64
-2363.0823 5887.9614 39.0287 0.579 -0.625 0.524 106 82 69
-2235.4719 5626.8218 32.3751 0.035 -0.972 0.234 114 91 77
-2012.9021 5209.9346 12.9885 -0.153 -0.955 0.252 159 128 123
-1909.7057 5128.5391 -18.5728 0.312 -0.950 -0.022 207 190 190
-1913.3177 5176.9590 -26.6608 0.611 -0.782 -0.120 210 192 192
-1914.8730 5220.6338 -34.7480 0.510 -0.852 -0.116 209 193 194
-1868.1266 5239.0054 -60.1886 0.651 -0.733 0.196 223 213 214
-2072.9756 6254.6978 -169.8352 0.687 0.165 -0.708 239 228 234
-4505.4521 2570.8142 1693.1844 0.777 -0.244 -0.580 39 34 28
-4779.6875 2737.3896 1786.3894 0.859 -0.155 -0.488 28 23 19
-4539.0288 2726.5078 1677.1243 0.391 -0.899 -0.198 50 44 31
-4525.3740 2729.6699 1670.1571 0.642 -0.694 -0.327 68 58 46
-4499.0356 2736.4302 1656.5844 0.411 -0.867 -0.281 96 82 69
-4399.6128 2787.0767 1600.2472 0.645 -0.709 0.286 131 114 98
-4381.4253 2787.1580 1591.8062 0.693 -0.682 0.236 131 114 98
-4471.2310 2884.4890 1613.6420 0.537 -0.631 0.560 125 110 94
-4252.4966 2882.1831 1512.7910 0.119 -0.978 0.174 106 158 205
-3631.4280 2802.6025 1241.2664 0.495 0.483 -0.723 129 176 206
-3802.1460 3021.7925 1275.8380 0.733 -0.679 -0.040 87 72 90
-2886.5452 2567.8740 943.8924 0.826 -0.235 -0.513 59 29 15
-2899.5801 2614.6868 940.4250 0.549 -0.511 -0.661 99 68 53
-2900.4592 2624.5239 938.8349 0.476 -0.522 -0.707 125 95 80
-2896.0190 2629.9470 935.6770 0.383 -0.913 -0.143 168 135 121
-2883.6699 2628.7341 930.2031 0.393 -0.913 -0.114 162 119 107
-2878.3982 2633.4299 926.8077 0.488 -0.827 -0.279 132 89 78
-2876.6345 2641.0840 924.4367 0.448 -0.890 -0.086 91 50 38
-2875.3311 2649.1440 922.1964 0.678 -0.733 -0.058 59 21 9
-2736.7468 2711.6033 845.3210 -0.337 -0.879 -0.338 43 40 25
-2733.4277 2717.8459 842.5160 -0.064 -0.652 -0.755 43 34 29
-2727.1990 2721.4180 838.9054 -0.064 -0.652 -0.755 44 34 31
-2759.1213 2807.6985 836.1730 0.476 -0.805 -0.354 39 26 20
-2741.5735 2819.8718 825.5730 0.923 -0.377 -0.080 87 51 18
-2745.3467 2852.4294 820.7101 0.878 0.035 -0.478 171 99 53
-2671.3853 2906.6357 775.4442 -0.192 -0.742 -0.642 187 97 47
-2220.3643 3412.3040 463.8533 0.864 0.118 -0.490 17 17 15
-2217.0107 3418.9756 460.9453 0.943 0.000 -0.332 11 12 7
-2817.4563 6109.4126 192.7889 0.629 -0.724 0.285 145 98 78
-2854.0066 6252.8320 180.5983 0.212 -0.895 -0.393 138 93 72
-2842.5132 6251.3545 175.5745 0.210 -0.891 -0.402 138 93 72
-2408.5930 5741.5728 78.0896 0.065 -0.994 -0.087 111 83 62
-2420.3516 5854.2480 60.6578 0.970 0.185 0.160 107 86 69
-2426.4497 5890.1191 56.1990 0.970 0.185 0.160 105 84 67
-2408.5923 5870.5371 51.9034 0.947 0.048 0.317 102 83 64
-2399.4426 5871.0571 47.5597 0.892 -0.161 0.422 102 84 64
-2220.5264 5618.8179 15.9009 -0.260 -0.922 -0.288 162 135 123
-2161.5315 5538.8740 4.8065 0.556 -0.575 0.600 159 129 121
-1925.8872 5156.0762 -26.6193 0.262 -0.965 -0.033 209 193 193
-1907.7368 5129.5776 -29.6462 0.699 -0.218 -0.681 193 177 177
-1905.6217 5143.7173 -33.4970 0.343 -0.939 0.017 182 164 164
-1920.2352 5200.7524 -38.3087 0.451 -0.878 -0.161 181 165 165
-1916.1901 5210.2178 -42.1045 0.488 -0.872 -0.040 180 165 165
-1795.7661 5315.0947 -119.1807 -0.186 -0.983 0.011 237 228 233
-2067.6724 6221.6362 -177.3029 0.705 0.167 -0.689 235 224 230
-4511.6016 2570.7839 1684.9664 0.777 -0.244 -0.580 41 34 28
-4565.3252 2726.7964 1677.8744 0.259 -0.947 -0.188 44 41 31
-4542.2646 2735.5757 1665.4384 0.259 -0.947 -0.188 61 51 36
-4527.0078 2737.8335 1657.9364 0.461 -0.812 0.358 81 67 54
-4359.3989 2770.5051 1573.9127 0.246 -0.753 -0.610 130 113 99
-4008.3120 2797.2153 1406.4376 -0.396 -0.476 -0.785 93 154 201
-3986.4409 2814.4272 1392.8271 0.646 0.100 -0.757 100 161 206
-3689.9375 2678.9331 1283.6901 -0.075 -0.985 -0.155 109 172 215
-3804.7646 3019.4766 1267.0833 0.733 -0.679 -0.040 112 92 112
-3755.8894 3037.5208 1240.8411 -0.042 -0.269 -0.962 180 153 142
-2907.0315 2626.1843 933.1819 0.476 -0.522 -0.707 145 110 92
-2872.8870 2643.2070 913.9464 0.637 -0.765 -0.095 63 18 8
-2880.3792 2658.7375 914.2299 0.745 -0.646 -0.169 69 32 18
-2841.6108 2643.9856 899.3543 0.551 -0.833 -0.048 76 50 34
-2751.3713 2730.1760 840.0968 0.494 -0.508 -0.706 44 28 17
-2741.4749 2844.3347 812.1995 0.921 -0.383 -0.067 180 94 53
-2741.6418 2854.1763 810.2652 0.915 -0.404 0.011 188 92 49
-2721.3267 2902.7273 790.9681 -0.076 -0.963 -0.257 187 97 47
-2710.8809 2931.8486 780.1961 -0.216 -0.952 -0.218 187 97 47
-2695.7642 2926.5886 774.2952 -0.115 -0.964 -0.239 187 97 47
-2675.3921 2915.9487 767.0686 0.063 -0.557 -0.828 187 97 47
-2671.6130 2921.9912 764.0897 0.055 -0.571 -0.819 183 93 43
-2285.7686 3102.2688 549.1907 0.325 -0.723 -0.609 139 103 82
-2228.0312 3382.7156 465.2323 -0.358 -0.889 -0.285 26 26 24
-2219.1814 3381.5317 461.3903 -0.329 -0.912 -0.246 31 31 29
-2213.6587 3385.0356 458.1256 -0.048 -0.989 0.138 29 29 27
-2210.8467 3415.2498 450.6531 0.836 0.053 -0.546 20 21 16
-2227.8374 3462.8831 448.7591 -0.239 -0.675 -0.698 25 23 12
-2214.2476 3466.4268 441.7636 -0.419 -0.712 -0.564 34 17 12
-2822.9727 6040.9673 196.5184 0.801 -0.546 0.244 158 111 91
-2484.5171 5425.4780 166.1175 0.775 -0.484 0.407 143 96 76
-2834.6470 6197.6899 169.8767 0.180 -0.787 -0.590 138 93 72
-2822.7107 6195.1016 164.8975 0.166 -0.780 -0.604 139 94 73
-2843.9775 6262.4575 160.9461 0.343 -0.676 -0.652 138 93 72
-2406.2771 5397.5366 135.7223 -0.244 -0.753 -0.611 137 92 71
-2435.9568 5480.6675 132.4294 0.914 0.192 -0.357 136 91 70
-2498.4973 5696.8218 117.1148 0.289 -0.376 -0.880 131 90 70
-2382.9834 5711.4678 60.8154 0.065 -0.995 -0.074 99 76 57
-2344.9216 5750.9023 35.1918 0.781 -0.399 0.480 105 81 64
-2328.2878 5733.3179 31.1095 0.741 -0.400 0.540 108 81 66
-2308.0901 5707.1514 27.1366 0.762 -0.451 0.465 109 79 68
-1916.2007 5137.6089 -37.3127 0.697 -0.227 -0.680 182 163 163
-1918.5109 5163.0166 -41.4392 0.495 -0.794 -0.354 179 160 161
-1925.1444 5199.6128 -45.8571 0.451 -0.878 -0.161 177 159 160
-1922.5240 5212.7202 -49.7450 0.520 -0.853 -0.043 176 160 160
-1911.0826 5203.1733 -53.0739 0.765 -0.570 0.301 206 193 193
-1905.3813 5208.3311 -56.7589 0.766 -0.565 0.307 193 183 182
-1897.3562 5207.4473 -60.2817 0.760 -0.568 0.317 120 111 112
-1858.6191 5185.8140 -73.7365 0.256 -0.673 -0.694 227 215 215
-1795.4572 5299.4160 -126.1005 -0.213 -0.977 -0.004 232 223 228
-1907.9191 5657.3164 -147.3461 0.378 0.060 -0.924 231 222 227
-4549.3750 2714.4548 1661.7281 0.899 -0.233 -0.370 45 40 28
-4409.8984 2775.0242 1585.1472 0.397 -0.868 0.300 120 106 93
-4378.3833 2778.0562 1570.0348 0.267 -0.947 -0.176 129 115 102
-3878.6379 3125.6252 1268.7928 0.150 -0.319 -0.936 174 147 136
-3401.0308 2795.8489 1117.0492 -0.429 -0.335 -0.839 178 147 135
-2862.1604 2630.2842 903.3644 0.321 -0.937 -0.134 88 45 37
-2868.9553 2645.1597 903.4286 0.857 -0.508 0.086 69 35 24
-2859.0396 2645.8684 898.7242 0.783 -0.621 0.024 65 37 24
-2846.8516 2644.5984 893.3822 0.531 -0.786 -0.316 63 40 26
-2865.4106 2678.8914 894.8610 0.623 -0.780 0.055 55 39 28
-2811.6206 2687.4434 868.3726 0.959 0.055 0.279 47 25 19
-2919.0183 2928.9050 868.0820 0.928 0.353 0.118 70 36 15
-2286.7683 3098.1606 542.5991 0.330 -0.746 -0.578 139 103 84
-2282.8328 3103.5427 539.6827 0.327 -0.754 -0.570 148 108 85
-2237.1130 3333.0369 471.4599 0.968 -0.159 0.196 8 9 1
-2223.0879 3380.8396 455.1797 -0.259 -0.952 0.161 34 34 32
-2217.6274 3384.4341 451.9300 -0.026 -0.986 0.162 35 35 33
-2209.0649 3383.5938 448.1663 -0.026 -0.986 0.162 29 29 27
-2224.8948 3452.1829 441.3360 -0.205 -0.730 -0.652 26 22 15
-2724.0913 5973.9028 152.1525 0.244 -0.970 -0.004 140 95 76
-2855.8909 6272.8550 151.2554 0.343 -0.684 -0.644 140 93 73
-2198.9290 5580.2935 -8.3245 -0.230 -0.955 -0.185 161 131 121
-1936.0227 5213.6807 -53.7853 0.400 -0.895 -0.198 181 160 159
-1929.6866 5217.3262 -57.4481 0.400 -0.895 -0.198 167 147 148
-1917.2041 5205.1704 -60.6865 0.084 -0.948 -0.308 193 177 176
-1913.0560 5214.3433 -64.4803 0.274 -0.939 -0.206 195 183 183
-1903.1729 5208.6982 -67.8628 0.430 -0.866 -0.257 109 98 98
-1842.7136 5209.6382 -95.8515 0.226 -0.197 -0.954 213 208 212
-1812.7551 5270.6694 -122.1779 0.026 -0.062 -0.998 236 227 232
-1891.6594 5530.4385 -139.3336 0.021 -0.065 -0.998 236 227 232
-4536.1211 2692.9500 1648.8217 0.978 0.106 -0.179 36 29 14
-4479.4561 2746.9546 1611.6896 0.870 -0.477 0.128 119 106 90
-4486.1069 2761.5234 1611.7197 0.581 -0.746 -0.325 124 111 95
-4482.3945 2770.2053 1608.2223 0.582 -0.745 -0.327 117 106 93
-4384.3413 2777.9229 1561.7156 0.267 -0.947 -0.176 131 120 109
-4384.7349 2788.9141 1559.6207 0.777 -0.536 0.330 108 97 86
-4393.0356 2804.6245 1560.1704 0.986 0.115 0.123 72 61 51
-3743.5173 2778.1182 1268.1727 0.433 -0.630 -0.645 80 39 22
-3606.2666 2723.1538 1216.6885 0.103 -0.954 -0.283 81 37 35
-3588.5151 2730.5369 1207.0299 0.481 -0.666 -0.570 81 73 90
-3449.1042 2889.4221 1110.2891 -0.577 -0.562 -0.593 160 125 106
-2856.4160 2630.6787 892.3936 0.015 -0.964 0.266 55 32 21
-2846.5852 2631.4141 887.7386 0.615 -0.756 -0.225 48 30 17
-2838.8467 2633.9004 883.6797 0.923 -0.263 -0.279 40 28 13
-2843.0706 2646.6150 882.9824 0.917 -0.291 -0.272 35 27 13
-2595.1401 2597.0918 779.6796 0.325 0.032 -0.945 71 21 5
-2410.1240 2794.6511 654.0457 0.702 -0.481 0.525 177 97 48
-2286.0627 3102.2395 533.5532 0.474 -0.793 -0.384 137 107 88
-2277.4417 3101.7056 529.7151 0.512 -0.730 -0.452 142 109 89
-2730.0437 5972.4404 142.7624 0.244 -0.970 -0.004 151 106 87
-2481.2578 5491.6162 128.3481 -0.272 -0.894 -0.356 145 98 78
-2511.4666 5781.4214 82.1936 -0.135 -0.987 -0.081 130 93 70
-2286.2043 5648.3848 6.5607 0.276 -0.958 0.079 110 81 65
-2240.5889 5624.2197 -9.3294 -0.146 -0.972 0.183 154 125 111
-2030.2389 5218.5244 -21.6917 -0.190 -0.981 0.041 158 129 121
-1848.1123 5250.2861 -111.6818 -0.091 -0.980 -0.179 229 223 227
-1843.2388 5318.9536 -128.1282 0.263 0.008 -0.965 221 213 218
-1881.1494 5443.5000 -136.5462 0.267 0.015 -0.964 219 210 215
-4482.8062 2745.2974 1602.3735 0.864 -0.500 0.064 102 88 72
-4491.5547 2761.0476 1603.0844 0.581 -0.746 -0.325 110 96 80
-4487.8584 2769.7358 1599.5878 0.582 -0.745 -0.327 113 102 89
-3743.4353 2774.2695 1258.9772 0.409 -0.503 -0.761 77 39 21
-3968.6892 3242.0623 1264.3077 0.727 -0.433 -0.534 156 124 109
-3203.6467 2723.3499 1023.2893 -0.418 -0.329 -0.847 178 145 130
-2881.9536 2567.2136 909.0323 0.721 -0.671 0.175 117 66 59
-2871.0398 2567.1731 904.0611 0.695 -0.717 0.056 112 67 57
-2864.8784 2624.9341 889.2172 0.052 -0.965 0.257 58 43 38
-2797.6470 2586.0200 866.6472 0.569 -0.610 0.551 49 37 31
-2762.2214 2591.3240 849.3783 0.624 -0.779 0.053 28 41 24
-2606.8916 2603.9839 775.8669 0.325 0.032 -0.945 114 48 18
-2400.8140 2780.2593 645.1167 0.729 -0.466 0.501 174 97 51
-2290.4902 3102.4434 527.6621 0.474 -0.793 -0.384 133 108 95
-2282.0239 3102.1165 523.8672 0.512 -0.730 -0.452 134 109 98
-2236.9351 3106.6599 502.3476 0.401 -0.532 -0.745 177 91 46
-2325.9617 3341.5601 494.0353 -0.374 -0.911 -0.173 148 63 14
-2196.3091 3444.0693 413.5231 -0.282 -0.956 -0.085 25 23 23
-2716.1199 5659.7207 189.1483 0.741 -0.575 0.348 172 125 109
-2678.8564 5605.5552 183.4291 0.961 -0.257 -0.100 172 125 109
-2825.0513 6025.2930 162.6971 0.812 -0.505 0.293 154 107 89
-2477.8418 5432.4326 127.7741 0.242 -0.772 0.588 152 105 83
-2495.3577 5528.3540 115.7843 0.208 -0.894 0.396 145 98 78
-2275.3164 5650.5654 -10.0749 0.336 -0.942 0.016 137 111 94
-1867.7655 5248.1377 -112.2007 0.232 -0.231 -0.945 131 128 131
-1854.1454 5252.2324 -119.2683 -0.091 -0.980 -0.179 205 200 204
-3756.4556 2153.9036 1385.0039 -0.130 0.179 -0.975 42 33 16
-4496.2363 2664.1584 1614.3136 0.998 -0.012 -0.069 116 105 85
-4526.7866 2691.5496 1622.4585 0.987 -0.129 -0.098 117 106 86
-4547.9761 2713.9299 1627.3989 0.986 -0.162 -0.042 120 106 90
-4495.5112 2738.2100 1598.4608 0.996 -0.053 0.067 104 86 72
-4483.7900 2742.3015 1592.2750 0.864 -0.500 0.064 92 75 59
-4499.8599 2762.2007 1595.4084 0.582 -0.745 -0.327 99 82 67
-4493.3203 2769.2661 1590.9548 0.582 -0.745 -0.327 104 94 81
-4295.3926 2922.7793 1468.8047 -0.271 -0.698 -0.663 33 57 70
-3969.1538 3237.8049 1254.4728 0.649 -0.454 -0.610 151 119 104
-3309.8132 2832.5061 1039.7262 -0.348 -0.185 -0.919 194 161 146
-3298.1145 2833.1729 1034.2687 -0.365 -0.206 -0.908 158 125 110
-3323.3828 2873.4114 1037.3195 -0.385 -0.219 -0.896 101 68 53
-2882.3447 2617.6792 890.4507 0.905 -0.223 0.363 50 40 31
-2877.2751 2622.4895 887.1379 0.904 -0.219 0.367 50 41 32
-2642.8081 2484.7805 809.4267 0.909 -0.409 -0.084 25 33 17
-2514.8145 2465.1526 755.3608 0.413 -0.869 0.272 65 32 11
-2578.5867 2539.4800 768.7679 0.224 0.185 -0.957 77 43 18
-2897.9451 2866.6130 845.3588 0.602 0.051 -0.797 139 69 36
-2903.8379 2911.4751 838.6331 0.798 -0.085 -0.597 150 79 45
-2875.1724 2924.3960 822.8944 0.938 -0.249 0.240 176 88 40
-2388.9326 2763.1780 635.6662 0.711 -0.458 0.534 174 97 51
-2257.8684 2850.5454 557.7755 0.191 -0.754 0.628 182 102 51
-2252.8430 2854.1470 554.7362 0.203 -0.752 0.627 180 103 54
-2240.3035 3105.5715 496.3309 0.387 -0.531 -0.754 177 90 45
-2240.4814 3352.9917 444.5460 0.991 -0.055 0.126 12 13 12
-2212.0225 3391.7493 423.4850 -0.226 -0.967 -0.116 18 18 18
-2223.4475 3453.9863 415.6318 0.524 -0.529 -0.668 22 22 22
-2392.6936 5095.0220 148.5590 0.944 -0.238 -0.229 161 114 96
-2479.1589 5288.5425 147.2953 0.991 -0.079 0.108 161 114 96
-2823.1865 6050.9497 143.8547 0.825 -0.518 0.226 161 114 96
-2480.3579 5425.1157 119.2110 0.242 -0.772 0.588 153 106 86
-2466.9150 5416.5469 114.8967 -0.239 -0.888 -0.393 151 104 84
-2248.5400 5594.0757 -21.5820 0.464 -0.885 0.023 146 120 103
-1860.1837 5254.1812 -126.8613 -0.091 -0.980 -0.179 210 205 209
-3614.5640 2020.2186 1339.8192 0.330 -0.878 0.346 50 46 37
-4504.7915 2707.8330 1597.9044 0.086 -0.836 0.542 141 124 108
-4485.7056 2718.4658 1587.0187 0.910 -0.349 -0.225 117 99 85
-4488.0093 2730.4402 1585.5361 0.992 -0.119 -0.038 109 91 77
-4484.4141 2760.5867 1577.5491 0.558 -0.676 0.481 107 99 85
-4469.9629 2763.0740 1570.4803 0.550 -0.681 0.484 100 93 82
-4445.4683 2781.2410 1555.5563 -0.175 -0.982 -0.069 44 40 31
-4359.2495 2773.6638 1518.1117 0.026 -1.000 -0.007 33 30 23
-3792.9990 3054.8577 1202.3790 0.752 -0.614 0.239 152 122 111
-3816.8840 3083.8240 1207.0850 0.801 -0.334 0.496 152 122 111
-3833.0305 3140.5940 1202.4219 0.909 -0.066 0.411 145 112 97
-2283.5886 2885.2512 554.6389 -0.225 -0.962 0.155 180 103 54
-2324.5093 3031.9338 542.2287 0.977 0.063 0.202 116 108 95
-2248.5747 3110.7712 491.2131 0.382 -0.513 -0.768 177 90 45
-2703.9197 5550.8008 182.7209 0.299 -0.768 -0.566 176 130 113
-2689.8481 5542.8574 178.0243 0.625 -0.542 -0.562 175 129 113
-2746.6262 5755.7900 158.8204 0.940 -0.128 -0.317 162 117 98
-2744.4907 5772.0474 154.4242 0.153 -0.718 -0.679 161 116 97
-2484.9473 5288.2573 138.9419 0.991 -0.088 0.101 163 116 98
-2507.2136 5352.3433 135.5069 0.931 0.016 -0.366 164 117 99
-2508.3074 5451.0737 115.1764 -0.018 -0.920 0.391 153 106 86
-2229.8359 4998.7246 84.4910 0.259 -0.136 -0.956 140 95 74
-2203.7896 4961.2173 80.6078 0.040 -0.763 -0.645 139 97 75
-2189.5933 4966.5640 73.0514 0.741 -0.046 -0.670 137 95 73
-2513.4919 5871.5254 28.8360 0.987 -0.127 0.098 125 91 66
-2313.1016 5732.4404 -32.5701 -0.460 -0.392 -0.797 147 121 104
-1904.5891 5276.7695 -121.4422 0.120 -0.304 -0.945 222 213 214
-1876.5068 5263.2603 -131.3092 0.090 -0.964 -0.252 230 225 229
-1871.2950 5269.6230 -135.0115 0.060 -0.984 -0.167 229 224 228
-3624.9409 2014.8762 1336.9390 0.014 -0.578 -0.816 54 50 41
-3620.5005 2020.7318 1333.6930 0.316 -0.882 0.349 53 49 40
-3607.7251 2022.3665 1327.5829 -0.236 -0.493 -0.837 51 47 36
-4538.2446 2680.3328 1607.7096 -0.023 0.206 -0.978 133 122 102
-4445.4878 2671.3513 1567.7714 0.136 -0.832 0.538 127 114 97
-4478.7158 2711.0420 1574.3372 0.843 -0.463 -0.275 118 104 87
-4458.1836 2752.7434 1556.2238 0.570 -0.680 0.461 57 49 39
-4442.6279 2754.5186 1548.8297 0.621 -0.614 0.488 43 38 29
-4448.3745 2768.5540 1548.4431 0.462 -0.877 0.132 37 33 24
-4455.6919 2783.5557 1548.5602 -0.175 -0.982 -0.069 37 33 24
-4428.2881 2778.3921 1537.2938 -0.094 -0.990 -0.107 38 31 21
-4382.7617 2773.2029 1517.8574 -0.075 -0.992 -0.097 37 33 24
-3648.3762 3125.0386 1111.8879 -0.364 -0.198 -0.910 159 126 111
-2640.0598 2569.7493 774.8731 0.350 -0.126 -0.928 122 66 37
-2912.5361 2900.8457 827.5198 0.569 -0.691 -0.446 168 89 45
-2381.5786 2746.6011 620.7321 0.753 -0.411 0.514 171 97 52
-2328.0054 3041.1030 534.0584 0.535 -0.615 0.579 97 87 75
-2261.2312 3029.7942 506.3355 0.605 -0.744 0.284 42 22 9
-2258.9543 3037.0190 503.7750 0.911 -0.356 0.207 58 39 26
-2264.2410 3135.7986 485.1947 0.144 -0.490 -0.860 178 91 46
-2426.1553 3468.5481 487.6140 -0.529 -0.523 -0.669 165 79 30
-2209.8140 3320.3428 421.4736 -0.243 -0.951 0.194 15 15 15
-2233.8542 3365.1230 422.8144 -0.170 -0.878 0.449 24 24 24
-2098.1836 3382.5869 357.9042 -0.572 -0.793 -0.209 201 168 162
-2762.9395 5775.3794 149.9368 0.128 -0.254 -0.959 171 124 106
-2819.6343 5973.1523 133.5372 0.552 -0.755 0.354 169 122 104
-2215.9512 4975.5161 72.9448 0.061 -0.774 -0.630 141 99 75
-2198.7864 4956.7896 69.1759 0.004 -0.721 -0.693 141 99 75
-2421.8577 5695.0703 13.1134 -0.113 -0.990 0.087 125 93 70
-2410.5085 5690.4019 8.9844 0.060 -0.988 0.143 123 93 69
-2329.4302 5714.1616 -32.6344 -0.409 -0.437 -0.801 130 104 87
-2050.2942 5392.5854 -90.3059 -0.372 -0.298 -0.879 191 165 164
-1905.7396 5265.7593 -128.5993 0.572 -0.366 -0.734 231 222 223
-1902.8334 5278.2656 -132.5647 0.572 -0.366 -0.734 230 225 227
-1902.1063 5296.5571 -136.7749 0.586 -0.394 -0.708 227 225 228
-1892.9160 5292.5610 -140.0728 0.139 -0.947 -0.290 226 224 226
-1895.2588 5319.0977 -144.6480 0.262 -0.867 -0.424 227 225 228
-3554.9270 2009.1327 1298.0100 0.911 -0.277 -0.306 52 48 39
-4483.2515 2710.0967 1565.5144 0.889 -0.458 0.010 102 86 70
-4487.6646 2723.2124 1564.6969 0.991 -0.134 -0.022 80 64 48
-4474.9907 2726.7195 1558.2523 0.615 -0.563 0.552 70 57 38
-4466.9780 2732.8389 1553.3447 0.665 -0.435 0.608 58 45 27
-4457.1606 2737.9185 1547.8479 0.681 -0.411 0.606 48 37 24
-4433.1748 2756.1929 1533.1661 0.521 -0.622 0.584 36 32 23
-4296.4844 2966.9546 1426.7296 -0.197 -0.467 -0.862 10 20 23
-3808.2407 2772.8203 1248.7676 -0.541 -0.768 -0.344 78 81 93
-3855.2136 3048.8022 1210.9425 0.981 -0.151 -0.121 147 117 106
-3770.6101 3040.3577 1174.7245 0.945 -0.214 0.247 143 113 102
-3975.0398 3321.9043 1206.4729 -0.451 -0.573 -0.685 158 125 110
-2794.3425 2515.7920 848.0051 -0.101 -0.907 -0.408 28 22 9
-2920.6548 2903.9602 821.8784 0.599 -0.694 -0.399 174 88 39
-2328.8804 3037.0283 527.5164 0.515 -0.631 0.581 66 56 44
-2321.8755 3038.6248 524.0275 0.039 -0.909 0.415 85 73 61
-2263.9336 3027.9697 500.2635 0.611 -0.750 0.252 34 12 4
-2260.8931 3034.2363 497.5587 0.911 -0.358 0.203 27 7 1
-2211.0056 3315.9790 414.9740 -0.245 -0.949 0.199 12 12 12
-2183.6978 3310.7927 403.8092 0.578 -0.510 0.637 32 32 32
-2175.5503 3310.3147 400.2498 0.576 -0.512 0.638 37 37 37
-2704.6824 5508.1748 168.6990 0.998 -0.063 0.014 183 134 119
-2689.8284 5498.7119 164.0444 0.631 -0.702 -0.332 175 126 111
-2686.1545 5510.9873 159.7719 0.637 -0.692 -0.338 170 121 106
-2707.0769 5591.3296 152.0178 0.982 0.094 0.166 169 120 105
-2736.1641 5688.8247 144.2700 0.796 0.231 -0.559 169 120 105
-2766.3398 5769.1572 140.6763 0.144 -0.511 -0.847 172 123 106
-2785.2354 5827.4702 136.7155 0.088 -0.696 -0.713 173 124 107
-2484.5884 5454.7451 81.1976 0.050 -0.946 -0.320 157 109 89
-2466.4519 5436.2979 76.9864 0.772 -0.629 -0.094 156 109 89
-2227.9824 4989.4688 65.2360 0.255 -0.565 -0.785 146 104 80
-2419.3950 5717.4355 -4.1971 0.740 -0.476 -0.476 121 93 71
-2436.1753 5776.3022 -9.2267 0.522 -0.197 -0.830 122 94 72
-2424.5518 5771.1226 -13.3443 0.669 -0.447 -0.594 120 92 70
-2418.6980 5778.9824 -17.6535 0.642 -0.453 -0.618 119 91 69
-2403.7732 5808.6401 -30.6941 -0.389 -0.422 -0.819 116 89 70
-2054.4709 5409.3755 -102.4104 -0.401 -0.333 -0.853 186 160 159
-2021.7418 5388.1621 -112.5890 -0.360 -0.366 -0.858 168 150 148
-1922.1835 5274.5581 -133.0712 0.386 -0.183 -0.904 237 225 223
-1923.1514 5297.1836 -137.4678 0.368 -0.199 -0.908 233 225 226
-1913.4238 5312.1768 -145.0411 0.163 -0.899 -0.407 227 225 229
-1899.4503 5295.6602 -147.7938 0.142 -0.940 -0.311 227 225 228
-1903.1523 5325.7534 -152.5564 0.271 -0.891 -0.365 226 224 227
-1877.4579 5277.8994 -153.8845 0.078 -0.992 -0.099 226 224 227
-1862.8181 5259.1104 -156.4513 0.018 -0.973 -0.232 228 223 229
-3947.7727 2852.6021 1284.1178 -0.530 -0.710 -0.463 103 119 146
-4023.6240 3179.9993 1247.7352 0.527 0.369 -0.766 142 112 101
-3812.3621 3078.4053 1174.9821 0.873 -0.307 -0.379 137 107 95
-2927.4331 2541.3862 894.1838 -0.187 -0.975 0.118 155 122 107
-2798.5110 2524.3083 840.1356 0.353 -0.228 -0.908 18 14 4
-2678.8738 2641.1746 761.4664 0.836 0.319 -0.447 175 84 33
-2316.3479 3026.8135 516.3124 0.218 -0.888 0.406 42 32 20
-2310.3318 3029.5498 513.0311 0.062 -0.904 0.423 54 44 32
-2262.7820 3021.3909 493.4963 0.539 -0.824 0.175 72 49 42
-2257.6082 3024.9893 490.4070 0.868 -0.434 0.241 42 23 17
-2226.0488 3330.9058 410.5525 -0.371 -0.925 0.086 12 12 12
-2171.0432 3308.9050 390.6537 0.406 -0.748 0.525 20 20 20
-2164.2329 3310.2542 387.3149 0.406 -0.748 0.525 13 13 13
-2704.2612 5514.6016 155.4813 0.957 -0.214 0.194 174 127 111
-2700.6182 5526.9858 151.1896 0.957 -0.214 0.194 169 122 106
-2729.9614 5643.7837 139.2326 0.773 0.256 -0.581 175 127 113
-2956.3003 6333.8491 92.3033 0.291 -0.825 0.484 163 116 96
-2491.3867 5555.0684 51.4848 0.639 -0.721 0.266 152 111 87
-2508.8628 5612.3320 47.0056 0.735 -0.092 -0.672 150 110 86
-2173.1863 5021.7227 23.6173 0.013 -0.934 0.356 132 98 73
-2261.8145 5253.4785 13.5030 -0.090 -0.941 0.327 128 94 69
-2156.9497 5363.6216 -57.1081 0.491 -0.807 0.328 159 131 117
-2043.1246 5428.0596 -121.9111 -0.363 -0.377 -0.852 166 146 145
-4002.5085 3159.9612 1231.7936 0.915 0.103 -0.390 135 105 94
-3771.9631 3000.4958 1163.4420 0.941 -0.336 -0.039 135 105 94
-4150.4766 3292.7991 1269.0723 0.562 0.125 -0.817 132 102 91
-3725.5381 3041.0667 1133.9680 0.977 -0.097 0.190 142 109 94
-2806.5735 2527.3567 835.1620 0.335 -0.266 -0.904 27 19 8
-2685.5569 2555.0547 775.2038 0.281 -0.902 0.328 143 68 45
-2309.5801 3023.5295 506.2644 0.093 -0.842 0.531 48 38 26
-2294.3621 3015.0457 501.3112 0.055 -0.901 0.430 38 30 17
-2264.8098 3018.7554 487.3295 0.539 -0.824 0.175 199 181 174
-2257.6936 3019.9443 483.8987 0.865 -0.438 0.245 157 141 133
-2271.2705 3118.1545 468.7260 0.161 -0.446 -0.880 179 93 46
-2274.6909 3132.8564 467.0736 0.067 -0.537 -0.841 179 92 47
-2475.8616 3539.5601 468.8843 -0.480 -0.402 -0.780 189 109 74
-2282.6643 3358.5469 421.8471 -0.280 -0.733 -0.620 8 12 8
-2169.6741 3300.9368 383.9075 0.389 -0.767 0.510 20 20 20
-2207.9595 3434.1650 372.1852 -0.358 -0.912 -0.201 18 19 15
-2670.3201 5379.5352 157.9029 0.926 0.363 -0.102 182 136 122
-2704.1138 5463.5454 154.8158 0.914 0.342 -0.217 180 136 121
-2732.8411 5597.1934 138.7399 0.943 -0.172 0.286 177 132 116
-2960.7251 6328.4106 82.3214 0.293 -0.827 0.480 163 118 99
-2399.8611 5291.1274 56.3918 0.194 -0.977 -0.083 164 120 102
-2584.1997 5759.4189 37.3835 0.680 -0.044 -0.732 154 116 94
-2165.8118 4993.7739 16.2819 -0.019 -0.999 0.049 132 100 75
-2353.8152 5502.8110 -9.8989 -0.311 -0.948 0.060 125 94 73
-2386.6326 5678.2822 -33.1907 0.738 -0.665 -0.116 122 94 72
-2383.4373 5691.8101 -37.5397 0.681 -0.719 -0.140 122 94 72
-2387.8110 5722.6611 -42.2575 0.592 -0.793 -0.143 122 94 73
-2368.6118 5699.6714 -45.8509 0.675 -0.727 0.128 122 95 76
-2119.8276 5321.5420 -75.0726 -0.229 -0.536 -0.813 159 129 121
-1896.4039 5199.9409 -148.4322 0.072 -0.963 0.259 233 218 222
-1781.1012 5292.2754 -219.8133 -0.284 -0.485 -0.827 231 222 227
-4429.8652 2680.3376 1515.1760 0.921 0.050 0.386 33 26 16
-4434.7681 2693.5764 1514.4756 0.922 0.049 0.384 31 27 15
-3852.9021 3023.4993 1184.2250 0.679 -0.725 0.111 134 105 92
-3942.6846 3145.0867 1197.6748 0.889 -0.092 -0.448 130 102 88
-3950.0127 3173.1707 1194.8237 0.907 -0.299 -0.298 129 101 87
-3761.2561 3042.1941 1139.4436 0.976 -0.198 -0.086 144 112 97
-2812.3352 2545.9429 825.7663 0.401 -0.751 -0.525 56 37 29
-2242.6091 2823.4766 512.3011 0.105 -0.839 0.534 175 97 50
-2285.1443 3008.6965 490.9234 0.057 -0.901 0.431 51 45 31
-2266.8340 3016.1243 481.1734 0.539 -0.824 0.175 200 186 181
-2256.8086 3013.7192 477.2423 0.576 -0.791 0.205 185 173 168
-2260.6575 3028.4553 475.7480 0.804 0.290 -0.519 151 134 126
-2280.5618 3073.3635 474.8259 0.713 0.284 -0.641 40 16 6
-2288.0278 3092.8865 473.8978 0.718 0.279 -0.637 47 23 10
-2270.7209 3112.0779 462.0356 0.609 -0.415 -0.676 179 93 46
-2272.5645 3124.7319 460.1031 0.766 -0.400 -0.503 179 93 46
-2166.0596 3289.8311 376.8853 0.427 -0.747 0.509 25 25 23
-2161.3271 3294.0710 373.8608 0.375 -0.770 0.516 20 22 21
-2808.3037 5438.2280 195.0616 0.650 -0.054 -0.758 193 153 143
-2650.8809 5330.5508 148.5359 0.926 0.360 -0.116 174 131 119
-2747.5315 5653.1826 121.3210 0.491 0.090 -0.866 180 138 122
-2858.7634 5913.2939 114.1789 0.316 0.013 -0.949 179 137 121
-2668.2034 5777.4424 59.0575 0.604 0.153 -0.782 171 125 110
-2646.9854 5921.6338 18.2770 0.389 -0.904 0.177 155 117 98
-2292.1716 5257.0933 5.1423 -0.155 -0.957 0.245 138 106 84
-2198.4851 5126.5679 -8.0985 -0.251 -0.295 -0.922 130 98 75
-2299.6074 5369.4287 -15.9809 -0.258 -0.313 -0.914 130 99 78
-2234.8965 5263.9155 -21.7873 -0.374 -0.927 0.007 129 102 81
-2320.8044 5515.7690 -38.3846 -0.313 -0.946 0.078 129 101 79
-1911.5050 5245.1411 -161.3806 -0.114 -0.993 -0.008 235 219 229
-1778.7454 5210.0063 -212.7229 -0.122 -0.155 -0.980 203 194 199
-1780.3242 5234.6182 -217.3732 -0.123 -0.170 -0.978 203 193 201
-1794.4749 5315.0396 -228.5736 -0.284 -0.485 -0.827 222 213 218
-3636.6125 2057.0410 1289.5797 -0.363 -0.547 -0.754 57 55 44
-4355.4497 2624.9956 1483.4847 0.950 0.117 0.291 24 25 18
-3886.5095 3098.8647 1172.2892 0.916 0.174 -0.361 135 108 91
-3905.3252 3157.6421 1167.7595 0.041 -0.970 -0.238 152 120 107
-2818.7705 2547.6382 820.3096 0.390 -0.756 -0.526 108 80 67
-2692.0984 2544.6399 764.9034 0.109 -0.980 -0.169 140 80 50
-2189.7522 2821.9097 481.9273 0.188 -0.811 0.554 44 26 6
-2237.3020 2897.3381 486.4724 0.662 0.464 -0.589 45 38 20
-2257.7795 3009.8032 470.9346 0.572 -0.795 0.203 89 79 81
-2277.4490 3054.1431 469.9409 0.758 0.323 -0.566 82 58 51
-2288.7344 3078.2996 469.6516 0.775 0.308 -0.552 73 47 34
-2293.7356 3094.7329 468.2704 0.718 0.279 -0.637 72 43 28
-2288.5537 3119.0061 460.6674 0.572 -0.817 -0.071 174 95 49
-2274.5361 3111.5564 456.0931 0.815 -0.337 -0.472 177 94 46
-2306.8909 3163.0110 459.1574 0.090 -0.839 -0.536 177 93 45
-2189.8479 3262.8164 385.5255 -0.141 -0.934 0.329 7 7 5
-2199.2903 3319.6125 377.2809 -0.313 -0.946 -0.085 25 25 23
-2171.0505 3290.8835 371.0669 0.481 -0.735 0.478 26 26 26
-2184.1321 3320.2991 370.4221 0.326 -0.840 0.433 22 24 23
-2182.7456 3329.3704 367.8242 -0.055 -0.995 0.083 15 17 16
-2690.3262 5413.1963 136.6502 0.904 0.351 -0.243 173 131 119
-2726.7092 5521.5718 129.0463 0.984 0.177 -0.032 173 131 117
-1956.5603 4207.0195 75.7429 0.804 0.195 -0.561 177 134 118
-2658.2034 5743.6006 50.1608 0.633 0.174 -0.755 169 126 110
-2509.5503 5456.4639 47.1788 -0.119 -0.954 0.275 169 126 110
-2425.5278 5339.3472 35.6106 -0.173 -0.923 0.343 163 121 105
-2651.6917 5917.8325 9.1672 0.389 -0.904 0.177 154 117 99
-2686.8521 6079.8174 -10.7042 0.159 -0.779 0.607 143 111 90
-2704.8513 6140.9155 -16.1029 0.108 -0.847 0.521 145 111 91
-2364.1287 5440.0742 -13.5960 -0.171 -0.449 -0.877 135 103 82
-2337.5864 5401.4658 -16.8979 -0.184 -0.460 -0.869 136 104 83
-2209.8953 5195.5957 -28.3787 -0.327 -0.427 -0.843 130 102 80
-2275.6992 5361.6899 -35.5871 -0.229 -0.962 0.146 129 101 79
-2099.0227 5284.6631 -96.9308 -0.309 -0.642 -0.702 162 132 124
-2070.2209 5235.2300 -98.8648 -0.325 -0.662 -0.676 171 142 134
-2044.6760 5212.4434 -105.1860 -0.077 -0.347 -0.935 196 165 160
-2041.8264 5244.2949 -113.4144 -0.064 -0.364 -0.929 194 160 159
-1894.6647 5247.1040 -179.1590 0.499 0.089 -0.862 235 220 221
-1964.3356 5576.7476 -220.4307 0.440 0.056 -0.896 229 217 219
-1959.5784 5585.3721 -224.4227 0.823 -0.294 0.485 221 209 211
-1717.8401 4970.0806 -196.8210 0.414 0.055 -0.909 214 202 204
-1758.1627 5099.5063 -207.2858 0.414 0.055 -0.909 212 201 205
-1811.0872 5284.8999 -224.4158 0.326 -0.054 -0.944 213 203 211
-1807.9686 5338.0078 -237.4129 -0.284 -0.485 -0.827 222 215 222
-2701.1733 2548.8020 760.2745 0.046 -0.982 -0.185 145 89 60
-2677.9626 2563.2817 746.8555 0.243 -0.967 -0.074 163 91 39
-2669.1953 2564.2590 742.7750 0.166 -0.775 -0.610 166 88 38
-2600.8501 2863.8601 646.7211 0.925 -0.069 -0.373 157 84 41
-2249.0684 2668.0381 534.7166 0.939 0.196 -0.283 172 95 45
-2119.7288 2543.9221 505.0034 0.959 0.251 -0.131 174 96 43
-2149.1292 2627.4165 499.5938 0.985 0.155 0.080 174 97 43
-2192.6101 2702.6152 502.2173 0.639 -0.724 -0.260 178 99 48
-2198.6519 2718.3738 501.4135 0.779 -0.543 -0.314 178 99 48
-2232.3452 2774.8284 503.8463 0.814 -0.507 -0.283 178 98 47
-2207.7920 2783.1294 491.1948 0.671 -0.671 0.315 180 98 60
-2230.8491 2875.3396 481.0708 0.655 0.436 -0.617 48 29 7
-2244.2734 2900.8250 481.3817 0.662 0.464 -0.589 44 28 11
-2263.6006 3011.8696 465.4691 0.657 -0.716 0.237 73 56 54
-2270.0515 3029.7786 464.3726 0.777 0.319 -0.543 84 60 55
-2284.8738 3058.1506 464.6646 0.763 0.325 -0.559 102 71 58
-2292.8728 3078.2007 463.7795 0.775 0.308 -0.552 113 80 62
-2294.6140 3090.5459 461.8307 0.761 0.287 -0.582 112 74 55
-2296.0171 3123.0645 455.2942 0.722 -0.692 -0.015 175 94 50
-2284.5679 3118.9026 451.1622 0.795 -0.600 0.095 177 94 47
-2324.3110 3179.6814 455.3107 0.699 -0.482 -0.527 176 93 46
-2382.7139 3419.5757 428.2744 -0.418 -0.852 -0.316 30 0 2
-2360.7866 3401.4915 422.5863 -0.410 -0.873 -0.264 28 4 6
-2327.6018 3379.2524 412.8492 -0.409 -0.581 -0.704 15 5 0
-2223.1448 3324.8918 378.7578 -0.288 -0.955 -0.075 13 13 11
-2213.3206 3322.2202 375.0144 -0.288 -0.955 -0.075 20 20 18
-2205.3918 3322.1462 371.5351 -0.313 -0.946 -0.085 25 25 23
-2172.9299 3287.5588 364.8338 0.465 -0.748 0.475 27 27 27
-2167.4673 3290.7661 361.7198 0.530 -0.654 0.540 22 24 23
-2580.5063 5137.2222 137.5372 0.594 -0.705 0.387 183 143 133
-2681.8906 5385.2422 127.6625 0.904 0.351 -0.243 177 138 123
-2723.3552 5522.3428 115.7765 0.124 -0.980 -0.154 179 137 125
-2732.7007 5579.4917 107.3221 0.191 -0.979 0.063 179 137 123
-2045.8533 4408.2080 62.2289 0.631 0.067 -0.773 177 134 118
-2631.5911 5675.7417 41.5672 -0.195 -0.953 0.230 169 126 110
-2467.7935 5396.0532 30.8935 0.168 -0.949 -0.267 166 125 109
-2486.1189 5453.5762 26.3158 0.103 -0.994 -0.039 161 122 105
-2671.9109 5968.4453 -5.0613 0.291 -0.934 0.207 153 118 99
-2707.6709 6088.4521 -15.7011 0.602 -0.767 0.224 150 117 98
-2699.6189 6093.0635 -20.2657 0.166 -0.787 0.595 150 118 97
-2715.5500 6149.6035 -25.6827 0.109 -0.856 0.506 151 119 98
-2341.2595 5396.7329 -25.0417 -0.167 -0.476 -0.863 142 110 89
-2231.4241 5231.0786 -37.0162 -0.320 -0.434 -0.842 129 101 79
-2309.0110 5482.5957 -58.1521 -0.139 -0.971 0.196 129 101 79
-2074.3940 5290.4604 -119.3129 -0.009 -0.488 -0.873 197 163 161
-2060.4595 5276.2891 -122.3382 -0.066 -0.360 -0.931 194 158 158
-1913.5100 5262.4775 -184.0856 0.545 0.099 -0.832 235 223 211
-1986.8015 5494.6772 -202.8648 0.561 0.103 -0.821 228 216 204
-1826.8098 5313.6826 -233.5764 0.342 -0.048 -0.938 225 217 225
-1821.5847 5361.1851 -246.3321 -0.284 -0.485 -0.827 227 220 227
-4292.1914 2454.3462 1472.2002 0.305 0.297 -0.905 124 120 109
-3631.2153 2869.9004 1089.9414 0.831 -0.426 0.358 136 109 92
-3617.0020 2869.6785 1083.7484 0.890 -0.304 0.340 136 109 92
-3620.4683 2882.4780 1082.4379 0.897 -0.285 0.337 145 118 101
-3648.2107 2913.3438 1087.7905 0.934 -0.192 0.302 147 120 103
-3771.1550 3026.0796 1116.8340 0.872 0.005 -0.490 147 120 103
-2614.2290 2873.0027 642.6158 0.931 -0.082 -0.356 157 84 41
-2154.4124 2603.3401 500.3566 0.392 -0.920 0.024 170 99 49
-2150.4641 2607.5173 497.6981 0.402 -0.915 0.036 170 99 49
-2144.9260 2609.9211 494.7339 0.368 -0.930 0.015 170 99 49
-2175.6792 2696.7734 489.0176 0.860 -0.145 -0.490 175 100 53
-2161.4185 2689.3662 484.3940 0.821 -0.355 -0.448 175 99 52
-2188.0391 2728.6936 487.3811 0.889 -0.347 -0.300 174 99 52
-2207.9810 2760.5884 489.0801 0.809 -0.588 0.017 174 99 54
-2201.8577 2771.7024 483.9311 0.745 -0.666 -0.028 177 103 61
-2198.9812 2777.4819 481.3886 0.760 -0.650 0.003 172 101 63
-2200.4634 2788.3484 479.6346 0.551 -0.802 0.230 166 102 69
-2196.3840 2792.7520 476.8683 0.583 -0.786 0.206 140 86 60
-2198.1831 2804.0525 475.1575 0.911 -0.221 -0.347 68 25 7
-2188.9019 2802.3469 471.4588 0.569 -0.793 0.216 38 3 0
-2364.9695 3389.8196 418.7625 0.994 -0.060 0.088 22 0 0
-2333.9844 3370.6763 409.3912 -0.447 -0.873 -0.198 18 9 4
-2171.3154 3236.2490 367.7025 -0.137 -0.947 0.290 10 10 8
-2169.1350 3243.9387 365.0429 0.022 -0.978 0.210 13 13 11
-2213.3535 3316.2717 368.4537 0.507 -0.751 0.423 20 20 18
-2209.4104 3321.7588 365.5076 0.495 -0.752 0.436 25 25 23
-2733.4268 5588.2070 94.0260 0.695 -0.709 0.121 181 139 125
-2673.8848 5958.7354 -14.1303 0.231 -0.966 0.115 156 119 101
-2711.1279 6125.5698 -34.6983 0.120 -0.853 0.508 153 121 100
-2319.7747 5337.0415 -32.0524 -0.347 -0.450 -0.822 147 115 94
-2334.6335 5507.0771 -63.1595 -0.330 -0.928 0.173 128 100 78
-2302.5176 5454.7876 -65.6914 -0.093 -0.993 0.079 126 98 76
-1964.4211 5300.1274 -179.9463 -0.137 -0.969 -0.206 215 191 185
-1969.4917 5333.1182 -185.0210 0.332 -0.745 -0.579 226 208 195
-1970.1328 5354.9131 -189.5632 0.338 -0.767 -0.546 229 215 196
-1987.0690 5418.9292 -196.2935 0.702 -0.435 -0.565 226 217 195
-1840.0328 5115.7876 -193.7762 0.696 0.185 -0.694 224 213 191
-1842.2782 5300.6553 -233.7057 0.664 0.062 -0.745 241 230 234
-1856.3137 5359.3979 -240.5427 0.682 0.058 -0.729 237 228 233
-1858.0016 5405.5205 -250.0094 0.338 -0.075 -0.938 232 227 233
-1866.0996 5448.8228 -256.0368 0.368 -0.083 -0.926 232 227 233
-1848.4150 5420.8892 -257.6211 -0.293 -0.541 -0.788 231 224 231
-3915.7012 2998.0874 1176.1672 0.816 -0.428 -0.388 95 88 82
-2683.4700 2534.7349 740.2319 0.646 -0.682 -0.343 110 63 40
-2678.4836 2547.6318 735.1796 0.639 -0.690 -0.340 145 87 44
-2683.0024 2560.2332 734.3513 0.502 -0.858 -0.113 156 94 49
-2677.5178 2564.0981 731.0914 0.465 -0.879 -0.105 165 97 54
-2608.6655 2853.3799 636.5720 0.684 0.113 -0.721 152 79 36
-2612.2820 2866.5703 635.2177 0.684 0.113 -0.721 151 78 35
-2550.3599 2813.1108 620.0285 0.508 -0.668 -0.544 146 73 30
-2540.1592 2812.0627 615.7991 0.586 -0.513 -0.627 141 68 25
-2513.2905 2793.8845 608.0912 0.944 -0.329 -0.029 134 61 18
-2157.0767 2593.6055 496.8373 0.217 -0.969 -0.120 162 96 50
-2150.3411 2594.6909 493.6490 0.224 -0.968 -0.117 162 96 50
-2147.6023 2600.1787 491.2292 0.221 -0.969 -0.109 162 96 50
-2131.7571 2591.1030 486.3174 0.241 -0.969 -0.047 162 96 50
-2139.4805 2625.3743 482.0671 0.728 -0.668 -0.155 167 98 55
-2141.4221 2636.1804 480.5110 0.854 -0.514 -0.082 167 98 55
-2142.7952 2646.3867 478.8397 0.815 -0.437 -0.382 167 98 55
-2144.8059 2657.3560 477.2774 0.829 -0.245 -0.503 167 98 55
-2138.6428 2667.7842 472.2598 0.839 -0.233 -0.491 168 99 56
-2200.3730 2774.5471 475.4990 0.752 -0.658 -0.035 161 98 59
-2196.6672 2788.4937 470.7732 0.897 -0.182 -0.402 152 99 70
-2195.9485 2796.8179 468.6057 0.897 -0.182 -0.402 112 65 44
-2189.2104 2816.5129 461.2735 0.460 -0.690 -0.559 54 13 4
-2357.6960 3189.8770 451.8683 0.703 0.420 -0.574 177 93 46
-2718.9932 3792.1584 475.8554 0.495 -0.753 0.433 92 40 17
-2695.1504 3773.4534 469.5885 0.614 -0.722 0.319 62 17 3
-2676.9236 3761.9827 464.1681 0.820 -0.532 0.212 39 1 0
-2385.7061 3422.7878 412.2734 0.991 0.130 0.010 14 4 2
-2169.9946 3239.3052 358.7484 0.031 -0.977 0.213 7 7 5
-2179.0066 3262.5513 357.5161 0.657 -0.727 0.199 14 14 12
-2207.2305 3312.7251 358.6943 0.536 -0.744 0.400 19 19 17
-2317.0369 4586.9219 123.0817 0.931 0.365 0.025 181 141 131
-2750.8452 5551.0771 98.2339 0.115 -0.993 -0.004 195 153 139
-2737.5881 5564.4287 89.4620 0.184 -0.983 0.026 184 142 128
-2717.5037 5544.9092 85.0206 0.187 -0.982 -0.003 184 142 128
-2633.1453 5553.9316 46.1066 0.013 -0.064 -0.998 187 144 128
-2410.9841 5291.2700 7.3860 -0.010 -0.996 -0.093 167 130 112
-2717.1746 6058.5332 -29.4621 0.965 0.228 -0.130 159 124 104
-2729.3359 6106.3540 -34.7873 0.994 0.067 -0.090 157 122 102
-2328.2495 5459.8086 -66.3280 -0.245 -0.957 0.154 137 109 87
-2308.2952 5454.6777 -73.9155 -0.093 -0.993 0.079 122 94 72
-2110.6011 5311.7422 -128.5846 0.675 -0.608 0.418 173 143 135
-2091.1475 5284.7568 -131.0880 0.719 -0.538 0.440 180 147 142
-2008.3792 5298.1860 -170.2874 -0.465 -0.484 -0.742 172 144 143
-1995.9506 5286.8442 -173.2000 -0.476 -0.503 -0.721 164 138 138
-1981.8665 5330.8086 -189.1485 0.332 -0.745 -0.579 182 160 153
-1976.1409 5336.2446 -192.8635 0.332 -0.745 -0.579 201 183 172
-1978.2295 5361.7275 -197.6226 0.341 -0.770 -0.539 207 193 177
-1972.3848 5366.9131 -201.3339 0.341 -0.770 -0.539 203 193 174
-1875.8331 5377.3262 -245.8919 0.529 -0.049 -0.847 248 238 239
-1882.5482 5416.2964 -251.6294 0.521 -0.018 -0.853 243 234 237
-1887.6903 5451.2231 -257.1550 0.541 -0.069 -0.838 235 229 233
-1894.1339 5489.9468 -262.9563 0.579 -0.111 -0.808 233 228 234
-1897.2098 5519.6455 -268.2219 0.568 -0.189 -0.801 235 228 235
