ply
format ascii 1.0
element vertex 788
property float x
property float y
property float z
property float nx
property float ny
property float nz
property uchar diffuse_red
property uchar diffuse_green
property uchar diffuse_blue
end_header
-2176.9326 3346.7100 260.2649 0.597 -0.769 0.231 49 50 55
-2175.2551 3353.7437 255.6616 0.580 -0.754 0.309 50 49 55
-2261.8379 3522.0796 241.3397 0.368 -0.930 -0.009 47 46 52
-1982.5621 4909.5337 -627.6537 0.652 -0.071 0.755 246 196 197
-1940.1466 4889.4155 -650.1955 0.991 -0.099 0.086 235 172 163
-1794.4258 4665.0791 -654.0516 -0.207 -0.845 0.493 205 147 131
-1713.8301 4621.9429 -694.5572 0.292 -0.308 0.905 133 81 73
-1689.6910 4619.5298 -711.6697 0.227 -0.495 0.839 198 146 140
-1681.7959 4619.0371 -717.4073 0.652 -0.596 0.468 209 156 150
-909.4827 4475.0239 -1233.2451 0.860 -0.490 0.143 224 31 50
-611.8154 3436.2517 -965.9080 0.547 -0.479 0.686 253 45 76
-716.5771 4173.9727 -1236.4186 -0.004 -1.000 0.025 248 100 126
-503.0243 4084.6975 -1355.6075 -0.164 -0.800 -0.577 250 54 80
-497.4633 4121.2617 -1377.1481 0.112 -0.823 -0.556 245 72 102
-491.1753 4117.1860 -1379.9714 0.097 -0.782 -0.615 243 91 121
-486.3662 4122.7007 -1386.2231 0.097 -0.782 -0.615 253 126 149
-471.5079 4136.7202 -1404.1071 0.129 -0.755 -0.643 244 116 134
-465.6232 4135.1313 -1407.8047 0.103 -0.504 0.857 237 103 120
-291.0737 3340.7283 -1163.2035 -0.221 -0.884 -0.412 230 39 60
-2910.2375 2658.0593 1132.3683 0.800 -0.438 -0.411 163 156 158
-2837.2312 2644.5713 1083.6530 0.073 -0.861 -0.504 115 87 78
-2803.7017 2639.8923 1060.5574 0.191 -0.970 0.148 137 112 103
-2770.3262 2617.7693 1045.8904 -0.487 -0.862 0.139 155 135 127
-2949.3188 2887.2559 1052.6709 0.774 -0.608 0.176 81 61 38
-2945.0808 2890.0420 1048.1425 0.774 -0.609 0.174 84 60 40
-2244.3704 2854.0181 536.0536 -0.230 -0.743 0.629 171 113 71
-2226.7014 2841.2253 528.8038 -0.496 -0.703 0.510 132 88 50
-2235.7285 3317.0562 308.8813 -0.244 -0.930 0.277 26 27 29
-2211.6409 3294.1125 301.6205 -0.253 -0.937 0.242 30 31 33
-2216.1028 3345.6909 280.4127 0.515 -0.813 -0.273 16 17 22
-2207.0740 3351.9844 270.5941 0.351 -0.926 0.142 18 19 24
-2182.7498 3346.7063 254.7368 0.610 -0.736 0.296 49 50 55
-2266.6245 3520.2485 235.3928 0.368 -0.930 -0.009 47 46 52
-2152.7793 3419.0022 197.6497 -0.638 -0.672 0.377 230 205 201
-1795.7577 4633.7568 -650.8628 -0.091 -0.738 0.668 210 154 138
-1799.3718 4660.4775 -660.8660 -0.168 -0.781 0.601 199 144 127
-1716.1008 4592.4858 -691.3624 0.304 -0.302 0.903 95 48 39
-1712.3052 4601.8848 -698.7081 0.298 -0.304 0.905 105 60 52
-1684.3662 4608.7627 -723.0881 0.650 -0.590 0.479 181 134 129
-1677.6515 4611.1260 -729.2860 0.650 -0.590 0.479 184 137 131
-1677.2529 4629.1133 -738.1582 0.913 -0.316 -0.256 173 124 119
-1143.5133 5048.6426 -1341.2106 0.127 -0.592 0.796 240 145 144
-1030.5702 4693.6826 -1257.3737 0.758 -0.259 0.599 227 125 121
-990.4077 4672.3369 -1277.5372 -0.008 -0.888 -0.461 229 123 114
-916.3852 4479.2954 -1241.4601 0.844 -0.518 0.142 225 32 51
-617.8934 3421.8774 -963.0377 0.180 -0.864 0.470 239 26 56
-503.2716 4125.8047 -1385.0457 0.112 -0.823 -0.556 245 64 93
-496.4051 4118.1069 -1386.5637 0.154 -0.795 -0.587 242 84 111
-486.7977 4129.2583 -1399.1343 0.154 -0.795 -0.587 255 135 153
-467.2256 4111.5708 -1405.4889 0.001 -0.517 0.856 235 102 119
-313.8267 3347.6458 -1157.3302 -0.461 -0.865 -0.197 231 76 90
-309.0704 3345.5059 -1159.9031 -0.463 -0.865 -0.192 230 71 86
-304.3512 3343.5635 -1162.5420 -0.463 -0.865 -0.192 220 64 79
-242.5732 3643.1963 -1351.9835 0.805 -0.508 0.307 232 66 76
-2916.6399 2664.2405 1125.2535 0.824 -0.412 -0.388 128 113 100
-2912.1206 2666.3743 1120.8225 0.825 -0.409 -0.391 113 97 85
-2807.9597 2638.6248 1055.5436 0.178 -0.973 0.149 176 149 138
-2787.3171 2627.1843 1045.4521 0.053 -0.974 0.222 188 165 153
-2928.1917 2806.3191 1065.9192 0.897 -0.269 -0.350 177 148 128
-2959.6848 2903.9495 1042.9152 0.878 -0.265 -0.398 107 78 51
-2861.0825 2855.7056 991.6448 -0.295 -0.930 0.220 131 87 57
-2843.4180 2852.8457 979.6900 0.835 -0.550 -0.025 151 96 67
-2769.3184 2870.2236 915.4730 0.438 -0.440 0.784 172 82 35
-2805.0981 2916.6956 920.2044 0.897 -0.405 -0.177 177 81 36
-2638.3462 2879.2686 812.3476 0.196 -0.959 0.206 173 98 60
-2305.4053 3005.7969 500.6074 0.855 -0.232 0.464 62 41 27
-2309.2024 3017.8474 497.7000 0.857 -0.220 0.466 62 39 25
-2413.9182 3341.2083 421.8159 0.423 -0.541 0.727 86 28 1
-2221.2861 3290.2229 300.9310 -0.313 -0.932 0.186 21 22 24
-2223.5415 3347.8171 275.0478 0.671 -0.738 -0.070 18 19 24
-2219.6094 3351.7551 270.1957 0.445 -0.884 0.141 15 16 21
-2214.1858 3353.6843 265.1807 0.445 -0.884 0.141 16 17 22
-2195.3982 3337.4668 258.7762 0.216 -0.957 -0.195 22 23 28
-2188.1633 3336.8733 253.6034 0.201 -0.970 -0.134 35 36 41
-2183.7834 3340.1626 248.7242 0.192 -0.970 -0.151 47 48 53
-1955.9211 4873.0923 -657.3436 0.991 -0.135 -0.003 238 175 166
-1750.5247 4513.1411 -639.8790 0.085 -0.578 0.812 207 151 136
-1711.7108 4565.8086 -694.3815 0.339 -0.349 0.874 78 38 29
-1700.6029 4613.1367 -725.4277 0.109 -0.972 -0.209 119 79 73
-1692.3739 4611.8403 -731.0140 0.384 -0.901 -0.201 135 95 89
-1688.6143 4621.4780 -738.4659 0.653 -0.442 -0.615 141 100 95
-1686.2964 4634.7290 -746.5609 0.661 -0.435 -0.612 137 94 90
-1097.4305 4817.8926 -1278.4724 0.844 -0.283 0.455 241 158 155
-1036.9469 4694.2227 -1264.8647 0.648 -0.446 0.617 228 127 123
-903.2984 4347.7441 -1199.7327 0.696 -0.693 0.188 228 85 87
-622.7333 3423.8545 -968.8729 0.290 -0.787 0.545 243 39 67
-516.3320 4104.5151 -1375.1313 0.466 -0.255 0.847 254 50 77
-513.3813 4157.5073 -1402.7373 0.096 -0.437 0.894 253 64 94
-373.3362 3682.0388 -1280.6512 0.831 -0.455 0.322 230 82 93
-304.3975 3347.2356 -1172.2999 0.036 -0.978 -0.205 223 51 68
-283.0099 3354.1050 -1191.7229 0.497 -0.860 -0.114 213 11 33
-2776.9373 2602.3135 1040.8219 0.185 -0.605 0.774 160 135 119
-2922.6467 2885.4587 1014.2869 0.734 -0.524 -0.433 116 83 45
-2879.0181 2866.2737 990.6566 -0.059 -0.691 0.720 134 82 51
-2862.6997 2858.2124 982.2442 -0.035 -0.679 0.733 140 87 57
-2732.3938 2889.8867 868.8370 0.239 -0.657 0.715 171 88 43
-2722.4373 2887.1636 862.6475 0.242 -0.653 0.718 171 88 45
-2716.3542 2894.7969 854.3906 0.639 -0.508 0.578 176 93 49
-2710.8035 2896.2349 849.5169 0.639 -0.508 0.578 177 95 51
-2638.5242 2847.1042 818.7188 0.074 -0.566 0.821 179 97 54
-2604.7429 2834.3928 799.3903 0.577 -0.593 0.562 179 97 54
-2618.4497 2867.7017 793.6816 0.339 -0.914 0.224 181 99 55
-2726.3545 2986.9314 817.5729 0.597 -0.692 0.406 188 105 61
-2200.3020 2834.7649 494.5436 0.351 -0.662 0.662 55 33 9
-2295.7886 2995.8037 488.9543 0.836 -0.230 0.499 73 45 32
-2430.6328 3345.5657 422.1670 0.390 -0.542 0.745 77 29 5
-2419.3472 3340.4236 416.1407 0.423 -0.527 0.737 72 31 6
-2227.6323 3345.4314 269.3104 0.670 -0.739 -0.079 18 22 25
-2225.6887 3352.0393 264.6653 0.426 -0.901 -0.079 11 15 18
-2220.8464 3354.7590 259.7083 0.426 -0.901 -0.079 10 14 17
-2199.9246 3335.7051 253.1199 0.038 -0.963 -0.268 17 21 24
-2193.6938 3336.4812 248.0527 0.036 -0.961 -0.274 30 34 37
-2188.8206 3339.0984 243.1217 0.180 -0.973 -0.144 42 45 49
-2185.6614 3468.4712 178.4652 -0.386 -0.685 0.618 227 200 203
-1974.0781 4859.9790 -650.7568 0.604 -0.083 0.793 250 188 179
-1708.4934 4578.7183 -715.4315 0.302 -0.316 0.899 75 48 44
-1710.9902 4603.2485 -725.3588 -0.008 -0.977 -0.212 78 51 47
-1706.4520 4610.9087 -732.4650 -0.018 -0.944 -0.329 79 52 48
-1694.5796 4619.5200 -745.5536 0.630 -0.412 -0.659 92 62 61
-1696.3560 4661.8442 -764.5895 0.669 -0.173 -0.723 96 60 64
-1095.1768 4757.6987 -1263.6025 0.836 -0.344 0.428 236 162 158
-1042.4199 4637.2666 -1245.3718 0.628 -0.391 0.673 235 143 135
-510.7135 4108.3584 -1391.3065 0.978 -0.026 0.209 255 66 92
-366.7633 3638.2712 -1273.4573 0.267 -0.851 0.452 232 81 93
-363.0577 3646.9443 -1280.4238 0.400 -0.732 0.551 229 69 85
-353.6256 3649.7131 -1288.8619 0.427 -0.734 0.528 226 52 72
-348.5134 3648.1079 -1291.9402 0.469 -0.708 0.527 227 45 66
-339.5955 3654.6853 -1301.8242 0.452 -0.756 0.474 227 27 47
-333.3853 3644.4429 -1301.5719 0.241 -0.968 0.071 223 20 42
-2903.7710 2615.7229 1121.0417 -0.275 -0.702 0.657 169 150 132
-2809.2590 2595.8550 1059.5524 0.085 -0.851 0.519 105 84 67
-2956.0371 2825.9473 1058.6549 0.980 -0.180 -0.080 148 108 88
-2969.2048 2875.4612 1044.6061 0.868 -0.316 0.383 149 85 61
-2954.5271 2869.1628 1036.6110 0.876 -0.305 0.373 139 85 57
-2910.9146 2844.0007 1015.9747 0.937 -0.203 -0.285 128 87 55
-2734.7114 2899.8618 856.3910 0.505 -0.528 0.683 179 95 51
-2722.8818 2895.3660 849.6667 0.523 -0.567 0.636 178 94 50
-2223.3596 2826.5864 507.1507 0.087 -0.633 0.770 146 97 50
-2214.6804 2823.8601 501.9403 0.359 -0.506 0.784 111 64 24
-2201.5933 2823.1663 492.4305 0.357 -0.500 0.789 64 29 1
-2197.4663 2825.5435 488.1757 0.335 -0.673 0.659 58 29 3
-2192.1099 2826.5242 483.6714 0.152 -0.746 0.648 58 28 4
-2260.7048 3080.0891 412.6006 -0.531 -0.839 -0.119 210 119 72
-2418.0466 3331.3198 409.4234 0.418 -0.520 0.745 70 34 7
-2275.2979 3205.2561 363.0229 -0.216 -0.953 0.213 17 4 0
-2227.4028 3337.2646 263.1254 0.721 -0.624 0.299 17 21 24
-2220.9424 3346.9790 253.5655 0.647 -0.648 0.403 10 14 17
-2211.9985 3344.1411 248.2099 0.583 -0.767 0.267 17 21 24
-2202.8220 3340.9585 242.8462 0.043 -0.961 -0.275 29 33 36
-2195.3293 3340.0327 237.6574 0.056 -0.998 -0.033 42 46 49
-2223.0574 3396.5139 231.1914 0.282 -0.958 -0.049 43 46 53
-2254.6770 3478.3745 215.3747 0.048 -0.949 0.312 42 45 54
-2232.4707 3476.8259 199.4181 -0.097 -0.960 0.262 63 64 64
-2225.6287 3477.0608 194.1572 0.133 -0.945 0.298 124 123 119
-2218.1846 3476.4380 188.8582 0.133 -0.945 0.298 188 182 178
-2211.4104 3476.7419 183.6151 0.131 -0.947 0.294 216 204 202
-2195.7280 3474.2903 173.0031 0.141 -0.891 0.431 226 199 204
-1707.9386 4543.0112 -711.0107 0.286 -0.911 0.299 67 42 38
-1704.1991 4607.7217 -745.1310 0.645 -0.435 -0.628 81 55 54
-1704.5099 4627.2212 -754.3309 0.649 -0.437 -0.622 89 61 60
-1702.7389 4641.7710 -762.7026 0.649 -0.437 -0.622 93 64 64
-1699.6255 4691.4844 -789.0960 0.874 -0.349 -0.338 100 63 70
-1700.1808 4712.2593 -798.7292 0.882 -0.346 -0.320 105 68 75
-1134.9661 4939.0967 -1333.6859 0.267 -0.420 0.868 239 150 145
-757.0049 4320.9736 -1318.9779 0.457 -0.633 0.625 255 88 123
-379.7129 3663.8508 -1284.8988 0.839 -0.448 0.310 228 82 93
-270.1938 3734.8252 -1401.6277 0.799 -0.039 0.600 230 65 74
-2954.2258 2819.1731 1051.1577 0.977 -0.184 -0.108 133 87 61
-2993.0540 2897.2065 1042.3872 0.928 -0.362 0.091 144 91 63
-2900.9045 2901.0066 971.3076 0.704 -0.676 -0.219 163 86 45
-2895.1694 2902.4512 966.2966 0.705 -0.685 -0.182 165 87 41
-2847.9463 2892.7864 935.5172 0.740 -0.615 -0.274 163 86 42
-2911.7944 2964.2693 948.7292 0.051 -0.950 -0.307 162 85 42
-2842.0464 2907.2688 924.0428 -0.150 -0.917 0.368 161 85 41
-2737.5940 2890.2693 853.8332 0.513 -0.517 0.685 184 99 53
-2220.2712 2817.1833 500.7054 0.068 -0.629 0.774 163 107 62
-2201.1421 2809.6892 489.9775 0.365 -0.495 0.789 89 40 6
-2195.7488 2810.6064 485.4797 0.351 -0.522 0.777 74 31 0
-2196.9285 2818.9592 482.3044 0.471 -0.863 0.184 63 26 0
-2196.9583 2826.0422 478.8829 0.517 -0.836 0.183 56 20 0
-2301.0547 2989.0308 477.8408 0.984 -0.176 0.004 93 56 34
-2311.3640 3039.2712 461.1580 0.908 -0.201 0.367 117 68 33
-2300.1768 3073.0198 436.3433 0.869 -0.326 0.372 186 99 61
-2307.3516 3146.0054 406.2461 -0.150 -0.657 -0.739 130 60 40
-2422.7410 3329.6428 403.6483 0.424 -0.524 0.739 68 33 7
-2265.5862 3307.5066 296.3412 -0.397 -0.871 0.289 9 10 12
-2235.3271 3443.3396 207.5618 0.025 -0.983 -0.182 42 45 54
-2237.4421 3475.3708 193.5762 0.128 -0.950 0.284 55 57 57
-2230.5635 3475.5598 188.3165 0.300 -0.953 0.043 96 95 92
-2224.7065 3477.1672 183.1345 0.300 -0.953 0.043 178 174 170
-2219.7305 3480.0085 178.0145 0.305 -0.951 0.042 214 204 202
-2212.3853 3479.5151 172.7359 0.309 -0.950 -0.050 215 197 199
-2206.8630 3481.5820 167.5822 0.309 -0.950 -0.050 227 200 205
-2026.6121 4851.1904 -633.7833 0.654 -0.100 0.750 245 201 200
-1712.3607 4519.5698 -708.6368 0.191 -0.810 0.555 62 37 31
-1705.8624 4522.1738 -714.7850 0.241 -0.781 0.576 66 41 37
-1701.2517 4529.2812 -721.7049 0.255 -0.775 0.578 73 48 44
-1698.6158 4559.4556 -738.3569 0.357 -0.649 0.672 93 67 66
-1701.5872 4585.0654 -748.5768 0.743 -0.489 0.457 98 72 71
-1707.8497 4618.8574 -760.3025 0.745 -0.520 0.418 107 79 78
-1704.1187 4628.5586 -767.8225 0.770 -0.509 0.383 109 81 80
-1704.5559 4648.5215 -777.2004 0.769 -0.326 0.549 102 70 75
-1679.6187 4682.7534 -812.5804 0.794 -0.317 0.518 198 163 169
-1068.5803 4689.7178 -1275.0394 -0.042 -0.484 0.874 236 143 135
-1040.1335 4607.7827 -1256.5725 0.439 -0.527 0.728 230 136 128
-1051.7626 4817.6470 -1349.8776 0.298 -0.893 -0.337 227 128 116
-618.3378 3327.3457 -950.8823 0.094 -0.938 0.333 237 35 65
-383.0336 3655.8943 -1287.4160 0.839 -0.448 0.310 230 82 93
-2952.3269 2812.3462 1043.6597 0.977 -0.194 -0.090 148 94 64
-2992.4521 2884.8181 1038.3518 0.931 -0.351 0.098 152 86 62
-2988.0554 2887.4773 1033.7537 0.933 -0.347 0.098 140 84 57
-2922.5266 2862.6838 996.7029 0.707 -0.231 0.668 102 72 34
-2865.5205 2909.8284 930.8939 0.610 -0.699 -0.373 164 89 49
-2780.3704 2845.4229 898.4781 0.898 -0.222 -0.380 160 89 49
-2604.1353 2823.7942 776.8182 0.471 -0.552 0.688 196 113 71
-2194.3186 2803.0706 479.4608 0.145 -0.989 -0.031 95 46 17
-2187.7974 2802.6934 474.7520 0.198 -0.980 -0.039 74 30 5
-2296.5344 2992.5234 463.5757 0.025 -0.628 -0.778 110 64 37
-2321.7307 3156.4871 402.3588 -0.278 -0.634 -0.721 97 27 9
-2424.1804 3350.3372 384.5006 -0.390 -0.880 0.271 56 27 21
-2254.7432 3294.6553 284.5817 0.829 -0.476 -0.293 9 10 12
-2224.1484 3335.5535 241.6414 0.627 -0.602 0.495 13 17 20
-2179.9390 3312.5876 219.6935 0.336 -0.713 0.616 42 45 52
-2241.1599 3472.1746 187.6444 0.324 -0.946 0.025 49 51 51
-2237.4917 3476.8350 182.6148 0.365 -0.758 -0.540 75 75 71
-2232.4265 3479.5583 177.4836 0.361 -0.752 -0.552 152 147 143
-2229.1604 3484.8057 172.4689 0.361 -0.752 -0.552 209 197 193
-2222.5439 3485.3625 167.2325 0.387 -0.744 -0.545 219 201 201
-2027.6812 4837.5859 -639.7436 0.657 -0.100 0.747 247 203 202
-1822.8417 4634.8799 -694.3806 0.035 -0.735 -0.677 196 137 125
-1735.9797 4559.5317 -722.7338 -0.091 -0.522 -0.848 66 41 36
-1700.4866 4547.8726 -743.6667 0.379 -0.646 0.663 106 80 79
-1696.9657 4651.2114 -796.8055 0.300 -0.775 -0.556 186 149 156
-1692.0590 4658.2021 -803.9031 0.300 -0.775 -0.556 193 158 164
-1688.9786 4669.7603 -811.8622 0.387 -0.739 -0.552 201 166 172
-1682.4750 4672.8657 -818.2595 0.354 -0.894 -0.274 223 191 196
-1676.7590 4677.9458 -825.0305 0.345 -0.914 -0.212 234 199 205
-1644.8699 4675.4902 -847.7570 0.577 -0.364 0.732 240 197 206
-904.5370 4337.9966 -1238.3086 0.396 -0.796 -0.457 232 19 41
-231.4480 3264.1694 -1218.5942 0.106 -0.971 -0.215 223 59 68
-2954.6208 2827.8909 1028.3566 0.964 -0.157 0.212 160 95 67
-2951.3708 2837.7266 1021.0911 0.922 -0.285 0.262 162 90 68
-2964.3621 2861.6404 1019.0818 0.363 -0.179 0.914 139 84 56
-2990.1011 2896.8052 1021.0991 0.293 -0.219 0.931 123 83 50
-2763.2639 2830.8640 883.5136 0.137 -0.990 0.011 142 76 43
-2687.5923 2806.2751 838.8884 0.560 -0.636 0.531 175 92 49
-2686.7031 2811.8926 835.4636 0.551 -0.663 0.507 175 92 48
-2655.0088 2834.1365 800.7914 0.436 -0.489 0.756 185 102 60
-2633.3457 2820.0762 791.4642 0.575 -0.504 0.645 196 113 71
-2626.3408 2852.9075 770.0927 0.788 -0.421 0.450 194 111 67
-2251.5471 2812.3008 509.2027 -0.038 -0.917 -0.397 186 105 58
-2245.7256 2812.8074 504.5919 -0.090 -0.875 -0.476 186 105 57
-2203.0229 2799.9900 478.8894 0.188 -0.981 -0.043 134 74 44
-2194.2766 2797.1235 473.7435 0.178 -0.984 -0.011 111 57 30
-2190.1768 2799.4678 469.5202 0.118 -0.965 -0.235 88 40 16
-2304.8491 3010.9229 451.6021 0.013 -0.871 -0.491 150 77 39
-2321.6138 3085.0083 427.7818 0.884 -0.256 0.390 190 104 75
-2402.2021 3315.6208 374.9168 -0.284 -0.929 -0.239 54 25 19
-2252.9038 3460.6812 191.8118 0.030 -0.999 0.045 41 44 53
-1794.5085 4554.4434 -688.7874 -0.066 -0.622 -0.780 186 125 114
-1732.2864 4589.4517 -752.6023 -0.212 -0.644 -0.735 80 54 53
-1711.5603 4558.3442 -752.8560 0.262 -0.816 0.515 101 75 74
-1719.0753 4631.8931 -783.3433 0.351 -0.865 -0.359 188 160 159
-1705.6224 4636.8125 -795.8394 0.367 -0.693 -0.621 213 178 184
-1697.3693 4654.5171 -810.7178 0.367 -0.693 -0.621 221 186 192
-1693.2256 4663.4062 -818.1879 0.367 -0.693 -0.621 215 183 188
-1687.9504 4669.5400 -825.1528 0.367 -0.697 -0.616 220 188 193
-1682.2468 4674.6353 -831.9286 0.315 -0.822 -0.474 229 194 200
-1676.9187 4680.6909 -838.8948 0.315 -0.822 -0.474 235 197 204
-1671.6154 4686.8374 -845.8871 0.357 -0.910 -0.209 242 200 209
-1657.0546 4669.6362 -848.3501 0.251 -0.968 -0.022 243 200 209
-1192.0247 5078.2539 -1397.4592 0.227 -0.702 0.675 242 155 150
-1099.4027 4758.5361 -1309.8531 0.160 -0.473 0.866 239 149 140
-897.8196 4212.1196 -1192.5636 0.003 -0.984 -0.180 220 73 74
-890.4803 4232.6831 -1208.1613 0.039 -0.960 -0.276 226 26 45
-649.8855 3467.0981 -1012.4734 0.926 -0.009 -0.377 255 77 101
-526.5139 4115.0356 -1423.1050 0.210 -0.401 0.892 250 69 91
-475.4258 4151.6445 -1479.3630 -0.082 -0.815 -0.573 225 87 100
-346.1857 3608.6372 -1309.5413 0.577 -0.288 0.764 221 19 41
-2884.3472 2876.3706 942.4202 -0.118 -0.932 0.342 174 96 50
-2768.5049 2830.2502 878.4969 0.079 -0.982 -0.171 124 63 32
-2648.8921 2771.3538 818.0573 -0.469 -0.832 0.295 176 92 48
-2650.2983 2824.1782 793.0405 0.427 -0.493 0.758 185 102 59
-2626.2532 2807.8657 783.0980 0.651 -0.470 0.596 198 115 73
-2604.9600 2820.1326 761.1105 0.609 -0.460 0.646 186 103 59
-2625.8005 2846.8093 763.5402 0.785 -0.430 0.447 186 103 59
-2306.8118 2832.2578 532.0242 0.210 -0.905 -0.369 186 106 57
-2278.7615 2829.4226 512.4335 -0.166 -0.874 -0.457 186 106 58
-2203.0515 2794.1450 473.1900 -0.065 -0.926 -0.373 138 74 45
-2197.1038 2794.4150 468.6060 -0.077 -0.927 -0.367 123 64 39
-2316.2202 3002.3840 455.1061 -0.062 -0.646 -0.760 137 79 45
-2314.0364 3007.4648 450.9647 0.038 -0.637 -0.770 149 81 42
-2298.0781 3011.8518 436.8582 0.032 -0.627 -0.779 182 89 54
-2668.0161 3496.3232 474.5906 0.421 -0.897 -0.134 202 128 102
-2640.9150 3473.2129 465.7161 0.001 -0.985 -0.170 199 128 96
-2635.5488 3475.8376 460.4054 -0.008 -0.984 -0.180 183 114 83
-2623.8284 3470.8782 454.0825 -0.042 -0.975 -0.220 164 92 63
-2627.7473 3484.6003 450.2430 0.425 -0.897 -0.120 143 72 43
-2613.7678 3476.9004 443.5823 0.464 -0.883 -0.078 118 46 19
-2262.0476 3288.9634 273.1404 0.829 -0.476 -0.293 8 9 11
-2259.6809 3303.7068 264.0935 0.307 -0.602 -0.737 15 16 18
-2212.9194 3341.4797 210.4610 0.611 -0.773 0.169 39 42 49
-2197.4836 3329.8232 204.6629 0.073 -0.997 -0.035 43 46 55
-2256.3198 3496.0303 166.6655 -0.151 -0.616 -0.773 79 74 68
-2314.6460 3648.6826 134.9756 -0.029 -0.655 -0.755 226 197 193
-1811.6476 4560.3296 -691.3184 -0.108 -0.724 -0.681 204 142 130
-1796.0503 4542.5146 -694.1979 0.190 -0.636 -0.748 196 136 125
-1781.3700 4526.6265 -697.3423 -0.020 -0.545 -0.838 187 132 119
-1750.8380 4580.8384 -746.9430 -0.466 -0.534 -0.706 76 50 49
-1723.9995 4627.3657 -789.9877 0.318 -0.872 -0.371 167 139 138
-1717.1827 4629.5977 -796.1900 0.304 -0.771 -0.559 192 160 165
-1710.0229 4630.9912 -802.2355 0.316 -0.762 -0.565 203 168 174
-1674.6691 4658.0757 -842.0569 0.149 -0.949 -0.276 236 198 205
-1675.0118 4678.2617 -851.7622 0.351 -0.892 -0.283 242 200 209
-1136.3804 4956.9287 -1392.3406 0.419 -0.609 0.673 225 133 122
-1088.1683 4884.7788 -1392.8109 -0.520 -0.846 0.120 221 122 110
-1076.8330 4868.9224 -1393.4678 -0.522 -0.843 0.126 220 102 94
-961.5016 4548.4839 -1321.6311 0.545 -0.236 -0.804 234 19 43
-480.4658 4004.7976 -1413.2743 -0.231 -0.606 0.761 248 115 136
-349.1901 3598.6042 -1311.0480 0.577 -0.288 0.764 221 19 41
-2840.4495 2666.7468 1004.1043 0.853 -0.509 -0.121 157 126 110
-2868.4688 2701.9600 1007.5796 0.767 -0.641 -0.003 154 97 64
-2858.6670 2848.1013 927.7787 -0.160 -0.976 0.146 170 97 61
-2843.6519 2841.1533 920.0038 -0.171 -0.972 0.162 168 98 58
-2827.8557 2833.4634 912.0132 -0.206 -0.954 0.219 168 98 58
-2772.3252 2828.3418 873.0556 0.076 -0.989 -0.130 106 57 34
-2763.7891 2827.0059 867.3391 0.035 -0.965 -0.260 103 49 26
-2682.5161 2784.4622 827.7033 -0.454 -0.870 0.195 170 94 56
-2627.0623 2803.1948 776.9730 0.657 -0.482 0.580 187 104 59
-2608.0945 2804.6025 762.1004 0.605 -0.505 0.615 188 104 58
-2594.4707 2798.0625 755.1628 0.215 -0.596 0.774 183 99 53
-2600.6074 2810.4570 753.6018 0.606 -0.472 0.641 183 99 53
-2318.0957 2817.9182 538.7831 -0.312 -0.912 -0.265 184 106 57
-2310.8816 2830.8147 526.9963 0.044 -0.886 -0.461 184 106 61
-2303.1960 2829.4006 521.9541 0.027 -0.889 -0.457 184 106 62
-2295.8557 2828.3452 516.9922 0.007 -0.894 -0.449 183 106 62
-2190.6377 2781.3159 461.6868 0.089 -0.928 -0.363 135 69 45
-2276.2466 2935.1978 449.3468 -0.118 -0.768 -0.629 140 78 42
-2318.8252 3014.1516 442.0098 0.046 -0.635 -0.771 174 86 38
-2313.6604 3015.8125 437.3267 0.051 -0.643 -0.764 186 90 47
-2704.8464 3523.0393 478.1072 0.504 -0.816 0.283 198 123 96
-2669.2256 3490.0789 467.8341 0.408 -0.901 -0.146 200 132 108
-2648.9294 3475.0754 460.1077 0.504 -0.862 -0.047 191 126 97
-2640.4866 3474.0544 454.3047 0.509 -0.859 -0.062 168 106 77
-2633.7039 3474.9922 448.7709 0.502 -0.862 -0.067 136 69 43
-2628.8508 3478.2271 443.5401 0.502 -0.862 -0.067 105 40 14
-2615.8252 3471.6794 437.0533 0.511 -0.857 -0.069 87 23 2
-2312.5039 3116.4658 386.5453 0.840 -0.539 -0.057 87 24 0
-2254.5483 3316.2458 244.1584 -0.312 -0.809 0.497 31 35 36
-2235.5134 3300.1780 237.9024 -0.277 -0.829 0.485 32 36 39
-2288.2925 3502.4194 177.0458 0.356 -0.934 -0.015 41 44 52
-2271.2510 3508.3289 161.3801 -0.234 -0.471 -0.850 51 46 44
-2283.8721 3535.7422 157.2166 -0.501 -0.568 -0.653 94 85 83
-2270.4749 3527.0217 151.5299 -0.520 -0.578 -0.629 161 145 146
-2228.8025 3508.2939 129.6762 -0.502 -0.541 -0.675 226 196 195
-2310.9092 3634.4922 128.4481 -0.047 -0.670 -0.741 228 199 195
-2323.4363 3662.6399 123.8502 -0.120 -0.694 -0.709 226 197 193
-1912.5186 4717.9814 -706.6019 0.650 -0.170 0.741 228 165 156
-1785.7616 4628.4575 -756.9286 -0.549 -0.541 -0.637 95 68 66
-1715.8073 4628.5508 -809.2513 0.367 -0.765 -0.529 176 141 147
-1155.6335 4892.9604 -1358.9934 0.526 -0.851 0.011 245 154 148
-1094.1160 4882.6084 -1399.8312 -0.520 -0.853 0.047 225 120 109
-1082.2349 4864.7188 -1399.8376 -0.588 -0.797 0.135 223 101 94
-906.8000 4228.3560 -1215.3467 0.215 -0.481 0.850 223 47 58
-631.2696 3309.7710 -965.6935 0.952 -0.012 -0.307 251 50 82
-483.1041 3990.1086 -1413.8170 -0.251 -0.573 0.780 245 117 137
-361.9591 3589.5818 -1305.7140 0.599 -0.238 0.765 217 22 44
-357.1611 3589.7935 -1309.4044 0.599 -0.238 0.765 222 19 40
-2862.7722 2692.2588 999.1337 0.786 -0.618 0.008 159 100 65
-2871.6995 2705.6675 999.1136 0.765 -0.643 -0.036 164 98 60
-2766.6919 2824.2708 861.6410 0.052 -0.986 -0.157 64 41 27
-2625.7107 2796.4929 770.2712 0.570 -0.514 0.641 184 100 53
-2617.7708 2795.4246 764.8780 0.603 -0.502 0.620 184 100 53
-2587.1379 2785.6160 746.9052 0.224 -0.605 0.764 181 97 50
-2330.5742 2825.5134 535.5510 -0.204 -0.908 -0.367 185 107 59
-2281.7297 2814.0195 504.8270 0.221 -0.961 -0.168 170 94 60
-2238.3296 2794.0112 482.4091 0.171 -0.655 0.736 157 82 45
-2182.2734 2766.1516 454.4589 -0.352 -0.845 -0.402 132 62 36
-2275.1907 2920.4138 446.9249 0.206 -0.776 -0.596 164 81 42
-2273.5005 2933.1785 439.3021 0.091 -0.911 -0.403 166 86 45
-2192.5911 2862.1416 414.3217 0.021 -0.989 -0.146 194 93 41
-2706.4788 3526.3320 466.8286 0.645 -0.764 -0.016 198 135 112
-2701.3572 3529.4043 461.4754 0.649 -0.760 -0.030 193 132 104
-2696.9744 3533.3557 456.2352 0.649 -0.760 -0.030 153 94 68
-2692.5874 3537.3115 450.9901 0.649 -0.760 -0.030 114 52 27
-2691.6182 3545.3477 446.2617 0.666 -0.746 0.008 87 28 3
-2688.7505 3551.1475 441.2314 0.666 -0.746 0.009 78 19 2
-2682.0552 3552.3801 435.6205 0.683 -0.730 -0.020 86 28 6
-2403.1001 3311.8835 347.2915 -0.377 -0.922 0.086 40 18 12
-2291.5588 3329.9272 255.0572 0.288 -0.558 -0.778 15 17 16
-2251.0664 3303.9922 237.7630 -0.291 -0.843 0.452 26 29 31
-2237.8445 3295.5837 232.0858 -0.276 -0.840 0.467 30 34 37
-2286.1599 3491.1387 170.6875 0.481 -0.876 0.003 40 44 54
-2316.4780 3562.4487 157.7758 -0.515 -0.572 -0.638 39 37 37
-2306.7729 3559.0005 152.2515 -0.513 -0.570 -0.641 62 55 58
-2296.0674 3554.1260 146.6913 -0.521 -0.577 -0.629 108 96 100
-2279.8242 3541.4827 140.8700 -0.652 -0.616 -0.441 147 130 136
-2264.3789 3529.8665 135.1323 -0.652 -0.618 -0.440 182 162 169
-2249.1919 3518.5291 129.4484 -0.657 -0.624 -0.423 209 186 192
-2335.3572 3670.5857 117.9746 0.315 -0.886 -0.341 230 203 199
-2336.5007 3682.6802 112.8006 0.066 -0.626 -0.777 224 197 193
-2351.4929 3714.5662 108.0987 -0.068 -0.707 -0.704 223 196 192
-1902.5546 4644.6436 -690.4487 0.979 -0.090 0.184 238 180 173
-1789.6182 4639.7017 -772.2693 -0.292 -0.591 -0.752 125 99 98
-1715.9130 4557.1875 -786.1533 -0.067 -0.976 -0.207 131 103 102
-1708.5800 4557.9219 -791.9918 -0.067 -0.976 -0.207 139 110 110
-1698.1556 4551.2129 -796.4280 -0.031 -0.958 -0.284 174 141 146
-1691.1831 4552.7520 -802.3987 -0.031 -0.958 -0.284 190 155 161
-1684.8624 4555.8613 -808.6652 -0.015 -0.959 -0.284 208 171 178
-1677.9491 4557.5317 -814.6571 -0.015 -0.959 -0.284 219 182 189
-1137.1617 4774.1318 -1326.1853 0.589 -0.765 0.261 246 164 158
-1153.4545 4860.7119 -1357.1737 0.626 -0.636 -0.452 243 149 143
-1148.9591 4871.2598 -1365.7850 0.626 -0.636 -0.452 237 142 132
-1153.4830 4915.5088 -1384.4607 0.613 -0.696 -0.374 231 136 125
-825.2032 3775.7788 -1061.4626 0.728 -0.440 0.526 224 126 116
-1106.5002 4877.0762 -1400.3704 0.129 -0.840 -0.527 225 121 112
-676.5367 3459.5073 -1014.7956 0.091 -0.893 -0.441 244 43 73
-628.5747 3300.6436 -971.4186 0.915 -0.069 -0.397 253 65 101
-645.6416 3434.4902 -1025.3849 -0.074 -0.651 -0.756 254 87 124
-687.8757 4603.8413 -1576.6180 0.915 -0.016 -0.403 250 44 74
-484.1809 4000.4993 -1427.9550 0.930 -0.334 0.152 244 113 133
-484.3419 4109.4854 -1482.1484 0.237 -0.389 0.891 223 89 101
-470.5103 4055.0811 -1465.3583 0.895 -0.058 0.442 222 90 98
-442.6392 4015.4558 -1466.4109 0.491 -0.680 0.545 226 53 73
-2583.6440 2757.7058 749.3301 0.504 -0.360 0.785 184 100 53
-2385.1602 2710.8564 624.8632 0.432 -0.632 0.643 160 78 34
-2380.5088 2712.5781 620.5344 0.423 -0.618 0.662 166 84 37
-2320.2593 2795.0710 534.3204 0.574 -0.761 0.302 177 102 54
-2318.4641 2799.9417 530.5433 0.551 -0.768 0.327 176 102 53
-2313.6016 2801.5449 526.1166 0.551 -0.768 0.327 176 102 54
-2247.2795 2770.7344 492.1168 0.342 -0.732 0.589 156 85 54
-2202.5659 2762.4458 462.9429 -0.088 -0.873 -0.480 135 64 35
-2200.5264 2773.8347 455.7195 -0.351 -0.845 -0.404 125 55 27
-2228.5103 2846.9949 439.9385 0.438 -0.756 -0.488 177 81 38
-2234.3713 2867.8936 433.8412 0.516 -0.785 -0.342 183 84 42
-2196.5244 2860.5615 409.3060 0.096 -0.986 -0.137 202 95 38
-2714.4453 3518.8962 465.6271 0.678 -0.735 -0.014 194 135 109
-2737.8564 3555.5015 464.7441 -0.293 -0.911 0.290 196 144 120
-2718.9731 3542.4324 457.2153 -0.309 -0.910 0.278 198 145 117
-2705.6931 3535.9026 450.5879 -0.309 -0.910 0.278 145 93 68
-2689.9497 3526.4033 443.6115 -0.229 -0.966 0.123 101 49 25
-2687.8057 3533.0042 438.7080 -0.035 -0.997 0.069 83 30 5
-2687.3718 3541.6670 434.0465 0.037 -0.997 0.068 77 27 3
-2690.7593 3554.9319 429.9283 0.648 -0.761 -0.011 81 34 14
-2388.8984 3304.3140 330.4586 -0.400 -0.910 0.112 18 7 0
-2294.5476 3326.1331 249.2135 0.268 -0.569 -0.777 15 15 13
-2334.9983 3569.4500 157.5130 -0.359 -0.458 -0.813 43 43 53
-2329.4045 3581.7595 147.1797 -0.367 -0.442 -0.818 44 42 52
-2317.2263 3574.9329 141.5222 -0.529 -0.566 -0.633 56 53 63
-2310.3835 3575.4758 136.1503 -0.529 -0.574 -0.625 80 77 87
-2298.4463 3568.8979 130.5477 -0.652 -0.624 -0.432 128 123 134
-2316.9277 3615.0564 121.2066 -0.095 -0.592 -0.800 212 196 198
-2326.6636 3639.0203 116.4619 0.015 -0.811 -0.585 225 204 205
-2319.8308 3639.7095 111.0244 -0.193 -0.861 0.470 232 208 208
-2318.2576 3647.8408 105.7798 -0.208 -0.780 0.590 222 197 196
-2323.9758 3666.3699 100.7627 -0.270 -0.830 0.489 219 195 194
-1981.8837 4749.5557 -696.6312 0.690 -0.033 0.723 232 191 188
-1845.6072 4573.0996 -709.8312 0.697 -0.197 0.689 229 190 186
-1814.8336 4627.6650 -760.0915 0.737 -0.173 0.653 194 161 157
-1808.3878 4630.8999 -766.5154 0.737 -0.173 0.653 191 158 155
-1769.6272 4613.4575 -786.6687 -0.416 -0.596 -0.687 177 147 149
-1762.9431 4616.0259 -792.9363 -0.416 -0.596 -0.687 184 154 156
-1726.9966 4567.5649 -795.4589 -0.014 -0.967 -0.256 183 152 155
-1715.9192 4559.4326 -799.6421 0.152 -0.984 0.096 189 157 160
-1708.5201 4560.0132 -805.4474 0.152 -0.984 0.096 213 177 181
-1701.1281 4560.5933 -811.2470 0.152 -0.984 0.096 218 182 186
-1693.7434 4561.1729 -817.0411 0.152 -0.984 0.096 224 188 192
-1689.3068 4663.0059 -871.3434 0.351 -0.936 -0.029 252 212 214
-1258.3447 5025.0234 -1373.8254 -0.510 -0.560 0.653 246 161 158
-1242.5455 4996.2451 -1371.1888 -0.519 -0.560 0.645 248 160 159
-1173.3645 4909.7158 -1379.4166 0.598 -0.689 -0.410 242 144 134
-1168.1255 4917.7778 -1387.3586 0.593 -0.696 -0.405 238 135 123
-1167.5330 4943.1265 -1400.4944 0.616 -0.681 -0.396 231 129 116
-1170.4219 4981.7231 -1417.6694 0.497 -0.805 -0.325 227 124 111
-474.8883 3626.7710 -1257.5126 0.823 -0.514 -0.241 253 45 72
-491.3795 3980.1956 -1422.2094 0.194 -0.279 0.940 249 129 145
-465.9908 4028.7742 -1465.4584 0.899 -0.013 0.438 227 89 100
-440.5656 3967.6926 -1453.8192 0.513 -0.617 0.597 227 51 72
-342.5093 3328.5171 -1206.8142 -0.332 -0.497 -0.802 221 34 59
-289.7736 3635.2737 -1399.7347 0.485 -0.865 -0.129 237 72 79
-2769.9170 2560.0811 978.5414 0.660 -0.621 -0.422 134 124 122
-2852.1687 2667.7566 985.5780 0.835 -0.518 0.184 148 102 77
-2871.8855 2690.0293 989.0453 0.807 -0.570 0.154 157 98 68
-2936.0115 2773.8203 994.6098 0.738 -0.436 -0.514 162 97 62
-2777.3027 2797.6992 864.4688 0.194 -0.758 -0.623 52 42 18
-2776.2288 2803.0693 860.9673 0.450 -0.714 -0.537 48 41 22
-2762.9753 2797.4751 853.9179 0.733 -0.622 -0.275 49 40 23
-2753.7537 2814.5952 838.4395 0.238 -0.925 -0.296 66 32 27
-2747.8840 2815.6501 833.5398 0.057 -0.987 0.152 72 30 23
-2744.3091 2825.2349 826.0561 -0.445 -0.884 0.142 125 69 36
-2386.1401 2706.4702 619.2372 0.417 -0.612 0.671 158 80 34
-2367.8264 2805.7986 555.6246 0.710 -0.533 0.460 178 98 61
-2271.9580 2771.4446 501.5576 0.193 -0.690 0.698 146 82 48
-2258.0984 2763.2427 495.3694 0.889 -0.257 0.380 146 81 51
-2223.3245 2739.0242 481.6743 0.914 -0.220 0.341 139 74 42
-2223.4172 2745.8203 478.3235 0.919 -0.222 0.325 136 69 38
-2247.9839 2848.7212 444.8283 0.560 -0.504 0.657 177 87 50
-2231.9014 2837.7449 438.3816 0.168 -0.840 -0.517 185 86 44
-2226.7944 2839.0605 433.9186 0.047 -0.861 -0.507 184 88 44
-2532.7461 3256.8457 451.4050 0.925 -0.267 0.269 190 99 47
-2748.2368 3550.7422 463.9032 -0.299 -0.947 0.118 203 150 125
-2733.2153 3542.2791 456.9816 -0.289 -0.946 0.149 204 157 134
-2721.4050 3537.5332 450.5794 -0.288 -0.947 0.146 207 159 133
-2707.1238 3529.8337 443.8243 -0.275 -0.951 0.138 154 106 83
-2696.7239 3526.6694 437.6760 -0.233 -0.963 0.135 96 49 26
-2690.5654 3528.5049 432.1689 -0.098 -0.993 0.059 81 32 8
-2684.8560 3530.8713 426.7287 -0.118 -0.991 0.059 74 28 5
-2683.2637 3538.1472 421.8823 -0.092 -0.990 0.105 78 35 16
-2252.6248 3299.6868 221.3561 -0.477 -0.877 0.059 30 31 35
-2221.6829 3331.0305 182.5542 0.504 -0.821 -0.266 41 45 56
-2348.6340 3609.8088 136.7609 -0.518 -0.568 -0.639 54 52 63
-2317.3127 3596.6772 120.0567 -0.657 -0.624 -0.423 129 124 134
-2329.7395 3624.2463 115.4331 0.004 -0.580 -0.814 178 163 166
-2333.9736 3640.4583 110.4266 0.023 -0.822 -0.569 202 182 183
-1800.4564 4614.8369 -776.9727 0.590 -0.233 0.773 210 179 181
-1785.7496 4616.9565 -788.9855 0.717 -0.187 0.671 210 180 182
-1773.8356 4607.3433 -793.0156 -0.411 -0.597 -0.689 211 181 183
-1767.2135 4610.0396 -799.3010 -0.411 -0.597 -0.689 217 187 189
-1704.7725 4553.2744 -817.2111 0.178 -0.947 -0.266 229 193 197
-1698.3810 4556.2275 -823.4540 0.178 -0.947 -0.266 235 199 203
-1691.9884 4559.1802 -829.6976 0.178 -0.947 -0.266 241 205 209
-1685.5953 4562.1333 -835.9421 0.178 -0.947 -0.266 245 209 213
-1679.2014 4565.0869 -842.1874 0.178 -0.947 -0.266 245 209 213
-1672.8068 4568.0410 -848.4333 0.178 -0.947 -0.266 245 209 211
-1668.7926 4576.8457 -855.8514 0.180 -0.951 -0.252 246 210 212
-1262.3408 5015.1255 -1378.9119 -0.513 -0.558 0.652 246 161 157
-1247.9298 4991.3506 -1377.6743 -0.519 -0.560 0.645 248 159 159
-1187.0897 4908.5298 -1381.2814 -0.298 -0.923 0.243 240 153 147
-1184.0114 4924.4307 -1391.5737 0.661 -0.678 -0.321 241 142 132
-1176.4291 4923.9692 -1396.9851 0.616 -0.701 -0.361 239 135 123
-1173.8046 4941.7549 -1407.8882 0.616 -0.681 -0.396 232 130 116
-1118.7480 4846.4468 -1400.9070 0.456 -0.522 0.720 223 122 108
-1108.5239 4862.9956 -1416.8442 0.476 -0.491 0.729 230 107 102
-901.4998 4142.5469 -1208.3993 0.002 -0.712 0.702 207 48 55
-677.2778 3467.0720 -1035.3854 -0.391 -0.787 -0.478 254 66 110
-458.1927 3980.6416 -1456.8768 0.963 0.008 0.269 234 85 99
-346.8307 3361.4302 -1228.1743 -0.361 -0.615 -0.701 217 22 48
-293.9261 3633.6619 -1404.5380 0.485 -0.865 -0.129 238 72 80
-2800.4080 2536.0566 1004.7724 0.638 -0.670 0.380 108 98 88
-2777.4768 2550.5498 980.3997 0.399 -0.822 0.407 162 151 143
-2776.7344 2561.0291 974.5494 0.651 -0.573 -0.498 148 140 138
-2841.0142 2647.8564 978.4259 0.894 -0.448 -0.027 147 109 88
-2867.7114 2693.4558 975.2136 0.841 -0.488 -0.234 162 98 61
-2912.1270 2742.5894 983.3840 0.860 -0.510 0.026 162 96 62
-2922.0696 2757.0042 983.4858 0.609 -0.444 -0.657 162 96 62
-2777.5337 2792.6289 858.0412 0.176 -0.787 -0.591 50 32 13
-2772.0339 2794.0107 853.2548 0.120 -0.913 -0.389 48 34 14
-2763.5061 2792.6648 847.5966 0.165 -0.800 -0.577 51 34 15
-2758.3982 2800.7266 839.7238 0.487 -0.576 -0.657 63 31 18
-2763.4102 2811.6299 837.9360 0.503 -0.542 -0.673 71 32 21
-2746.7913 2809.3013 826.7608 0.328 -0.926 0.188 76 28 17
-2351.4443 2749.8250 562.9767 0.879 -0.358 0.313 175 100 61
-2342.6394 2747.2852 557.7162 0.886 -0.366 0.285 176 100 61
-2336.8120 2747.8145 553.1172 0.884 -0.374 0.282 176 100 61
-2354.0720 2779.0303 550.1630 0.902 -0.322 0.288 176 100 60
-2293.4658 2742.0022 523.8373 0.811 -0.087 0.578 160 94 54
-2284.1267 2758.6721 508.4669 0.461 -0.316 0.829 145 81 39
-2275.2244 2755.8525 503.2756 0.465 -0.310 0.829 145 80 39
-2267.4778 2754.2463 498.3297 0.465 -0.310 0.829 138 76 37
-2201.9263 2750.2708 451.6163 0.839 -0.391 -0.378 116 55 24
-2214.5989 2771.0129 450.5480 0.763 -0.592 -0.260 116 55 24
-2226.7080 2875.7361 406.5981 0.682 -0.725 -0.094 198 96 44
-2512.7273 3226.7844 441.6945 0.966 -0.260 -0.000 188 100 54
-2748.7737 3543.6235 456.9440 -0.060 -0.995 0.075 211 163 142
-2736.0027 3537.8037 450.3940 -0.259 -0.957 0.132 211 169 149
-2712.0493 3527.8987 437.5979 -0.222 -0.965 0.140 161 118 98
-2701.5107 3524.5828 431.4414 -0.222 -0.965 0.140 94 51 31
-2694.9912 3525.9907 425.8837 -0.107 -0.993 0.056 76 32 11
-2688.5811 3527.5229 420.3443 -0.129 -0.991 0.030 70 29 9
-2723.6479 3578.3950 420.6870 -0.227 -0.889 -0.398 76 36 18
-2435.6382 3320.9333 336.7912 0.000 -0.981 0.194 54 23 21
-2424.0696 3315.4578 330.9612 0.015 -0.981 0.191 44 19 14
-2406.7988 3302.9253 324.4608 0.294 -0.940 -0.172 31 14 6
-2404.4287 3308.6892 319.7847 0.264 -0.949 -0.171 18 7 0
-2337.6133 3616.2749 114.5989 -0.269 -0.808 -0.525 81 76 86
-2329.0525 3614.5237 109.1212 -0.227 -0.736 -0.638 137 120 124
-2327.9919 3623.2568 103.9172 -0.125 -0.929 0.347 181 159 160
-2325.3284 3629.7759 98.6413 -0.084 -0.839 0.537 213 189 188
-2300.3972 3625.4614 82.2919 -0.275 -0.784 0.556 222 198 198
-1791.6382 4614.7402 -796.0653 0.726 -0.173 0.666 231 201 203
-1787.1833 4622.5298 -803.3150 0.725 -0.174 0.666 232 202 204
-1771.6302 4604.4258 -805.7214 0.598 -0.215 0.772 238 208 210
-1692.3737 4618.1895 -871.5913 0.079 -0.994 -0.070 246 210 212
-1268.3452 5012.3081 -1386.0422 -0.513 -0.558 0.652 246 161 157
-1194.4307 4911.1274 -1389.8228 -0.260 -0.930 0.260 235 148 141
-1191.0502 4925.8906 -1399.8000 0.614 -0.789 -0.022 240 141 131
-1184.2925 4928.4731 -1406.1288 0.611 -0.701 -0.368 239 135 123
-1159.0062 4917.5996 -1419.4257 0.086 -0.995 0.055 234 130 117
-532.5662 3970.5481 -1406.2002 0.993 -0.018 0.117 255 55 82
-350.9285 3392.8613 -1249.1173 -0.583 -0.663 -0.470 216 18 41
-2823.3213 2628.4473 966.2920 0.831 -0.555 0.032 145 107 86
-2826.6235 2636.9285 964.4345 0.833 -0.553 -0.008 147 100 72
-2694.7913 2713.4351 827.7082 0.611 -0.497 -0.617 52 32 15
-2685.6702 2711.3840 821.9796 0.593 -0.525 -0.610 52 36 12
-2688.2869 2719.8530 819.6194 0.598 -0.519 -0.611 52 34 8
-2658.2686 2748.3606 782.8541 -0.427 -0.809 0.405 159 87 50
-2715.3674 2807.1699 795.3602 -0.452 -0.889 -0.072 174 96 52
-2357.5073 2737.4722 565.1344 0.943 -0.265 -0.200 170 101 58
-2344.5303 2730.6567 558.9642 0.934 -0.290 0.208 168 102 59
-2342.5811 2735.1628 555.2280 0.929 -0.291 0.229 166 102 60
-2339.6877 2738.7073 551.2797 0.869 -0.306 0.390 167 103 60
-2309.8918 2720.8828 538.2181 0.854 -0.432 0.289 160 94 51
-2273.5632 2696.0134 523.8867 0.833 -0.475 0.284 161 95 52
-2238.4492 2812.2073 438.7902 0.519 -0.738 0.431 121 68 33
-2248.4961 2830.3374 437.0368 0.497 -0.692 0.523 144 85 48
-2432.8525 3112.3406 430.6123 0.722 -0.640 0.264 197 104 58
-2470.9478 3163.8452 432.7234 0.684 -0.555 0.474 203 116 72
-2754.0918 3542.0972 450.7289 -0.065 -0.996 0.062 213 171 155
-2746.7163 3542.5962 445.0006 -0.060 -0.995 0.075 219 184 168
-2732.1887 3534.7117 438.2226 -0.263 -0.955 0.136 221 184 167
-2701.8918 3526.4021 419.9553 -0.107 -0.993 0.056 69 32 16
-2726.5132 3573.9163 414.0921 -0.246 -0.884 -0.397 72 35 20
-2748.2927 3609.1199 412.3737 -0.142 -0.818 -0.557 64 27 11
-2365.8281 3616.1912 124.8823 0.063 -0.806 -0.589 44 42 53
-2350.9705 3626.1189 108.8099 -0.148 -0.912 0.383 57 52 62
-2343.0566 3625.3135 103.3446 -0.147 -0.915 0.376 99 82 85
-2335.6638 3625.2175 97.9058 -0.128 -0.914 0.386 157 136 137
-2329.0615 3626.2153 92.4982 -0.084 -0.839 0.537 207 183 182
-1805.4669 4422.2153 -700.5634 0.927 -0.374 0.015 246 208 205
-1834.7710 4625.9912 -782.3385 0.633 -0.575 -0.518 241 207 205
-1825.9030 4623.7100 -787.7623 0.558 -0.573 -0.599 239 207 205
-1802.6144 4588.3560 -787.0877 0.822 -0.421 -0.383 235 204 206
-1196.5575 4921.7915 -1406.3564 0.614 -0.789 -0.022 237 138 127
-1189.3270 4922.6460 -1412.1578 0.572 -0.818 0.057 235 132 119
-1029.4459 4414.7900 -1272.8221 -0.161 -0.660 -0.734 227 124 109
-1022.6516 4414.1870 -1277.5590 -0.147 -0.609 -0.780 225 123 109
-1081.7699 4766.7666 -1412.8025 0.541 -0.732 0.414 208 75 74
-1065.3954 4786.2842 -1434.8728 -0.017 -0.971 0.238 211 37 50
-1057.9148 4784.9570 -1439.7512 -0.017 -0.971 0.238 214 29 45
-772.7368 3709.9282 -1105.2729 -0.339 -0.635 -0.694 222 33 49
-769.9017 3720.3450 -1112.6696 -0.477 -0.779 -0.407 229 38 57
-689.6204 3460.2300 -1040.1113 -0.438 -0.893 -0.104 255 64 101
-532.7945 3943.1401 -1401.8613 0.983 -0.094 0.160 253 53 79
-459.1893 3923.2598 -1446.3975 0.975 -0.092 0.201 233 86 97
-425.3607 3769.4102 -1393.3455 -0.017 -0.623 0.782 221 44 70
-482.7582 4267.7769 -1603.9326 -0.065 -0.934 0.351 215 17 39
-2903.1660 2564.4421 1049.3580 0.299 -0.521 0.799 73 67 55
-2894.5476 2563.1848 1043.6113 -0.032 -0.602 0.798 76 69 53
-2294.6543 2667.6826 545.5750 0.064 -0.997 0.045 163 96 55
-2288.6501 2667.8623 541.0323 0.064 -0.997 0.045 156 96 53
-2280.7258 2666.0588 536.0788 0.007 -0.999 0.050 155 97 54
-2274.0312 2665.5046 531.3990 -0.008 -0.999 0.053 155 97 55
-2268.0784 2665.7051 526.8840 -0.006 -0.988 0.153 153 93 52
-2260.6780 2664.3967 522.0660 0.005 -0.991 0.133 147 86 44
-2252.9419 2662.7231 517.1855 0.006 -0.990 0.142 147 87 44
-2244.4919 2660.2883 512.1648 0.037 -0.991 0.128 147 87 43
-2201.6890 2666.3813 477.3252 0.533 -0.708 0.463 115 62 28
-2193.4583 2664.0461 472.4158 0.449 -0.767 0.459 110 60 24
-2190.4646 2667.2896 468.5409 0.550 -0.735 0.396 104 58 20
-2183.1919 2665.9531 463.8320 0.725 -0.632 0.273 104 59 20
-2176.8628 2665.6143 459.3133 0.524 -0.809 0.266 105 59 20
-2148.5181 2647.9512 447.3181 0.268 -0.734 0.624 105 59 20
-2124.3257 2634.5745 436.2130 0.327 -0.715 0.618 103 59 20
-2240.8225 2802.0540 437.0781 0.327 -0.940 0.098 102 57 20
-2235.3818 2802.9453 432.5899 0.389 -0.915 0.108 111 66 29
-2239.7395 2814.7046 429.8176 0.250 -0.852 0.460 141 85 48
-2230.4072 2811.2847 424.6455 0.256 -0.839 0.480 178 95 56
-2225.7939 2813.1006 420.2986 0.166 -0.834 0.526 190 93 49
-2349.2500 3002.8535 414.9528 0.826 -0.564 -0.001 194 104 60
-2757.1174 3537.9077 444.1735 0.069 -0.981 -0.179 210 174 164
-2748.1116 3536.5046 438.2137 -0.260 -0.956 0.140 219 189 180
-2736.9417 3532.5535 431.9505 -0.260 -0.956 0.140 220 189 178
-2703.3696 3529.5171 408.6140 -0.104 -0.994 0.042 67 36 27
-2759.6711 3614.6782 406.8777 -0.080 -0.991 -0.102 64 28 14
-2301.4509 3404.4583 174.5146 -0.690 -0.598 0.409 33 36 46
-2359.8298 3619.5022 108.0177 -0.107 -0.897 0.429 44 42 53
-2352.6436 3619.7144 102.5823 -0.088 -0.885 0.457 47 42 51
-2350.2458 3626.5688 97.3059 -0.073 -0.835 0.546 71 54 58
-2341.4146 3624.4827 91.8244 -0.074 -0.839 0.540 130 110 111
-2330.8911 3620.0037 86.3099 -0.074 -0.839 0.540 198 175 175
-1840.3450 4640.8799 -798.4483 0.588 -0.576 -0.568 242 210 208
-1745.7286 4442.9336 -767.5414 0.715 -0.623 -0.316 241 210 212
-1785.7833 4551.9893 -793.5186 0.831 -0.514 -0.212 240 210 212
-1784.9392 4567.8003 -802.2154 0.833 -0.515 -0.201 240 210 212
-1770.6576 4552.6704 -805.0788 0.806 -0.582 -0.108 240 210 212
-1766.1940 4560.1724 -812.2172 0.806 -0.582 -0.108 240 210 212
-1721.9608 4546.3770 -837.9646 0.527 -0.201 0.826 246 210 214
-1220.6982 4851.9883 -1365.5485 -0.671 -0.646 0.364 242 156 154
-1199.4043 4908.1631 -1410.0087 0.609 -0.779 -0.148 235 136 126
-1196.6873 4925.2568 -1420.7485 0.567 -0.819 0.083 232 129 117
-1048.2594 4462.2139 -1294.4089 -0.329 -0.753 -0.569 223 119 106
-1086.9226 4762.1758 -1418.8688 0.462 -0.767 0.444 210 86 82
-1058.0276 4760.6089 -1439.4883 0.616 -0.760 -0.207 212 34 48
-472.9313 3911.6797 -1439.8641 0.883 -0.076 0.464 221 92 97
-2886.8240 2552.5979 1034.6182 -0.019 -0.581 0.814 76 69 53
-2851.0513 2694.3401 935.4385 0.679 -0.671 0.298 96 39 7
-2844.4429 2700.6592 927.3052 0.694 -0.629 0.350 87 42 10
-2821.2705 2687.0200 917.1465 -0.422 -0.824 0.378 95 48 19
-2771.8459 2716.4980 865.4390 0.926 -0.201 0.320 62 51 31
-2769.2947 2832.9600 803.8188 0.050 -0.985 0.164 159 95 59
-2758.5840 2829.6267 797.5995 0.070 -0.995 0.069 170 100 64
-2276.2021 2662.4011 526.2654 0.020 -0.997 0.074 140 84 38
-2270.0801 2662.4255 521.7208 -0.008 -0.989 0.146 138 80 35
-2263.2188 2661.6760 517.0258 -0.008 -0.989 0.146 132 75 29
-2253.4775 2657.9275 511.7372 0.026 -0.991 0.132 130 75 29
-2246.9475 2657.4880 507.1283 0.026 -0.991 0.132 130 75 32
-2213.1589 2666.7041 477.3883 0.469 -0.797 0.379 105 55 27
-2200.3350 2659.5222 471.5783 0.449 -0.767 0.459 104 56 26
-2194.8621 2660.1165 467.2221 0.449 -0.767 0.459 103 58 23
-2191.1636 2662.5974 463.2115 0.532 -0.803 0.269 101 61 22
-2179.0703 2662.5334 454.2920 0.524 -0.809 0.266 101 61 22
-2108.7070 2593.3196 437.7017 0.740 -0.475 0.476 102 60 22
-2257.9187 2815.0532 434.4373 -0.466 -0.812 0.352 99 59 21
-2226.6116 2794.2964 421.9068 0.297 -0.942 0.153 138 87 49
-2215.7935 2796.0835 412.9818 -0.119 -0.812 0.572 191 93 51
-2353.3433 3001.1196 409.6482 0.830 -0.558 0.016 207 118 76
-2769.6868 3544.7910 439.0211 0.188 -0.967 -0.170 207 174 167
-2744.8450 3525.0164 430.7732 0.253 -0.905 0.343 216 190 186
-2737.0742 3525.0139 425.0219 0.253 -0.905 0.343 217 189 182
-2729.3149 3525.0117 419.2789 0.253 -0.905 0.343 200 172 167
-2721.4453 3524.8672 413.5271 0.272 -0.918 0.288 132 103 99
-2714.0581 3525.2761 407.8488 0.272 -0.918 0.288 75 47 41
-2709.7896 3529.3484 402.6003 0.274 -0.915 0.295 67 40 33
-2715.3840 3545.0818 398.6725 0.198 -0.976 -0.094 64 33 23
-2328.4758 3547.7539 110.8782 0.315 -0.763 -0.564 43 41 52
-2360.1592 3601.1956 106.9237 0.074 -0.765 -0.639 43 43 53
-2358.0002 3608.3042 101.6794 -0.104 -0.882 0.459 44 42 53
-2356.9556 3616.9819 96.4555 -0.088 -0.885 0.457 46 42 51
-2355.6553 3625.3428 91.2047 -0.074 -0.839 0.540 62 49 52
-2345.0889 3620.8560 85.6837 -0.074 -0.839 0.540 110 92 93
-2334.5645 3616.3870 80.1847 -0.074 -0.839 0.540 177 156 155
-1054.7162 4750.7222 -1449.0563 0.564 -0.793 -0.230 222 42 54
-1045.4761 4742.2554 -1451.5541 0.641 -0.767 -0.015 223 34 49
-520.4633 3816.2944 -1365.3030 0.691 -0.699 0.184 252 52 76
-473.4628 3884.6387 -1435.1497 0.851 -0.088 0.518 223 89 97
-474.5696 3925.5317 -1455.3038 0.845 -0.153 0.512 227 88 101
-2801.2505 2568.0615 954.7164 0.543 -0.454 -0.707 144 130 127
-2853.0779 2691.1133 929.6227 0.677 -0.677 0.289 73 23 0
-2649.3838 2587.7751 832.2847 0.792 -0.578 0.197 72 48 32
-2282.2913 2657.0166 525.2167 0.331 -0.673 0.661 125 76 31
-2271.0120 2658.0540 516.3435 -0.028 -0.983 0.183 124 71 28
-2263.3914 2656.5183 511.5009 0.088 -0.995 0.042 117 67 22
-2247.6663 2652.8933 501.7436 0.072 -0.997 0.035 116 67 26
-2248.8284 2799.2141 427.2029 -0.456 -0.845 0.278 98 58 22
-2786.4568 3556.4929 434.4358 0.142 -0.477 0.867 204 176 167
-2426.2126 3323.2595 288.2978 0.342 -0.806 0.483 11 9 0
-2327.4761 3422.9507 163.9315 -0.597 -0.635 0.491 33 36 44
-2357.3845 3598.8240 95.4141 -0.073 -0.903 0.423 44 42 53
-2360.1135 3612.6641 90.2996 -0.128 -0.895 0.428 45 42 51
-1148.6232 4605.8916 -1317.1570 0.633 -0.612 0.474 237 147 143
-1142.2155 4608.0063 -1322.9839 0.633 -0.612 0.474 234 148 146
-1102.1112 4744.6255 -1423.0328 -0.018 -0.678 0.735 219 107 96
-2815.8340 2498.8770 992.6826 -0.321 -0.947 -0.022 44 36 24
-2810.3401 2610.1870 930.9985 -0.015 -0.754 0.657 132 91 79
-2848.7200 2682.5530 921.8685 0.715 -0.639 0.284 74 34 15
-2816.7571 2661.6499 909.0926 -0.335 -0.926 0.175 89 57 35
-2615.9255 2554.2026 816.4488 -0.048 -0.871 0.489 53 44 26
-2646.9768 2586.6519 822.5739 0.554 -0.832 -0.009 48 40 21
-2275.3245 2607.4348 537.4270 0.822 -0.340 -0.457 130 77 42
-2291.4028 2648.4648 528.0552 0.576 -0.521 0.630 115 65 32
-2285.9480 2649.1750 523.6603 0.576 -0.521 0.630 100 57 22
-2272.0300 2641.2319 517.4971 0.640 -0.471 0.607 100 58 24
-2249.7881 2630.9404 506.4043 -0.199 -0.978 0.056 102 56 24
-2233.8010 2626.9629 496.6606 -0.204 -0.978 0.044 95 57 22
-2220.5298 2619.4817 490.7355 -0.179 -0.983 -0.027 99 56 18
-2370.6479 3462.3713 165.1821 -0.592 -0.635 0.496 25 26 30
-2361.1626 3605.4609 84.0984 -0.095 -0.883 0.460 43 42 51
-2340.2212 3606.8403 67.9232 -0.173 -0.791 0.587 141 123 123
-2303.1792 3585.5798 51.5827 -0.182 -0.765 0.618 220 195 199
-1119.0979 4481.5439 -1286.4745 -0.371 -0.766 0.525 236 146 143
-1087.8867 4694.2891 -1419.6608 0.140 -0.611 0.779 221 105 95
-1072.4072 4715.8003 -1442.2261 0.658 -0.738 0.148 230 83 84
-328.0648 3442.1167 -1332.3497 -0.200 -0.527 0.826 184 1 16
-2858.6965 2522.5740 1003.4948 -0.394 -0.912 0.112 64 57 47
-2801.6492 2598.3318 922.0295 -0.042 -0.754 0.656 116 85 73
-2682.2002 2635.5024 814.6267 0.623 -0.695 -0.359 49 29 16
-2676.2544 2636.1858 809.8875 0.611 -0.696 -0.378 50 22 12
-2692.3289 2656.1062 811.3777 0.525 -0.768 0.367 50 19 6
-2251.2419 2627.1804 501.2137 -0.369 -0.916 -0.155 95 55 26
-2842.8003 3560.3687 451.9738 0.299 -0.370 0.880 203 164 145
-2787.4434 3515.2957 434.6040 -0.296 -0.917 -0.267 220 180 163
-2784.1038 3520.4197 429.4764 -0.033 -0.903 -0.428 218 181 165
-2305.3728 3387.2429 145.7834 -0.583 -0.638 0.504 32 35 41
-2356.2087 3590.0520 77.7747 -0.093 -0.903 0.418 40 43 53
-1076.2179 4428.5161 -1302.0714 -0.461 -0.681 0.569 225 119 110
-542.2392 3858.3293 -1399.1908 0.368 -0.399 -0.840 254 46 72
-486.9940 3814.8999 -1417.3331 0.843 -0.116 0.525 240 128 153
-364.0475 3176.1069 -1175.7173 0.228 -0.972 0.056 225 72 93
-2872.7644 2529.0718 1001.8952 -0.396 -0.913 0.094 65 56 47
-2811.6245 2568.1802 936.4420 0.851 -0.418 -0.318 114 97 90
-2800.1729 2592.4309 915.3378 -0.042 -0.754 0.656 100 72 61
-2824.9932 2641.4224 908.0117 0.746 -0.354 -0.564 68 38 24
-2755.8457 2712.6145 819.8969 0.385 -0.494 -0.780 82 41 17
-2256.3628 2614.7917 503.2498 0.520 -0.424 0.741 95 56 27
-2275.7590 2640.7598 503.9613 -0.371 -0.916 -0.156 95 56 27
-2270.3826 2641.5186 499.6060 -0.395 -0.911 -0.118 96 55 27
-2856.5735 3559.3120 451.6118 0.322 -0.365 0.873 196 159 141
-2839.8787 3558.4243 439.7834 0.316 -0.366 0.875 218 181 164
