ply
format ascii 1.0
element vertex 794
property float x
property float y
property float z
property float nx
property float ny
property float nz
property uchar diffuse_red
property uchar diffuse_green
property uchar diffuse_blue
end_header
-2188.9619 3352.0117 526.0766 0.717 -0.312 -0.623 104 89 84
-2190.0615 3365.0530 524.2397 0.580 -0.075 -0.811 134 118 113
-2195.3789 3384.3335 523.4066 0.755 0.162 -0.636 170 153 148
-2202.2766 3406.0435 522.9330 0.802 0.268 -0.534 196 175 169
-2211.4832 3431.2842 522.9875 0.785 0.281 -0.552 208 182 174
-2217.8818 3452.5120 522.3480 0.783 0.279 -0.556 209 182 173
-2198.4250 3435.3970 515.5719 0.777 0.261 -0.572 209 182 173
-2204.0176 3467.3621 512.5471 0.817 -0.576 0.038 208 181 172
-2212.6995 3492.3167 512.3868 0.914 -0.339 -0.221 208 181 172
-3110.4304 5160.0176 663.6085 0.654 0.043 0.755 198 163 157
-2736.9785 5128.8677 478.8770 0.199 -0.620 0.759 181 140 134
-2781.1675 5228.2939 483.1331 0.300 -0.495 0.816 181 140 134
-2772.5271 5231.4224 478.1513 0.316 -0.504 0.804 181 140 134
-2653.9482 5315.0161 402.3075 0.022 -0.996 -0.086 180 136 125
-2669.5063 5365.1094 401.0321 0.370 -0.855 -0.364 176 132 121
-2696.6272 5458.3975 397.7121 -0.024 -0.883 -0.468 176 132 119
-2756.2766 5596.9058 402.6674 -0.027 -0.993 0.115 175 131 118
-2455.1423 6068.2104 162.4385 0.410 -0.264 -0.873 67 51 36
-2515.3894 6313.6616 148.0365 0.191 -0.567 -0.801 26 13 1
-2309.5449 6064.7441 88.8218 0.666 -0.663 0.341 51 37 28
-1963.2635 5273.0854 57.7712 0.109 -0.671 0.733 99 84 77
-1887.1852 5133.5747 44.6215 0.467 -0.773 0.429 216 201 196
-1871.7108 5112.7368 40.5607 0.508 -0.745 0.433 221 206 201
-1825.9330 5175.6582 5.6458 0.756 -0.518 -0.400 226 210 210
-1717.2303 5828.6782 -169.8535 -0.153 -0.981 0.116 250 244 244
-1698.9985 5845.2754 -182.2030 -0.092 -0.989 0.118 221 210 210
-1686.2247 5827.7480 -185.4950 -0.099 -0.993 -0.066 117 104 104
-1680.1917 5833.2822 -189.5894 -0.069 -0.988 0.142 69 57 57
-4361.3823 2750.9451 1732.9966 0.978 0.013 -0.207 13 44 62
-4366.5664 2764.4680 1733.1248 0.972 -0.054 -0.227 9 40 57
-4385.9995 2786.3540 1738.9437 0.909 -0.182 -0.374 3 34 51
-4338.7676 2790.4385 1714.1849 0.844 0.378 0.381 11 33 49
-4447.7217 2898.4417 1749.5350 0.942 0.332 0.059 58 61 64
-4332.7642 2872.3872 1695.9463 -0.025 -0.952 0.304 159 134 125
-4191.4746 2807.0637 1636.2542 0.760 -0.643 0.096 180 154 150
-4176.7046 2808.4507 1628.4916 0.889 -0.289 -0.355 152 138 135
-4172.7207 2816.4868 1624.9777 0.866 -0.307 -0.395 75 76 74
-4170.2085 2835.9998 1620.0845 0.860 -0.318 -0.399 77 99 103
-3546.8889 2639.6177 1339.7305 0.858 0.025 -0.513 132 183 221
-3452.6335 2669.1682 1286.3561 -0.227 -0.871 -0.437 72 42 37
-3054.6643 2498.0884 1115.8282 0.977 -0.196 0.085 86 77 69
-2931.1096 2569.2585 1039.8513 -0.192 -0.921 0.339 94 63 45
-2859.3330 2563.8032 1004.3878 0.924 -0.238 -0.300 94 67 58
-2819.1814 2600.9177 977.1055 0.731 -0.291 -0.618 189 157 146
-2853.6179 2675.4109 980.7988 0.857 -0.326 0.398 183 111 81
-2910.9968 2810.0518 985.0031 0.987 0.041 -0.156 151 88 53
-2915.2395 2823.4597 984.6741 0.988 0.047 -0.149 142 82 48
-2919.4666 2856.3230 980.7314 -0.190 -0.969 -0.158 106 43 10
-2806.8818 2967.3225 902.9474 0.730 -0.259 0.632 178 98 62
-2759.4636 3000.5952 872.6843 0.938 -0.174 0.299 134 69 39
-2704.4221 3004.8760 843.9207 0.154 -0.665 0.731 199 103 53
-2419.0703 3117.0200 678.1298 0.633 -0.423 0.648 187 104 60
-2418.0498 3136.7878 673.9475 0.269 -0.891 0.365 173 102 68
-2411.5325 3139.3599 670.1589 0.585 -0.708 0.396 143 77 46
-2331.4180 3198.3191 618.5201 0.295 -0.156 -0.943 102 63 46
-2325.4658 3201.3748 614.9291 0.373 0.088 -0.923 103 64 47
-2328.8652 3216.6157 613.8318 0.374 0.087 -0.923 112 71 55
-2333.6299 3233.7183 613.0834 0.371 -0.004 -0.929 190 145 130
-2338.8059 3251.4487 612.4276 0.315 -0.053 -0.948 197 152 137
-2342.7798 3267.6853 611.4379 0.366 -0.007 -0.931 205 158 143
-2388.0417 3407.2351 608.5750 0.962 -0.137 0.238 165 137 130
-2358.9473 3379.2864 598.9700 0.123 -0.937 0.328 115 90 85
-2318.8376 3381.6260 578.1539 0.959 0.187 -0.211 54 32 27
-2221.1553 3290.6997 545.3667 0.425 -0.867 0.262 25 13 9
-2224.0938 3306.0171 544.0212 0.643 -0.715 0.273 24 13 9
-2194.2310 3319.7502 526.3007 0.773 -0.600 0.205 22 13 6
-2197.3967 3335.6128 524.9694 0.761 -0.490 -0.424 25 14 8
-2194.4417 3342.6995 522.1543 0.739 -0.466 -0.487 21 12 7
-2193.8213 3353.1902 519.8948 0.717 -0.312 -0.623 22 13 6
-2195.2810 3366.7515 518.1232 0.587 -0.075 -0.806 59 50 43
-2200.0081 3385.1538 517.1147 0.752 0.157 -0.640 104 93 86
-2206.6855 3406.5176 516.5485 0.802 0.268 -0.534 140 124 116
-2214.5798 3429.7939 516.2462 0.800 0.287 -0.526 174 149 141
-2217.1655 3445.3516 514.6768 0.739 0.193 -0.646 190 163 154
-2223.2700 3466.2090 513.9133 0.739 0.193 -0.646 206 179 170
-2227.7156 3484.7097 512.7435 0.903 -0.207 -0.376 209 182 173
-2200.4226 3455.8354 504.2255 0.845 -0.532 0.054 198 171 162
-2215.2698 3513.9741 500.9953 0.762 -0.647 -0.026 195 168 159
-3004.8757 4963.3633 633.6239 0.689 -0.011 0.725 204 169 163
-3083.5889 5125.4453 643.5838 0.655 0.044 0.754 201 166 160
-3072.6523 5199.3115 624.3361 0.767 0.222 0.602 162 127 121
-3081.3718 5481.3188 576.5012 0.192 -0.816 0.546 198 161 155
-3081.7732 5501.7715 572.9145 0.375 -0.640 0.671 196 159 153
-3027.5627 5545.8457 537.1979 0.085 -0.731 0.677 187 143 140
-2752.4612 5184.4385 464.3819 0.108 -0.961 0.255 181 142 135
-2745.9937 5248.2246 449.2735 0.187 -0.982 -0.013 183 144 137
-2650.9302 5298.4937 391.6486 0.017 -0.996 -0.090 187 143 132
-2667.2207 5389.4292 383.0734 0.074 -0.985 -0.157 182 138 125
-2713.8804 5522.0669 382.2018 0.124 -0.937 -0.325 180 134 119
-2476.2319 6081.9482 157.6705 0.045 -0.531 -0.846 76 60 45
-2483.5212 6123.5620 153.6623 0.117 -0.519 -0.846 58 42 27
-1967.6039 5272.3921 49.2418 0.110 -0.674 0.731 143 128 121
-1877.0114 5115.1001 32.3576 0.668 -0.728 0.153 224 209 204
-1890.0298 5170.8530 28.6401 0.533 -0.745 0.401 230 215 210
-1906.8302 5258.5366 20.9266 0.948 0.247 0.199 229 214 209
-1764.4250 4971.6182 1.7371 0.985 -0.061 0.161 228 212 212
-1824.4056 5180.3335 -6.4650 -0.347 -0.761 -0.549 238 222 222
-1696.4333 5820.8809 -190.2127 -0.195 -0.981 -0.005 234 223 221
-1682.7776 5800.2920 -193.3362 -0.196 -0.980 -0.017 142 128 128
-1675.6229 5801.8442 -197.2598 -0.198 -0.980 -0.023 69 56 56
-1700.8783 5915.5625 -205.5018 0.735 -0.572 0.364 65 52 52
-4335.3828 2869.3511 1686.2083 -0.025 -0.952 0.304 155 132 121
-4190.9897 2802.2546 1625.6305 0.736 -0.668 0.114 174 148 144
-4173.2588 2833.3523 1610.8433 0.866 -0.301 -0.398 101 123 127
-3556.1499 2641.7478 1334.1696 0.969 0.016 -0.248 132 183 221
-3448.8762 2652.8184 1277.7842 -0.100 -0.614 -0.783 74 28 16
-2862.0054 2561.9817 997.5966 0.924 -0.238 -0.300 95 68 59
-2860.9722 2569.9229 995.5899 0.707 -0.661 0.250 118 91 82
-2873.1162 2588.7878 998.2147 0.941 -0.222 -0.257 128 101 92
-2854.7832 2635.9624 980.1190 0.546 -0.460 -0.700 195 155 147
-2852.2695 2642.8352 977.5623 0.546 -0.460 -0.700 190 143 138
-2849.2544 2676.5405 969.7390 0.858 -0.333 0.392 185 111 76
-2930.0745 2832.2681 981.5694 0.946 0.065 -0.317 123 63 29
-2925.3057 2857.0693 974.5215 -0.193 -0.969 -0.153 99 36 3
-2911.1333 2853.9302 967.9319 -0.188 -0.969 -0.160 102 39 6
-2917.7495 2909.0557 960.9837 0.549 -0.761 0.345 180 97 55
-2924.9995 2925.7173 961.5421 0.580 -0.734 0.354 184 101 59
-2903.7417 2915.8384 952.6238 0.498 -0.802 0.330 183 102 59
-2871.8970 2905.7700 938.3805 0.517 -0.686 0.513 186 100 58
-2855.9600 2910.4612 929.4346 0.509 -0.694 0.509 184 93 48
-2797.2754 2943.1240 893.6181 0.590 -0.676 0.441 182 98 51
-2802.6130 2958.3491 893.4766 0.372 -0.845 0.384 181 98 56
-2794.1260 2959.9915 888.8724 0.372 -0.845 0.384 166 84 48
-2785.6636 2961.6294 884.2816 0.372 -0.845 0.384 165 84 53
-2765.8174 2961.8992 874.1823 0.823 -0.298 0.484 163 84 60
-2422.4961 3126.4497 669.6038 0.860 -0.265 0.437 179 104 63
-2417.8140 3131.2610 666.3343 0.409 -0.779 0.475 169 98 64
-2376.0979 3250.6614 622.9060 0.362 -0.005 -0.932 113 74 57
-2328.2319 3199.5337 608.2208 0.886 0.146 -0.441 112 73 56
-2331.2764 3214.2930 607.0051 0.886 0.146 -0.441 120 79 62
-2336.1091 3231.4595 606.2452 0.887 0.145 -0.439 185 135 121
-2340.4768 3248.1038 605.3473 0.895 0.133 -0.426 192 140 127
-2285.3289 3329.4856 562.2203 0.502 -0.855 -0.133 34 13 7
-2224.4360 3300.7607 536.7540 0.619 -0.738 0.268 19 16 9
-2221.4153 3307.7031 533.9274 0.654 -0.712 0.258 19 16 9
-2198.0659 3319.4541 519.9095 0.712 -0.393 -0.582 19 15 6
-2197.2842 3340.9558 515.4968 0.689 -0.437 -0.578 17 14 5
-2197.7351 3352.9883 513.4773 0.716 -0.316 -0.622 18 16 7
-2202.0674 3370.7170 512.3589 0.567 -0.096 -0.818 35 32 23
-2206.5657 3388.7805 511.2620 0.755 0.162 -0.636 58 51 43
-2209.3970 3404.4966 509.7597 0.777 0.251 -0.577 79 69 59
-2220.7476 3444.5581 508.0229 0.742 0.185 -0.644 150 123 114
-2221.4048 3457.3171 505.9721 0.678 -0.123 -0.725 183 156 147
-2223.5222 3472.3025 504.2448 0.622 -0.503 -0.600 202 175 166
-2235.1570 3501.5676 504.6688 0.774 -0.282 0.566 213 186 177
-2230.3074 3506.3098 501.3273 0.743 -0.308 0.594 218 191 182
-2175.3992 3447.5332 484.5053 0.835 -0.475 -0.277 194 167 158
-3047.0671 5075.1045 621.8135 0.728 0.130 0.673 202 167 161
-3047.2700 5093.4502 618.4890 0.728 0.130 0.673 202 167 161
-3046.6321 5165.2476 604.7532 0.742 0.239 0.626 167 132 126
-3064.2554 5580.2241 536.1530 0.500 -0.845 0.189 201 160 156
-3015.7666 5534.0703 520.2232 0.082 -0.733 0.676 194 153 149
-2542.0242 6178.4409 159.9700 -0.005 -0.485 -0.874 90 70 54
-2493.7476 6134.7148 143.6941 0.125 -0.517 -0.847 54 38 23
-2492.5049 6180.1226 134.5821 0.086 -0.515 -0.853 32 16 0
-2507.7781 6241.9507 130.7652 0.224 -0.634 -0.740 32 14 0
-2022.7986 5362.2954 49.5320 0.445 -0.552 0.706 116 102 93
-2016.2994 5366.7910 45.4014 0.440 -0.559 0.703 146 132 123
-1994.7699 5331.7319 41.0497 0.469 -0.598 0.650 169 154 147
-1987.2065 5333.2080 36.9443 0.469 -0.598 0.650 195 180 175
-1983.4231 5344.6650 32.8882 0.371 -0.683 0.629 207 192 187
-1935.2892 5238.0156 28.4397 0.519 -0.732 0.440 220 205 200
-1928.3289 5240.5498 24.4419 0.519 -0.732 0.440 227 212 207
-1889.0470 5156.2109 20.3075 0.477 -0.794 0.376 229 214 209
-1726.9275 4816.8335 1.6202 0.463 -0.194 -0.865 228 212 212
-1739.5121 4890.9502 -5.8537 0.996 0.058 -0.069 229 213 213
-1799.2751 5118.8125 -18.1611 -0.037 -0.339 -0.940 243 227 227
-1497.6135 4342.9502 -25.9627 0.946 0.225 0.231 248 236 236
-1689.2488 5806.9004 -202.4169 -0.198 -0.980 -0.032 160 146 145
-4197.6768 2791.3831 1619.7914 0.725 -0.670 0.157 152 124 116
-4186.0049 2805.1658 1611.3073 0.752 -0.650 0.110 119 105 102
-4176.4868 2820.2832 1603.6588 0.860 -0.297 -0.414 61 74 76
-3558.2317 2638.9875 1325.8749 0.969 0.016 -0.248 131 183 222
-3569.2664 2665.6060 1326.4299 0.789 0.117 -0.603 84 95 103
-3786.5994 2855.3962 1400.3424 0.999 -0.016 -0.046 74 37 27
-2864.6768 2560.1599 990.8069 0.924 -0.238 -0.300 94 67 58
-2861.5969 2566.4114 988.0759 0.707 -0.661 0.250 112 85 76
-2896.4268 2639.9084 991.8092 -0.296 -0.955 -0.017 146 124 110
-2871.2874 2691.3721 969.4359 0.903 -0.212 -0.373 185 111 76
-2945.1553 2841.2598 978.4808 0.549 0.288 -0.785 106 45 14
-2931.0645 2857.7344 968.2697 -0.188 -0.969 -0.160 107 47 11
-2918.7803 2856.3342 962.3358 -0.188 -0.969 -0.160 119 56 21
-2911.1985 2859.1672 957.9772 -0.189 -0.970 -0.155 127 63 27
-2864.8149 2855.4329 935.2790 0.315 -0.905 0.285 178 95 53
-2787.8257 2812.6250 904.4970 0.933 -0.210 0.291 184 101 59
-2771.9707 2807.2710 897.5060 0.946 -0.300 -0.118 186 100 59
-2801.1753 2844.3174 905.2647 0.963 -0.109 0.247 182 93 50
-2799.6516 2852.5222 902.9510 0.963 -0.109 0.247 182 93 49
-2426.2129 3125.7424 663.0995 0.866 -0.217 0.450 173 97 59
-2360.2549 3203.0645 615.2634 0.369 0.019 -0.929 128 91 73
-2337.9695 3206.7229 603.3311 0.921 -0.073 -0.382 125 86 69
-2339.6619 3219.7390 601.7341 0.918 -0.174 -0.357 132 88 73
-2365.0461 3285.8213 602.0981 0.566 0.031 -0.824 189 130 119
-2135.3140 3202.1582 501.9473 0.924 -0.379 -0.051 16 18 9
-2206.9121 3383.3367 503.9555 0.777 0.235 -0.584 30 28 16
-2214.3730 3405.7898 503.4919 0.791 0.269 -0.549 38 30 20
-2223.1299 3430.2725 503.3000 0.774 0.272 -0.572 64 42 32
-2227.4473 3471.9883 497.6233 0.626 -0.501 -0.598 160 133 124
-2232.7542 3491.7839 496.5734 0.788 -0.249 0.562 196 169 160
-2231.5181 3501.9011 494.0448 0.809 -0.195 0.555 211 184 175
-2226.7256 3506.7148 490.7205 0.817 -0.189 0.545 208 181 172
-2187.4524 3459.5737 479.7829 0.963 -0.264 0.058 201 174 165
-3043.5952 5096.0371 603.5888 0.701 0.093 0.707 202 167 161
-2976.1675 5022.0469 583.5020 0.725 0.261 0.637 193 158 152
-2992.7732 5067.1499 583.3875 0.726 0.263 0.635 188 153 147
-3006.3604 5107.5601 582.6335 0.734 0.263 0.626 179 144 138
-2752.5571 5108.7822 454.3552 0.275 -0.795 0.541 188 149 144
-1655.2050 3798.6709 147.4053 0.308 -0.379 0.873 138 93 77
-1627.6831 3751.3066 142.4384 0.399 -0.461 0.793 126 84 68
-1643.5491 3815.1064 138.4301 0.848 -0.033 0.530 117 80 62
-2550.1118 6184.1089 149.7425 0.017 -0.459 -0.888 89 68 52
-1993.1758 5294.0747 36.3449 0.430 -0.613 0.663 168 154 145
-1987.0955 5299.3555 32.2829 0.249 -0.809 0.533 180 165 158
-1978.9482 5299.1772 28.2060 0.249 -0.809 0.533 195 180 175
-2041.0922 5507.0894 20.4106 0.358 -0.596 0.719 219 204 199
-1958.9424 5310.1245 16.0514 0.765 -0.599 0.237 226 211 206
-2002.4913 5448.3091 12.0036 0.706 -0.024 0.707 229 214 209
-1692.0306 5800.8779 -211.0152 -0.161 -0.982 0.098 175 161 161
-1593.9227 5490.8164 -202.1302 -0.173 -0.949 0.265 69 56 56
-1596.7925 5525.4087 -207.1958 -0.109 -0.943 0.316 66 52 52
-4336.6265 2671.7795 1701.0897 0.696 -0.599 0.397 1 38 54
-4190.7876 2782.6970 1606.7286 0.841 -0.228 0.490 144 120 110
-4183.9287 2809.8638 1598.1255 0.908 -0.126 -0.399 40 42 41
-4178.9731 2817.2986 1594.2235 0.865 -0.285 -0.414 72 87 90
-3791.7488 2854.4309 1392.5212 0.999 -0.010 -0.043 75 37 26
-3457.7131 2641.2283 1265.0626 -0.023 -0.967 -0.255 82 35 16
-2933.2012 2550.0864 1018.6891 -0.172 -0.958 -0.231 88 58 42
-2912.5574 2551.1345 1008.1127 -0.202 -0.923 0.328 100 69 54
-2878.5732 2549.9771 991.2487 -0.061 -0.995 0.078 47 18 7
-2864.5957 2556.0872 983.0628 0.818 -0.472 -0.329 96 67 58
-2865.1069 2565.2769 981.5759 0.823 -0.438 -0.362 108 80 71
-2875.5334 2582.6719 983.5161 0.814 -0.419 -0.401 118 90 81
-2877.7559 2692.7126 963.7511 0.915 -0.191 -0.355 183 112 77
-2778.8733 2809.2759 891.9233 0.927 -0.231 0.295 184 100 62
-2778.2554 2818.2134 889.9166 0.938 -0.070 0.338 178 95 53
-2767.8252 2827.4502 882.9206 0.930 -0.222 0.292 178 95 51
-2646.2053 2910.5496 806.0134 0.911 0.161 0.379 185 106 47
-2340.9153 3205.0996 596.6492 0.891 -0.163 -0.425 136 96 79
-2340.1819 3214.9536 594.4106 0.891 -0.163 -0.425 140 96 80
-2413.3984 3366.3416 602.4874 0.535 -0.835 0.130 192 127 114
-2215.2925 3355.1965 505.0157 0.497 -0.864 -0.078 13 17 7
-2217.5857 3392.9280 499.0083 0.598 0.151 -0.787 36 35 24
-2225.7346 3416.3940 498.6516 0.634 0.217 -0.742 41 34 24
-2233.3386 3439.1958 498.1470 0.635 0.221 -0.740 40 20 11
-2227.5232 3442.3911 494.6172 0.763 0.200 -0.614 58 36 27
-2231.1057 3459.4436 493.1821 0.680 -0.133 -0.721 77 55 46
-2229.3098 3468.6138 490.5391 0.636 -0.494 -0.593 101 76 68
-2230.1536 3481.7375 488.4727 0.788 -0.249 0.562 149 124 116
-2926.4878 4931.5801 563.3816 0.725 0.261 0.637 208 173 167
-2954.2141 5012.2344 562.0138 0.726 0.263 0.635 194 159 153
-2968.8894 5054.2720 561.4136 0.726 0.263 0.635 186 151 145
-2917.2952 5040.2129 538.1454 0.807 0.339 0.484 168 133 127
-2931.4697 5082.0225 537.3368 0.810 0.324 0.489 169 134 128
-2645.7820 4924.3384 423.6465 0.046 -0.974 0.220 168 129 122
-2406.9480 5762.2964 144.5679 0.997 -0.073 -0.035 110 76 56
-2477.2334 6115.5635 112.8610 0.108 -0.543 0.833 33 15 0
-2491.9602 6175.5625 108.8781 0.024 -0.672 0.740 33 14 0
-2299.1770 5865.0171 70.8988 0.902 0.083 -0.424 34 23 14
-2293.5876 5874.2368 66.3395 0.986 0.158 0.041 41 30 21
-1993.1519 5281.9102 27.7170 0.432 -0.612 0.663 171 155 146
-1979.5012 5267.3359 23.6207 0.236 -0.832 0.502 179 163 155
-1942.9537 5213.2363 15.5149 0.551 -0.250 0.796 206 191 186
-1943.7880 5236.4111 11.5364 0.501 -0.607 0.617 219 204 199
-1995.1592 5416.0674 3.2673 0.748 0.074 0.659 229 214 209
-1852.4172 5200.2183 -27.5269 0.700 -0.236 0.674 232 216 216
-1708.1860 5814.2793 -216.5606 -0.150 -0.983 0.108 255 246 247
-1600.4935 5498.6333 -210.7974 -0.167 -0.943 0.288 67 58 59
-4104.7515 2460.5168 1614.0367 0.331 -0.942 -0.046 8 40 51
-4188.0645 2807.9036 1589.3304 0.908 -0.126 -0.399 29 42 48
-3792.2039 2850.2078 1382.9641 0.999 -0.010 -0.043 78 36 21
-3845.7048 3036.3269 1374.1672 0.640 -0.724 0.258 124 179 221
-2915.7634 2549.7151 1001.4463 -0.199 -0.926 0.321 100 62 46
-2882.4592 2549.1401 984.8750 -0.009 -0.989 0.147 44 12 5
-2867.2886 2563.0518 974.6160 0.897 -0.351 -0.269 115 84 73
-2878.6267 2581.1733 976.8292 0.812 -0.430 -0.395 124 93 82
-2903.5181 2747.9121 957.4088 0.707 -0.094 -0.701 135 71 39
-2904.4915 2758.1516 955.9382 0.323 -0.946 0.003 117 54 22
-2901.8821 2765.2693 953.2700 0.302 -0.953 -0.004 106 42 10
-2907.9724 2780.0957 953.4850 -0.084 -0.810 -0.581 90 26 0
-3043.7048 3001.0303 979.2173 0.410 0.279 -0.868 180 104 69
-2757.4285 2803.6187 873.5830 0.952 -0.028 0.305 131 74 40
-2753.5530 2809.4375 870.5291 0.928 -0.051 0.368 133 73 37
-2728.3408 2890.8447 842.3323 -0.157 -0.943 0.293 198 108 60
-2415.7236 3113.0898 643.2478 0.431 -0.437 0.790 144 79 40
-2407.4543 3113.4856 639.0302 0.376 -0.492 0.785 120 59 25
-2351.2385 3212.9963 591.8424 0.960 -0.150 -0.236 153 110 92
-2236.8276 3438.2517 491.4583 0.612 0.222 -0.759 34 23 20
-2236.2073 3460.8616 486.8236 0.676 -0.236 -0.698 37 24 21
-2225.4214 3456.7412 482.2092 0.839 -0.146 0.525 41 28 25
-2227.5667 3471.7439 480.4146 0.788 -0.249 0.562 63 52 48
-2214.5181 3476.0369 473.0580 0.655 -0.181 0.734 169 154 152
-2182.9548 3440.5669 464.0322 0.832 -0.118 0.542 193 176 172
-2183.5681 3453.2656 461.9108 0.812 -0.133 0.569 187 167 160
-2167.8203 3441.2808 456.3152 0.826 -0.381 0.416 203 181 175
-2170.0732 3468.3337 452.2699 0.888 -0.449 0.097 198 173 169
-2945.2634 5041.5337 539.6766 0.726 0.263 0.635 201 166 160
-2863.5308 4940.8140 518.0009 0.807 0.339 0.484 188 153 147
-2923.7844 5319.4238 475.7735 0.583 -0.015 0.812 165 126 121
-3149.4863 5973.5576 463.7223 0.790 0.426 -0.441 190 150 141
-3091.4917 6457.8408 342.0582 -0.117 -0.987 -0.112 184 133 114
-2512.4150 6091.1426 122.1431 0.353 -0.713 0.605 108 81 61
-2509.7439 6108.5801 117.4704 0.108 -0.542 0.834 94 66 48
-2497.5471 6103.2007 112.3902 0.108 -0.542 0.834 78 52 32
-2471.9326 6089.1499 102.2477 0.106 -0.544 0.832 49 22 4
-2387.2646 6000.7876 76.7385 -0.095 -0.980 -0.173 34 14 1
-1996.7400 5258.1880 23.1531 0.734 0.137 0.665 175 152 141
-1997.8220 5282.0010 19.1409 0.734 0.137 0.665 175 153 141
-2012.5172 5341.5063 15.1213 0.752 0.152 0.641 179 159 149
-1997.6708 5323.9893 11.0351 0.730 0.131 0.671 200 182 175
-1959.3070 5244.3354 7.0531 0.711 0.001 0.704 219 201 197
-1958.6730 5263.7275 3.0269 0.683 -0.037 0.729 229 211 204
-1967.1808 5307.5059 -1.0841 0.651 -0.035 0.758 229 211 205
-1984.0234 5373.8286 -5.3319 0.757 0.088 0.648 231 213 206
-1852.9924 5189.5737 -35.7242 0.708 -0.124 0.695 233 217 218
-1833.6161 5157.0747 -39.2140 0.753 0.011 0.659 238 222 223
-1854.1752 5235.4023 -43.8963 0.493 -0.135 0.860 245 229 230
-1654.6681 5593.2495 -212.2601 -0.196 -0.978 0.079 251 242 244
-1711.0481 5808.5176 -225.1896 -0.154 -0.983 0.101 255 246 249
-1697.9724 5790.1826 -228.2324 -0.223 -0.963 0.152 210 201 204
-1602.7750 5491.7803 -218.8465 -0.132 -0.924 0.360 83 74 77
-1624.3767 5615.5210 -231.6915 0.696 -0.383 0.608 60 50 54
-4276.0142 2825.5632 1618.5811 -0.100 -0.948 0.302 115 101 88
-4208.7500 2805.6172 1588.8566 -0.001 -0.963 0.269 48 51 49
-4187.5342 2803.0720 1578.7594 0.838 -0.241 -0.490 41 56 64
-3785.9192 2841.3279 1370.9597 0.994 -0.032 0.103 78 36 20
-3794.6016 2994.1008 1345.8506 0.310 -0.912 0.269 124 175 213
-2917.0039 2546.7229 994.1010 -0.200 -0.925 0.324 101 62 45
-2881.5327 2535.6948 978.5243 0.689 -0.672 0.271 84 51 40
-2909.3926 2748.7019 951.3775 0.707 -0.094 -0.701 107 48 19
-2908.1289 2756.9812 949.1513 0.319 -0.948 0.018 99 41 11
-2901.8252 2760.8474 945.2603 0.300 -0.954 0.006 95 35 6
-2754.8855 2796.7664 865.0073 0.952 -0.028 0.305 92 50 24
-2753.4854 2804.9036 862.7404 0.923 -0.054 0.380 95 49 21
-2696.3594 2797.6497 835.6295 0.185 -0.882 0.434 177 104 58
-2410.8818 3102.0498 634.4977 0.431 -0.437 0.790 144 80 40
-2402.7346 3102.5679 630.3320 0.431 -0.437 0.790 119 60 25
-2381.9639 3098.0227 620.8422 0.395 -0.465 0.792 128 85 63
-2246.9387 3423.5837 490.7160 0.424 -0.868 0.259 29 25 22
-2227.0000 3406.2568 484.1046 0.386 -0.844 0.374 33 29 26
-2235.9895 3430.9890 483.8246 0.548 -0.733 -0.403 32 25 21
-2228.4236 3431.6091 479.9293 0.841 -0.109 0.531 34 24 22
-2230.0989 3445.7839 478.0336 0.859 -0.096 0.503 33 23 22
-2227.2361 3453.3262 475.1514 0.832 -0.138 0.538 31 21 20
-2220.6453 3455.3613 471.4700 0.657 -0.188 0.730 37 29 27
-2213.0735 3455.9136 467.5849 0.656 -0.184 0.732 74 65 63
-2209.8867 3462.9741 464.6338 0.657 -0.180 0.732 119 108 106
-2179.0444 3428.6199 455.8625 0.851 -0.106 0.515 156 142 140
-2162.3105 3426.8621 447.8502 0.914 -0.388 0.121 208 187 182
-2159.0422 3433.6375 444.9134 0.914 -0.388 0.121 201 177 173
-2151.0461 3433.2363 441.0003 0.684 -0.501 -0.530 192 171 166
-2161.4592 3460.8855 440.8684 0.741 -0.639 0.207 199 178 173
-2925.6597 5143.9512 497.8871 0.777 0.289 0.559 169 134 128
-2931.0454 5171.5791 495.2505 0.715 0.234 0.658 167 132 126
-3078.8845 5831.2856 441.8925 0.794 0.426 -0.435 193 153 143
-1678.6962 3913.6121 112.6955 0.965 0.075 0.250 135 85 62
-2614.2288 6056.2778 166.6446 -0.110 -0.954 -0.278 130 79 56
-2617.6152 6087.3511 162.3463 0.286 -0.941 -0.183 120 72 50
-2409.6257 6018.7896 71.7616 0.763 -0.009 0.646 40 17 1
-1977.8657 5218.1987 10.5791 0.734 0.137 0.665 177 154 141
-1978.3909 5240.4038 6.5619 0.718 0.071 0.693 180 158 147
-1976.3895 5256.1304 2.5323 0.716 0.067 0.695 202 183 176
-1982.3857 5292.9424 -1.5697 0.615 -0.064 0.786 224 205 201
-1979.6953 5307.0928 -5.6393 0.789 0.148 0.597 233 214 208
-1970.3353 5324.9941 -13.7604 0.756 0.087 0.649 227 208 201
-1914.5410 5239.4707 -25.1228 -0.045 -0.969 -0.241 227 209 207
-1953.0706 5386.7490 -34.2776 0.728 0.021 0.686 225 209 210
-1911.2911 5316.1929 -41.5303 0.690 -0.040 0.723 227 211 212
-1910.8093 5336.5522 -45.6945 0.712 -0.017 0.702 233 217 218
-1808.7169 5117.6714 -54.4616 0.688 0.149 0.710 248 234 234
-1694.1385 5710.7642 -225.9421 0.782 -0.328 0.530 249 240 243
-4221.4175 2525.4558 1638.2970 0.942 -0.322 0.095 4 22 31
-4209.6807 2528.8105 1631.8097 0.917 -0.382 0.114 7 22 28
-4177.2563 2792.2632 1564.5270 0.663 -0.235 -0.711 61 77 85
-3575.7856 2634.2039 1296.1490 0.728 0.207 -0.653 125 187 227
-3761.2371 2996.8606 1317.9370 0.463 -0.537 -0.705 106 134 159
-3071.8469 2557.7693 1060.4166 -0.012 -0.958 -0.287 160 110 96
-2882.8062 2532.7610 971.2756 0.698 -0.666 0.262 84 51 39
-2904.3826 2612.0569 966.6055 0.821 -0.211 -0.531 148 116 102
-2899.1958 2643.6951 957.8826 -0.262 -0.958 0.120 144 105 98
-2920.1196 2753.7126 946.9222 0.702 -0.060 -0.709 89 35 9
-2925.1099 2795.9268 941.2058 -0.173 -0.738 -0.652 134 79 50
-2805.0703 2782.4153 884.1420 0.744 -0.562 -0.362 91 47 34
-2732.6411 2780.7839 848.4445 0.900 0.176 -0.400 64 32 13
-2726.1545 2793.4387 842.7617 0.895 -0.360 -0.265 73 32 3
-2730.9177 2807.4138 842.4163 0.232 -0.950 0.208 92 45 12
-2724.8179 2811.0537 838.6763 0.220 -0.954 0.205 129 74 39
-2680.5586 2787.3733 821.2677 0.350 -0.885 0.306 190 105 57
-2275.6687 3063.6802 566.2863 -0.039 -0.944 0.328 138 97 77
-2337.7893 3271.7314 556.7729 0.230 -0.859 0.457 187 102 61
-2351.5457 3312.2126 555.7520 0.853 0.119 0.508 186 102 62
-2230.4695 3405.3264 477.4669 0.377 -0.855 0.355 34 29 26
-2224.5530 3408.3069 473.9462 0.564 -0.602 -0.565 30 25 22
-2235.3979 3435.7803 474.0035 0.666 -0.531 -0.523 32 24 22
-2223.5723 3430.1438 469.2180 0.830 -0.136 0.541 32 24 22
-2223.8066 3442.1924 466.9949 0.832 -0.138 0.538 28 20 18
-2217.8213 3445.0938 463.4553 0.866 -0.123 0.485 22 16 14
-2205.9321 3439.2153 458.6851 0.660 -0.178 0.730 43 37 34
-2203.6033 3447.4949 455.9194 0.653 -0.186 0.734 67 58 56
-2175.5828 3417.3838 447.8338 0.851 -0.106 0.515 105 92 90
-2163.3115 3422.2998 440.7776 0.914 -0.388 0.121 193 172 167
-2160.0193 3429.0247 437.8346 0.941 -0.301 -0.155 198 174 170
-2155.7632 3434.2981 434.6943 0.681 -0.507 -0.528 195 174 169
-2847.0195 4947.1582 484.6257 0.770 0.253 0.586 194 159 153
-2881.4934 5077.0239 476.5486 0.739 0.257 0.622 187 152 146
-2461.7410 5568.3438 172.4232 0.007 -0.941 -0.337 152 97 77
-2479.0193 5627.9790 169.4340 0.021 -0.874 -0.485 148 96 74
-2466.6008 6025.7632 86.0128 0.115 -0.534 0.838 101 69 46
-2424.8760 5972.0488 75.6966 0.229 -0.486 0.844 91 57 37
-2393.6189 5966.1318 61.3036 0.774 -0.014 0.633 63 37 18
-2344.5388 5891.9619 51.3025 0.014 -0.961 0.276 63 38 18
-1970.9830 5188.5259 2.1592 0.207 -0.825 0.526 177 154 140
-1909.0389 5191.5767 -29.2339 -0.207 -0.866 -0.454 221 202 196
-388.6869 379.3463 148.5495 0.066 0.147 -0.987 59 42 30
-1881.3425 1153.2590 736.6091 0.282 -0.045 -0.958 108 81 60
-4076.3328 2423.9434 1575.4167 0.602 -0.663 -0.444 5 18 22
-4148.1230 2472.0723 1601.5657 0.329 -0.928 -0.176 5 18 22
-4330.6704 2702.4385 1646.9283 0.392 -0.333 -0.858 65 53 51
-4320.6660 2707.0286 1641.0739 0.418 -0.300 -0.857 70 60 56
-4323.8892 2834.7976 1617.6710 -0.061 -0.936 0.346 82 65 50
-3588.7505 2638.7773 1291.8252 0.925 0.052 -0.377 125 187 227
-3785.2322 2945.9805 1329.0570 0.031 -0.290 -0.957 91 107 140
-3074.3259 2555.6584 1053.2341 -0.074 -0.933 -0.352 203 159 144
-2878.4233 2525.2886 962.1230 0.729 -0.597 0.335 85 50 38
-2908.7017 2620.4829 958.4974 0.555 -0.549 -0.624 174 136 128
-2905.2490 2644.6179 952.0646 -0.262 -0.958 0.120 138 99 92
-2922.9761 2751.8521 939.8651 0.918 -0.085 -0.387 89 40 19
-2937.4617 2792.8804 939.0137 -0.082 -0.814 -0.576 125 81 59
-2937.4534 2802.4075 937.1454 -0.173 -0.738 -0.652 124 80 59
-2846.0752 2787.1235 894.8657 0.785 -0.501 -0.365 76 49 42
-2828.2708 2799.2852 883.6655 0.663 -0.530 -0.529 77 54 49
-2709.7783 2754.8430 833.6581 0.811 0.208 -0.547 57 34 22
-2716.6602 2770.6423 833.9761 0.809 0.210 -0.549 60 33 17
-2722.1458 2785.1960 833.8461 0.889 -0.384 -0.251 72 40 18
-2717.3335 2790.0142 830.5194 0.133 -0.956 0.263 71 33 7
-2682.0063 2784.3323 814.1295 0.350 -0.885 0.306 189 105 59
-2272.4270 2895.7617 589.4144 0.744 0.133 0.655 188 106 56
-2384.8677 3080.9263 608.8895 0.389 -0.471 0.792 88 33 4
-2278.6038 3062.2578 559.8973 -0.282 -0.959 0.016 138 97 77
-2260.6711 3164.2500 531.0570 0.980 0.193 0.048 189 102 59
-2290.3279 3214.2305 535.9700 0.903 -0.410 0.126 190 101 57
-2217.1074 3426.2874 458.2037 0.596 -0.208 0.775 30 22 20
-2209.7966 3427.1843 454.4063 0.586 -0.218 0.780 27 22 19
-2201.5588 3426.6755 450.4247 0.491 -0.400 0.774 35 30 27
-2175.8069 3400.0842 442.8697 0.821 -0.142 0.553 45 36 34
-2165.0479 3418.8542 433.8669 0.940 -0.303 -0.155 165 144 139
-2163.6755 3428.4663 431.3063 0.955 -0.189 -0.230 195 174 169
-2162.3657 3438.2056 428.7517 0.955 -0.189 -0.230 201 180 175
-2835.7395 4849.6582 486.1823 0.174 -0.984 -0.040 208 173 167
-2833.4673 4863.0757 482.4313 0.183 -0.983 -0.023 208 173 167
-2842.3877 4982.8989 463.4056 0.779 0.285 0.559 204 169 163
-2368.9587 5077.6421 210.3233 -0.019 -0.973 -0.229 175 118 99
-2338.4194 5303.9907 150.9055 0.992 -0.121 0.022 153 101 79
-2385.9155 5934.0200 51.1620 0.774 -0.014 0.633 96 71 49
-2348.7056 5889.0889 41.5190 0.014 -0.961 0.276 96 71 49
-2311.5442 5912.9883 18.4324 0.973 0.229 0.010 180 154 139
-1986.1053 5215.7949 -6.3800 -0.140 -0.938 0.317 179 154 141
-1944.9724 5212.4189 -26.0974 0.084 -0.883 0.461 224 205 199
-1933.7864 5245.6709 -38.1453 -0.268 -0.867 -0.421 216 197 191
-1840.9525 5268.5854 -88.6203 -0.182 -0.971 0.158 248 238 237
-1742.7533 5496.6270 -181.8892 0.516 -0.854 -0.062 249 240 243
-1659.5834 5541.1021 -231.7952 0.615 -0.473 -0.631 243 234 237
-1712.6709 5793.7373 -254.9262 -0.223 -0.969 0.108 238 229 232
-1621.7797 5512.4751 -244.9225 -0.083 -0.902 0.424 103 94 97
-4556.8271 2741.1545 1739.6112 0.607 -0.103 0.788 19 17 12
-4419.1997 2759.0662 1668.1472 0.313 -0.878 0.362 93 77 68
-4388.0747 2751.7280 1654.2305 0.325 -0.840 0.434 91 76 67
-4337.2241 2753.7292 1628.7362 0.356 -0.842 0.404 98 82 72
-4204.1685 2799.7913 1553.9795 0.133 -0.722 -0.679 108 125 133
-4160.4268 2814.6558 1529.4581 0.098 -0.987 0.131 129 185 217
-3588.5354 2624.9895 1284.5623 0.945 -0.110 -0.308 118 186 226
-3592.5662 2637.1792 1284.1488 0.934 0.061 -0.352 122 184 224
-3612.3774 2698.6265 1281.8143 0.933 0.034 -0.358 79 42 26
-3427.4385 2608.7717 1208.2418 0.259 -0.590 0.765 80 35 16
-3799.2415 2983.2046 1317.9502 0.484 -0.850 -0.210 67 102 128
-3770.1003 3026.0007 1295.1295 0.797 -0.233 -0.557 162 156 157
-3078.1641 2545.7166 1048.2701 0.054 -0.933 -0.356 209 174 158
-3080.0110 2555.9849 1047.1576 -0.083 -0.925 -0.370 208 173 155
-2863.0859 2500.4700 951.0272 0.821 -0.352 0.450 102 64 48
-2914.5630 2621.2236 952.6315 0.555 -0.549 -0.624 160 121 113
-2923.0400 2738.2153 933.7527 0.934 -0.035 -0.355 105 61 46
-2939.8926 2781.1060 933.6160 0.702 -0.106 -0.705 104 62 47
-2933.6143 2785.0857 929.7324 0.350 -0.936 -0.046 93 60 46
-2950.0588 2809.0908 933.1173 -0.151 -0.664 -0.733 92 60 47
-2836.5264 2792.9304 880.2634 0.814 -0.412 -0.409 53 44 41
-2831.1648 2797.4985 876.7163 0.976 -0.006 -0.217 53 44 41
-2714.0947 2773.1494 823.7306 0.223 -0.909 0.352 62 30 8
-2679.4734 2786.8223 803.9460 0.581 -0.813 -0.048 193 105 55
-2380.9690 3071.0813 600.5670 0.393 -0.512 0.764 105 49 20
-2307.0801 3124.2974 553.6046 0.007 -0.918 0.396 154 111 92
-2210.5249 3041.4312 522.2808 0.938 -0.327 0.118 132 69 45
-2285.7629 3213.5061 525.4964 0.801 -0.506 0.319 189 96 48
-2302.6050 3246.7920 527.2477 0.894 -0.349 0.280 188 95 51
-2310.1143 3267.7925 526.8145 0.827 -0.484 0.287 184 97 55
-2221.2739 3414.7495 453.9926 0.379 -0.869 0.319 34 24 23
-2214.4541 3416.3745 450.3059 0.379 -0.869 0.319 30 21 22
-2197.4299 3402.9414 444.5509 0.675 -0.599 0.432 29 21 19
-2165.6587 3379.0376 433.5809 0.937 -0.026 0.349 31 20 20
-2165.3867 3436.6785 422.0836 0.989 0.147 -0.031 205 184 179
-2166.7629 3450.5176 420.0348 0.993 0.109 -0.051 204 183 178
-2820.4290 4832.3452 470.2785 0.197 -0.977 -0.077 207 172 166
-2862.1565 4936.4233 470.3578 0.084 -0.840 0.536 206 171 165
-2764.3801 4823.9795 444.2619 0.777 0.280 0.564 205 170 164
-2814.5464 4943.7896 445.4055 0.265 -0.858 0.440 205 170 164
-2378.6914 5087.5508 201.9269 -0.052 -0.961 -0.273 183 126 107
-2484.2485 5767.6929 119.9505 -0.042 -0.932 -0.361 139 92 70
-2478.0681 5775.7173 115.3178 -0.054 -0.939 -0.340 131 87 64
-2336.6975 5622.8687 75.6691 0.893 -0.143 0.427 118 85 65
-2355.7568 5893.3164 31.7622 0.011 -0.959 0.282 116 91 71
-2295.3911 5882.3442 4.1287 0.996 0.063 0.071 180 154 141
-1953.9845 5245.1265 -38.7722 0.025 -0.901 0.432 211 192 185
-1942.5450 5235.8472 -42.5894 0.923 0.003 -0.384 205 186 180
-1746.6407 5494.8911 -190.3543 0.516 -0.854 -0.062 241 232 235
-1713.7841 5782.1870 -263.2084 -0.218 -0.966 0.135 248 239 242
-1707.1472 5785.5942 -267.1560 -0.205 -0.973 0.108 154 145 148
-4477.4575 2682.6592 1700.4210 0.617 -0.053 0.785 27 21 12
-4512.0244 2712.0652 1711.5804 0.596 -0.119 0.794 27 21 11
-4553.3257 2745.3809 1725.2750 0.580 -0.243 0.777 31 25 15
-4575.7236 2768.4368 1731.7111 0.533 -0.291 0.794 43 37 27
-4532.5093 2765.7224 1710.9979 0.350 -0.343 0.871 69 60 51
-4403.4165 2745.5903 1651.5104 0.337 -0.872 0.355 101 79 67
-4381.7866 2743.6785 1641.2528 0.332 -0.853 0.402 88 67 54
-4367.2402 2745.7715 1633.6833 0.332 -0.853 0.402 72 52 39
-4352.1255 2747.4932 1625.9083 0.336 -0.856 0.393 76 55 44
-4216.6567 2802.9329 1548.2761 0.128 -0.725 -0.676 117 133 142
-4446.6743 3044.2405 1613.4707 0.427 -0.371 -0.824 118 178 212
-3594.0750 2634.0320 1275.6438 0.751 0.167 -0.638 122 184 224
-3652.2087 2731.4331 1284.8888 0.813 -0.122 -0.569 81 39 23
-3469.3787 2633.8435 1214.3574 0.314 -0.896 0.314 79 34 15
-3798.0989 2988.2822 1305.6243 0.427 -0.856 -0.292 112 153 186
-3052.9377 2557.9480 1024.6310 0.028 -0.978 0.204 198 166 147
-2863.0762 2522.3521 938.3293 0.635 -0.566 0.525 80 48 35
-2889.3645 2596.3225 936.5667 0.960 0.075 -0.270 125 86 78
-2892.5288 2607.8325 935.8369 0.854 -0.168 -0.493 118 79 72
-2898.1550 2630.4084 934.1201 0.864 -0.287 -0.413 176 137 130
-2917.1602 2747.4810 920.2155 0.737 -0.003 -0.676 92 53 43
-2917.1409 2756.8374 918.3477 0.634 0.089 -0.768 89 54 45
-2922.2812 2770.7480 918.1130 0.599 0.049 -0.800 75 52 48
-2964.8452 2827.2852 927.8168 -0.152 -0.671 -0.725 73 53 49
-2970.3479 2841.8162 927.6370 0.583 0.351 -0.733 73 53 49
-2845.6680 2787.3718 877.1342 0.981 -0.148 0.127 47 41 33
-2843.4890 2794.8481 874.5777 0.999 -0.046 -0.019 45 41 33
-2875.4060 2852.7793 878.7687 0.198 -0.971 -0.132 41 37 28
-2758.7957 2782.7061 835.3382 0.955 -0.142 -0.259 56 31 14
-2741.3660 2775.7554 828.1470 0.928 -0.147 -0.342 63 32 14
-2680.8096 2783.6785 796.7927 0.608 -0.792 -0.054 193 105 55
-2406.5857 2756.0295 667.4244 -0.277 -0.817 0.506 190 93 42
-2332.1086 3302.7134 522.2239 0.822 -0.503 0.268 183 96 55
-2353.6121 3342.8076 524.8361 0.726 -0.673 0.140 171 91 54
-2202.7021 3404.7175 438.3252 0.326 -0.772 -0.546 29 21 19
-2197.0862 3408.0281 434.9059 0.774 -0.582 0.250 29 21 19
-2194.3716 3415.6208 432.0629 0.771 -0.588 0.244 30 19 19
-2189.1160 3419.4539 428.7170 0.783 -0.577 0.232 34 19 17
-2163.0237 3427.0281 414.3809 0.993 0.107 -0.057 162 141 136
-2164.6721 3441.2329 412.3704 0.993 0.107 -0.057 187 168 162
-2157.1135 3441.5105 408.5981 0.933 -0.358 -0.044 197 176 171
-2952.8347 6249.3511 242.2728 -0.325 -0.920 -0.220 184 127 108
-2509.3262 5389.2139 194.9888 -0.191 -0.972 -0.138 180 123 104
-2637.5715 5743.9082 187.6141 -0.061 -0.932 -0.358 171 114 95
-2687.6582 5872.7744 186.6526 -0.180 -0.826 -0.534 167 110 91
-2654.9346 5846.6357 175.7508 -0.189 -0.890 -0.415 167 110 91
-2392.6814 5484.1738 118.7651 0.943 -0.320 0.087 152 100 76
-2331.2395 5663.1909 52.9953 0.746 -0.415 0.520 118 87 67
-2380.2795 5894.0005 31.2727 0.741 -0.018 0.671 117 94 73
-2375.8074 5906.2051 26.6495 0.741 -0.018 0.671 116 94 73
-2347.8313 5883.8120 17.3386 -0.108 -0.994 -0.011 121 99 78
-1924.6305 5302.9116 -75.4161 -0.362 -0.862 -0.355 207 191 192
-1889.2861 5249.3145 -82.1534 -0.306 -0.848 -0.432 234 218 219
-1719.9897 5787.7227 -272.3412 -0.205 -0.973 0.108 251 242 245
-1711.6838 5785.5664 -275.9976 -0.205 -0.973 0.108 179 170 173
-4433.3174 2726.7126 1658.4438 0.570 -0.074 0.818 98 77 62
-4417.4839 2728.2300 1650.3823 0.733 -0.082 0.675 107 82 68
-4381.4507 2728.6287 1632.6471 0.244 -0.965 0.094 112 87 71
-4365.4272 2729.8813 1624.5454 0.269 -0.954 0.132 96 72 56
-4357.1665 2735.5496 1619.3640 0.378 -0.881 0.285 80 56 41
-4347.1987 2740.2195 1613.5458 0.355 -0.882 0.309 83 59 45
-4381.3115 2802.1538 1617.8687 0.618 0.097 0.780 133 118 105
-4438.3960 3000.3489 1606.1849 0.440 -0.301 -0.846 122 185 220
-4453.5693 3021.0930 1609.4690 0.451 -0.299 -0.841 120 184 219
-4458.5425 3035.5176 1609.0198 0.456 -0.359 -0.815 118 181 214
-3785.1887 3016.8303 1282.8339 0.872 -0.103 -0.478 107 113 121
-3786.0601 3028.2300 1280.9801 0.770 -0.261 -0.582 170 164 164
-3787.6372 3040.1921 1279.3596 0.729 -0.304 -0.614 187 172 165
-3791.7891 3054.1218 1278.6069 0.355 -0.749 0.559 199 178 167
-3026.6399 2560.2556 1002.5145 0.084 -0.932 0.351 190 152 135
-3011.2749 2557.1707 995.6033 0.064 -0.933 0.355 168 129 112
-2861.9431 2526.1382 928.6436 0.704 -0.596 0.386 87 55 42
-2888.8149 2582.9663 930.4403 0.844 -0.047 -0.535 102 68 56
-2833.6255 2679.6548 884.0542 0.297 -0.677 0.674 72 43 36
-2964.2312 2822.2710 919.5137 0.368 -0.915 -0.166 55 42 43
-2852.9778 2761.3584 877.1895 0.941 -0.183 0.283 48 35 36
-2863.3130 2808.4441 872.8329 0.982 -0.171 -0.083 43 34 17
-2819.0471 2787.0020 855.4338 0.996 -0.079 -0.052 46 37 20
-2666.2053 2765.2161 784.9044 0.992 0.053 0.118 193 105 55
-2200.4097 3383.8701 432.9014 0.330 -0.741 -0.585 29 22 20
-2200.2488 3395.1445 430.5669 0.267 -0.710 -0.652 27 21 18
-2195.5967 3399.8484 427.3463 0.267 -0.710 -0.652 28 22 19
-2186.6487 3409.7727 420.9764 0.938 -0.235 -0.254 31 18 16
-2192.5154 3430.1309 419.7779 0.916 -0.210 -0.341 29 11 6
-2163.8154 3410.5232 409.6387 0.968 -0.178 0.176 70 49 44
-2161.7510 3419.0508 406.9210 0.968 -0.178 0.176 109 88 83
-2169.3843 3442.2603 406.0176 0.733 -0.550 0.400 164 145 139
-2165.1006 3447.5247 402.8654 0.730 -0.513 0.453 199 178 173
-2150.7925 3437.5254 397.8553 0.580 -0.642 0.501 209 185 181
-2448.8374 5251.4380 180.9739 -0.231 -0.934 -0.272 180 123 104
-2397.3650 5162.8071 173.4866 -0.171 -0.955 -0.243 174 117 98
-2402.7346 5193.4111 169.9945 -0.184 -0.983 -0.025 175 118 99
-2322.9551 5719.3481 25.6788 0.806 -0.269 0.528 120 92 73
-2336.4824 5819.9365 12.1818 0.852 -0.124 0.508 118 93 73
-2345.5093 5888.0913 2.9688 -0.138 -0.982 -0.126 158 133 113
-2241.4607 5675.5854 -5.4954 -0.137 -0.991 0.008 177 151 134
-1728.5339 5801.0171 -281.9108 -0.207 -0.978 -0.003 250 241 244
-1743.6869 5930.1240 -300.3171 0.888 0.151 -0.434 103 94 97
-1799.8534 6147.5469 -316.2975 0.219 -0.961 0.169 92 86 88
-4548.9165 2723.4846 1704.0133 0.183 -0.525 0.831 46 29 15
-4394.1738 2721.0530 1628.9642 0.262 -0.956 0.130 124 97 79
-4383.1514 2725.1951 1622.7487 0.270 -0.955 0.123 126 100 81
-4369.8921 2728.0330 1615.7041 0.270 -0.955 0.123 115 90 70
-4305.2017 2815.9858 1566.3986 0.033 -0.981 0.190 54 40 28
-4270.7368 2805.7734 1551.6326 0.088 -0.991 0.100 30 24 15
-4249.5986 2803.4963 1541.7726 0.248 -0.942 -0.226 52 57 54
-4464.9272 3023.3477 1602.5784 0.451 -0.299 -0.841 121 184 218
-3796.1816 2988.0388 1283.2396 0.902 -0.409 -0.138 98 135 165
-3787.4590 3013.7104 1273.8077 0.765 -0.249 -0.594 123 129 135
-3791.6521 3027.5591 1273.0636 0.753 -0.244 -0.612 172 167 163
-3794.0894 3040.1570 1271.7144 0.729 -0.304 -0.614 183 168 159
-3776.2065 3037.6238 1263.4951 0.272 -0.839 0.470 203 182 168
-3032.7703 2561.0024 996.6378 0.073 -0.939 0.337 203 165 148
-3012.6541 2554.2527 988.1782 0.064 -0.933 0.355 197 158 141
-3186.1619 2774.1953 1028.5504 -0.150 -0.089 -0.985 98 65 51
-2884.0769 2583.8635 919.4441 0.926 -0.164 -0.339 105 70 61
-2893.7856 2600.7192 920.7864 0.959 0.053 -0.278 115 80 72
-2861.8433 2764.9243 872.0995 0.955 -0.124 0.269 44 29 33
-3547.0723 3412.6155 1076.0648 -0.175 -0.876 -0.449 45 28 5
-2845.8555 2797.6145 857.7064 0.999 -0.047 -0.014 45 28 5
-2982.7273 2932.2283 897.3917 0.976 0.059 -0.209 54 34 12
-2235.9116 2824.1731 554.6035 0.725 0.103 0.681 199 114 60
-2302.1174 2950.9177 561.3782 0.778 0.370 0.507 107 48 13
-2441.8010 3473.0481 524.3357 0.396 -0.586 -0.707 173 90 53
-2204.3699 3406.7805 421.7869 0.315 -0.759 -0.570 27 22 19
-2159.5796 3386.6262 403.9839 0.994 0.093 -0.056 30 12 7
-2164.5618 3405.6238 402.5873 0.968 -0.190 0.164 44 25 20
-2163.6787 3415.9084 400.0834 0.970 -0.184 0.157 79 60 55
-2171.3865 3439.1895 399.1540 0.734 -0.547 0.402 145 127 122
-2165.0007 3441.2656 395.6183 0.730 -0.513 0.453 198 179 174
-2150.7996 3431.4409 390.6658 0.598 -0.640 0.484 213 191 187
-2145.2583 3446.4551 384.9348 0.933 -0.323 -0.159 204 174 167
-2144.1272 3456.5071 382.3569 0.298 -0.928 -0.222 206 173 167
-2025.3854 4323.8130 149.5943 0.122 -0.870 0.477 184 128 108
-2413.7036 5186.4868 165.2919 -0.187 -0.970 -0.154 174 118 98
-2415.6299 5749.2246 52.8176 0.897 0.322 0.304 121 83 63
-2328.1995 5809.5029 -2.0109 0.424 -0.075 -0.903 136 109 88
-2256.5820 5700.4771 -14.9987 -0.147 -0.989 0.004 183 155 136
-2048.1758 5306.5044 -37.3327 0.841 -0.348 -0.415 184 158 145
-2008.6868 5331.3257 -61.6122 0.983 0.026 -0.181 202 182 177
-1987.3292 5339.1616 -73.6173 0.403 -0.900 0.163 178 159 153
-1770.0378 6003.3130 -313.5439 0.901 0.154 -0.406 113 103 107
-1804.0333 6145.3667 -325.5784 0.197 -0.960 0.196 96 89 91
-4514.0532 2689.5588 1682.2369 0.130 -0.564 0.816 56 36 20
-4381.6313 2688.9026 1617.9668 0.596 -0.069 0.800 119 96 78
-4321.2085 2747.5334 1576.6779 0.441 -0.892 -0.104 141 125 110
-4307.6997 2812.9634 1556.8250 0.037 -0.982 0.184 52 40 30
-4254.9004 2802.2102 1533.3291 0.577 -0.806 0.135 43 53 48
-4297.7656 2924.7788 1529.2942 0.272 -0.948 -0.164 111 168 199
-3583.6846 2759.0103 1215.6533 0.561 0.241 -0.792 129 184 216
-3813.4561 2974.5588 1283.6448 0.899 -0.416 -0.138 135 175 216
-3807.2598 2980.7053 1279.3833 0.906 -0.408 -0.116 125 165 192
-3803.9631 2988.9595 1276.1044 0.906 -0.408 -0.116 46 82 102
-3795.6909 3004.2720 1268.9727 0.887 -0.134 -0.442 55 74 77
-3801.9951 3030.3982 1266.7350 0.873 -0.050 -0.486 173 169 153
-3805.3833 3043.7109 1265.6802 0.869 -0.115 -0.481 182 168 147
-2912.7104 2648.1841 911.8239 0.828 -0.353 -0.435 77 55 44
-2950.2712 2707.2141 918.1079 0.797 -0.574 -0.190 54 49 29
-2905.1636 2678.1482 902.0704 0.338 -0.888 0.313 53 49 28
-2896.4395 2679.8481 897.4824 0.338 -0.888 0.313 56 49 26
-2871.0710 2676.3582 885.8530 0.220 -0.724 0.654 56 38 19
-2915.8440 2742.6978 894.1608 0.994 0.012 0.108 60 35 23
-2831.0674 2779.7446 845.4091 1.000 -0.005 -0.022 78 36 9
-2218.8074 2799.4160 543.6432 0.730 0.108 0.675 202 114 61
-2218.8245 2808.7161 541.7634 0.851 0.121 0.511 199 114 65
-2164.6948 3365.3489 402.4370 0.375 -0.780 -0.502 24 19 18
-2168.4209 3382.3208 400.8038 0.466 -0.732 -0.497 30 21 19
-2190.0005 3437.6401 400.0688 -0.133 -0.944 -0.303 32 21 20
-2167.7488 3415.9856 393.6427 0.917 -0.398 0.014 41 31 29
-2168.7446 3440.8335 389.0828 0.718 -0.539 0.440 163 154 152
-2163.1106 3444.0361 385.6924 0.709 -0.548 0.443 189 176 173
-2144.8477 3439.7075 377.6890 0.933 -0.321 -0.164 204 176 172
-2138.2412 3441.3333 374.1460 -0.057 -0.920 -0.389 206 176 172
-2338.8215 5000.5024 155.1754 -0.193 -0.969 0.156 184 132 114
-2295.5730 5333.0903 66.6237 0.092 -0.991 0.098 148 101 81
-2299.7256 5362.9468 62.5822 0.014 -0.995 0.095 148 101 81
-2412.0659 5772.8320 34.0093 0.892 0.297 0.340 121 84 60
-2437.4807 5855.1558 29.6573 0.915 0.296 0.274 121 85 59
-2319.0120 5729.1807 -2.3860 -0.253 -0.852 -0.458 125 95 74
-2322.0386 5758.9722 -6.9619 0.298 -0.091 -0.950 130 100 79
-2019.9174 5327.1953 -66.2445 0.990 -0.122 -0.073 186 161 157
-2010.5872 5324.1299 -70.1600 0.988 0.104 0.112 211 185 181
-1995.3087 5347.9668 -82.4297 0.410 -0.907 0.096 187 162 158
-1995.8340 5370.8145 -86.8125 0.149 -0.976 -0.156 160 139 136
-1749.7904 5841.1807 -301.9635 -0.193 -0.955 0.226 250 239 243
-1694.4630 5707.8618 -301.8073 0.893 0.020 -0.449 165 154 158
-1775.7631 6006.7041 -322.9342 0.899 0.148 -0.412 128 115 119
-1815.7908 6168.7954 -336.3725 0.315 -0.919 0.238 118 110 113
-5329.7109 3128.5686 1976.1042 0.265 -0.230 0.936 56 35 18
-4580.5376 2731.9141 1694.2047 0.083 -0.589 0.804 65 42 26
-4334.9746 2658.4299 1590.2450 0.988 0.096 0.123 124 101 83
-4343.8486 2694.1152 1587.2480 0.996 0.048 0.081 118 96 75
-4328.5718 2747.3999 1568.9507 0.436 -0.887 -0.150 137 121 106
-4331.6475 2759.6194 1567.9423 0.825 -0.556 -0.101 136 120 105
-4257.0918 2799.0422 1523.7563 0.577 -0.806 0.135 37 46 41
-4253.1064 2807.1252 1520.1725 0.805 -0.170 -0.568 65 87 86
-4262.1270 2823.1394 1521.2688 0.515 -0.228 -0.826 89 125 127
-4260.8081 2843.4998 1516.4667 0.515 -0.228 -0.826 111 162 169
-4275.3711 2863.1069 1519.5139 0.569 -0.299 -0.766 116 170 189
-4318.1919 2922.0068 1528.2188 0.422 -0.875 -0.238 117 170 197
-4319.8672 2933.9473 1526.5891 0.104 -0.542 -0.834 115 168 196
-4485.5664 3071.9780 1578.6536 0.204 -0.900 -0.384 113 167 195
-4493.2773 3088.3367 1579.0448 0.088 -0.920 -0.382 109 170 202
-4468.5474 3084.0095 1567.9469 -0.095 -0.991 -0.091 108 170 205
-4233.3838 2966.1790 1478.0939 0.281 -0.375 -0.883 108 173 209
-4202.6538 2957.1365 1465.0530 -0.048 -0.772 -0.634 109 174 209
-3812.8145 2979.9951 1271.4860 0.899 -0.416 -0.138 112 149 174
-3801.7793 2982.6252 1265.6012 0.907 -0.401 -0.131 37 71 89
-3798.5745 2990.9387 1262.3485 0.907 -0.401 -0.131 16 43 53
-3800.4280 3013.6824 1258.5961 0.860 -0.112 -0.497 160 166 156
-3802.3020 3036.5876 1254.8206 0.295 -0.796 -0.528 182 167 143
-3636.1433 2954.8982 1191.0133 0.063 -0.561 -0.826 201 170 152
-3669.5498 3001.1846 1197.7357 0.054 -0.907 -0.417 200 169 151
-2900.8372 2634.1196 900.3182 0.752 -0.429 -0.500 66 46 35
-2895.4829 2656.6733 893.1122 0.575 -0.430 -0.696 48 45 24
-2888.6785 2659.9670 889.1418 0.603 -0.398 -0.691 48 46 21
-2879.2549 2661.0149 884.3614 0.602 -0.409 -0.686 51 45 21
-2881.7759 2672.2375 883.2883 0.280 -0.959 0.051 55 42 21
-2836.6626 2642.6443 867.4800 0.510 -0.809 0.292 52 33 14
-2829.8367 2645.7532 863.5369 0.398 -0.527 0.751 56 31 14
-2763.9268 2606.5837 839.6099 0.130 -0.989 -0.074 59 29 17
-2881.9109 2764.6895 864.4497 0.347 0.051 -0.937 63 23 22
-2824.5728 2769.4585 835.6920 1.000 -0.013 0.029 99 47 18
-2292.2334 2652.3660 601.6942 -0.200 -0.834 0.515 196 109 58
-2331.7710 3026.6760 544.3156 0.732 0.279 0.621 100 72 51
-2324.5999 3058.4463 534.3447 0.799 0.132 0.587 88 56 41
-2321.6228 3064.9712 531.5681 0.796 0.128 0.591 67 38 24
-2324.0889 3078.2891 530.0398 0.779 0.113 0.617 59 30 16
-2323.8955 3088.3416 527.8907 0.776 0.111 0.620 60 31 17
-2266.3604 3268.7029 463.1336 0.316 -0.757 0.572 175 90 47
-2219.7927 3360.0137 421.8992 0.897 -0.275 0.345 37 35 36
-2207.4011 3376.3179 412.5612 0.973 0.011 -0.230 33 31 32
-2218.4680 3403.9287 412.2779 0.982 0.060 -0.178 20 18 19
-2229.2334 3431.2629 411.9051 0.997 0.004 -0.079 20 18 19
-2160.9712 3365.3513 392.3064 0.498 -0.732 -0.466 30 22 20
-2198.7583 3444.6460 394.4021 -0.163 -0.933 -0.322 30 20 19
-2191.2896 3445.2070 390.6685 -0.073 -0.954 -0.290 31 23 21
-2186.8958 3450.3540 387.4872 -0.179 -0.917 -0.357 59 51 49
-2176.2952 3446.1379 383.2128 -0.180 -0.911 -0.372 125 117 115
-2171.1350 3450.0876 379.9048 -0.143 -0.924 -0.353 177 166 164
-2165.3032 3488.5393 369.2168 0.175 -0.979 0.101 205 176 172
-1876.0457 3954.6853 133.7457 0.680 -0.580 -0.448 191 143 123
-2239.2007 5154.4844 64.3828 -0.062 -0.990 0.126 153 104 82
-2270.2188 5284.2456 52.8797 -0.155 -0.987 0.027 149 102 82
-2250.6455 5259.6274 48.4294 0.990 0.144 -0.016 145 98 78
-2253.1721 5285.5342 44.3563 0.988 0.152 0.000 144 97 77
-2250.5918 5299.8125 40.1867 0.969 0.234 -0.074 144 97 77
-2296.3174 5446.8896 32.2693 0.931 0.316 -0.184 131 90 65
-2351.4995 5886.6240 -30.9064 0.100 -0.075 -0.992 182 150 129
-2021.6058 5319.4736 -74.7865 0.992 -0.099 -0.073 190 165 161
-2009.3895 5308.9082 -78.5454 0.989 0.101 0.108 210 182 179
-2005.9280 5385.1621 -95.8146 0.151 -0.979 -0.137 170 148 145
-1986.4689 5355.1392 -99.1044 -0.149 -0.969 0.197 185 165 164
-1931.4768 5314.9575 -117.5342 -0.321 -0.849 -0.420 231 213 211
-1662.5516 5537.3188 -293.3062 -0.282 -0.959 0.033 251 240 244
-1723.3307 5789.2725 -315.3739 0.839 0.071 -0.540 191 180 184
-1840.3995 6235.3936 -349.8689 0.278 -0.900 0.336 149 140 143
-4560.3667 2674.5894 1684.5132 0.675 0.032 0.737 44 26 12
-4346.1138 2701.3418 1575.5769 0.798 0.087 0.596 111 89 68
-4339.2451 2759.6147 1560.2605 0.826 -0.564 -0.009 130 114 99
-4341.0415 2771.1279 1558.7567 0.859 -0.503 0.095 127 111 96
-4255.1060 2793.3591 1512.6948 0.599 -0.797 0.079 30 37 32
-4256.7812 2804.8530 1511.1365 0.512 -0.244 -0.823 26 44 44
-4263.4692 2819.4321 1511.3627 0.573 -0.208 -0.792 39 68 70
-4265.4297 2841.7783 1507.7069 0.567 -0.214 -0.795 66 108 117
-4328.5122 2891.2356 1527.9739 0.555 -0.263 -0.790 81 125 143
-4281.4824 2872.9724 1509.0321 0.235 -0.931 -0.281 97 141 162
-4312.0645 2913.5029 1515.4482 0.166 -0.815 -0.555 121 165 188
-4329.8247 2946.4082 1517.2452 0.104 -0.542 -0.834 114 157 181
-4341.0879 2964.4785 1518.9613 0.083 -0.528 -0.845 114 157 180
-4236.9741 2909.5381 1480.0165 -0.030 -0.967 -0.254 113 158 182
-4247.9136 2927.2808 1481.6433 -0.228 -0.973 -0.044 107 161 192
-4297.7964 2969.9851 1496.9288 -0.264 -0.965 -0.006 105 162 195
-3803.3257 3000.3228 1251.9841 0.858 -0.127 -0.498 102 115 114
-3809.8750 3026.5850 1249.7374 0.848 -0.107 -0.520 179 168 150
-3800.3074 3030.2869 1244.3564 0.189 -0.793 -0.579 185 166 142
-3251.2317 2813.1570 1024.0148 -0.136 -0.081 -0.987 143 101 87
-3359.1438 2919.6602 1054.1747 -0.134 -0.099 -0.986 109 67 53
-2865.5142 2591.7017 883.4223 0.821 -0.316 0.476 53 33 22
-2969.3853 2876.6758 874.8776 0.881 0.335 0.334 115 51 23
