ply
format ascii 1.0
element vertex 788
property float x
property float y
property float z
property float nx
property float ny
property float nz
property uchar diffuse_red
property uchar diffuse_green
property uchar diffuse_blue
end_header
-2326.5339 2987.7751 418.7906 0.450 -0.736 -0.506 182 90 50
-2711.2209 3555.0454 465.8483 -0.776 -0.627 -0.065 195 110 69
-2426.6035 3352.8391 353.1800 -0.508 -0.861 -0.023 30 14 3
-2413.3865 3345.2087 347.3181 -0.508 -0.861 -0.023 18 10 0
-2253.6594 3317.3308 253.4490 0.151 -0.754 0.639 20 23 26
-1847.6539 5045.9062 -629.2478 0.385 -0.046 -0.922 226 178 183
-1428.0920 4025.0105 -536.6082 -0.225 -0.307 -0.925 233 186 190
-4747.9800 2875.5876 2021.4185 0.754 -0.656 -0.003 102 104 88
-4735.5859 2876.1599 2013.1698 0.725 -0.689 0.018 107 108 91
-4733.5078 2918.3442 1996.6395 0.545 -0.735 0.403 133 137 121
-4829.3560 3026.8418 2019.7906 -0.255 -0.830 0.497 89 109 107
-4651.6650 2996.3015 1915.4739 0.820 -0.278 -0.500 34 61 83
-4539.6143 2972.1309 1851.4602 0.533 -0.734 -0.421 38 79 77
-4240.4150 2951.9744 1664.5565 0.628 -0.319 -0.710 131 185 223
-3565.7412 2692.0762 1320.2788 0.615 -0.788 -0.028 69 39 21
-3492.8374 2689.9180 1273.7466 -0.012 -0.380 -0.925 30 18 27
-3506.2520 2717.7522 1272.4343 0.166 -0.117 -0.979 164 178 197
-3514.7876 2733.2927 1272.3805 0.135 -0.128 -0.983 162 189 214
-3806.0461 3023.6260 1356.8972 -0.111 -0.615 -0.781 134 184 205
-3784.8721 3014.8267 1346.3236 -0.123 -0.609 -0.784 126 171 188
-3766.1843 3035.8945 1326.6146 0.008 -0.973 -0.229 13 27 22
-3039.7192 2555.9895 1027.9066 0.601 -0.621 0.504 143 123 106
-3033.3354 2558.1743 1022.9778 0.601 -0.621 0.504 111 90 72
-3018.4006 2568.5815 1009.5408 0.433 -0.681 0.591 69 50 35
-2953.5488 2572.7439 965.9589 -0.494 -0.797 -0.348 81 55 42
-2868.1650 2605.1448 898.8904 0.525 -0.749 0.405 53 40 32
-2852.3228 2606.0767 888.2747 0.676 -0.644 0.358 50 33 21
-2821.9424 2584.2185 876.4267 0.248 -0.926 0.286 57 41 28
-2813.0571 2583.6172 870.8771 0.303 -0.921 0.246 60 50 39
-2804.7744 2583.5955 865.5102 0.364 -0.903 0.229 48 48 31
-2793.2139 2580.2710 859.2046 0.476 -0.879 -0.019 39 46 24
-2784.2468 2579.5137 853.6583 0.493 -0.820 -0.292 35 38 18
-2782.7329 2586.2432 850.2540 0.121 -0.985 -0.127 33 30 14
-2648.8853 2499.0896 794.7627 0.610 -0.792 0.033 37 13 0
-2644.8882 2503.0330 790.7497 0.605 -0.796 0.025 45 18 0
-2693.6565 2965.6560 655.9034 -0.496 -0.484 -0.721 160 81 40
-2475.6177 2762.4841 587.5322 -0.447 -0.675 0.587 123 47 8
-2435.0874 2722.7463 575.5322 -0.451 -0.676 0.583 110 47 11
-2395.7283 2693.1746 560.6337 -0.163 -0.784 0.599 102 46 15
-2370.8447 2671.8735 552.1522 -0.053 -0.805 0.591 100 45 13
-2310.6311 2642.6091 523.6102 0.435 -0.651 0.622 93 45 17
-2307.0754 2647.1362 519.6735 0.907 -0.422 0.013 94 46 18
-2292.3333 2637.7261 513.4936 0.786 -0.225 -0.576 93 47 20
-2242.9675 2826.1384 413.6513 0.631 -0.078 -0.772 167 86 57
-2254.2664 2851.3704 411.9026 0.767 -0.222 -0.602 177 87 61
-2710.1895 3545.2820 458.0305 0.277 -0.428 -0.860 207 136 100
-2714.0898 3562.9851 454.1904 0.349 -0.377 -0.858 187 120 88
-2305.9329 3366.3103 260.1086 0.452 -0.698 0.556 11 11 11
-2291.1199 3355.3921 254.4255 -0.060 -0.991 0.123 13 14 14
-2261.4390 3321.0710 247.5165 0.085 -0.770 0.632 20 23 26
-2298.3728 3466.3362 219.2044 -0.060 -0.839 0.541 27 31 34
-2263.1917 3524.9500 175.2800 0.934 -0.115 -0.338 138 124 124
-1944.3448 5149.4380 -616.2641 -0.756 -0.425 -0.499 236 181 183
-4803.9795 2881.3879 2043.7537 0.403 -0.913 -0.057 89 87 75
-4812.1650 2895.3477 2044.0045 0.253 -0.957 0.141 93 85 75
-4772.1143 2878.1050 2024.3027 0.871 -0.451 -0.193 91 89 77
-4762.3589 2880.4277 2017.1440 0.869 -0.465 -0.166 94 98 84
-4712.7373 2873.9905 1987.3335 0.721 -0.555 0.414 114 118 102
-4712.4507 2908.5554 1974.6412 0.748 -0.543 0.383 120 132 124
-4855.8286 3012.5859 2029.8640 0.923 -0.350 0.158 105 125 127
-4286.9814 2954.9143 1682.2937 0.593 -0.367 -0.717 152 175 193
-4272.0107 2952.7437 1673.3828 0.117 -0.902 -0.416 149 187 214
-4264.0010 2955.7134 1667.1201 0.014 -0.823 -0.568 135 185 218
-4247.7920 2952.5627 1657.7618 0.628 -0.319 -0.710 133 184 223
-3573.3757 2693.5857 1314.6548 0.402 -0.894 0.196 70 39 19
-3503.3201 2685.6050 1272.1680 0.194 -0.564 -0.802 57 33 25
-3504.6919 2695.0134 1269.6522 0.240 -0.706 -0.666 48 38 44
-3507.6848 2705.8057 1267.6857 0.179 -0.311 -0.933 65 64 81
-3523.2075 2735.5032 1266.9939 0.209 -0.144 -0.967 171 193 214
-3803.1067 3015.7676 1346.8729 -0.091 -0.632 -0.770 139 186 204
-3795.3418 3036.9417 1334.1821 0.333 -0.901 -0.277 54 80 86
-3776.1147 3039.0347 1320.9716 0.029 -0.964 -0.264 27 42 40
-3191.2788 2614.8843 1095.6505 0.020 -0.968 0.250 178 166 154
-3042.9141 2546.1597 1024.4227 0.654 -0.567 0.501 192 176 163
-3041.4890 2552.8469 1021.0801 0.650 -0.590 0.478 194 178 164
-3036.3237 2556.1382 1016.5438 0.629 -0.605 0.489 178 161 148
-3029.6824 2558.0771 1011.5405 0.544 -0.682 0.490 163 145 131
-3016.1140 2577.7991 995.6163 0.846 -0.428 0.317 55 38 23
-2933.1250 2580.9771 940.7151 -0.307 -0.935 -0.175 89 46 37
-2910.6240 2567.6108 930.9778 -0.089 -0.877 -0.473 99 51 42
-2893.9338 2592.3362 911.2211 0.529 -0.825 0.198 98 56 46
-2844.5247 2585.0784 881.8454 0.251 -0.700 0.668 41 28 19
-2815.8230 2573.1226 867.5815 0.320 -0.946 0.048 47 35 26
-2807.3147 2572.8711 862.1618 0.406 -0.912 -0.061 47 39 28
-2802.6562 2576.4373 857.8541 0.397 -0.916 -0.062 42 42 25
-2795.0120 2577.0203 852.6921 0.405 -0.910 -0.087 36 39 18
-2662.7881 2500.3110 794.8079 0.580 -0.815 -0.001 52 21 2
-2654.7695 2500.1462 789.6740 0.603 -0.797 0.012 61 23 3
-2649.8486 2503.1431 785.4023 0.597 -0.799 0.070 69 29 9
-2924.0378 2838.6194 841.6053 0.531 -0.124 -0.838 153 69 35
-2742.3965 3006.9209 663.0599 -0.534 -0.712 -0.457 162 82 38
-2704.8647 2982.3748 647.6326 -0.443 -0.713 -0.543 150 75 36
-2481.7422 2754.6572 585.5143 -0.460 -0.886 -0.048 132 54 15
-2408.6104 2693.8855 560.1367 -0.419 -0.678 0.605 99 49 16
-2398.4985 2690.6477 554.7590 -0.157 -0.778 0.608 98 50 20
-2249.4739 2828.3545 408.4095 0.629 -0.099 -0.771 164 87 57
-2463.1038 3378.1118 347.8542 0.129 -0.875 -0.467 42 17 7
-2423.8320 3332.4546 338.9386 -0.006 -0.939 0.345 30 14 4
-2363.4626 3266.9858 323.5268 0.331 -0.642 -0.692 12 5 1
-2279.6958 3329.0842 246.8023 0.357 -0.275 -0.892 9 9 9
-2254.4004 3514.1528 163.4541 0.676 -0.193 -0.711 192 183 183
-1905.5621 5096.1475 -634.9078 -0.759 -0.431 -0.488 216 159 158
-4765.7749 2843.7573 2020.8430 0.738 -0.646 -0.195 91 86 77
-4843.0234 2990.3706 2017.4464 0.952 -0.306 -0.002 92 108 103
-4855.8281 3007.8418 2019.3685 0.923 -0.350 0.158 63 87 90
-4915.4487 3065.7000 2036.8632 -0.252 -0.813 0.525 31 58 63
-4816.9790 3008.9956 1993.8342 -0.237 -0.808 0.539 28 55 59
-4618.6187 2928.5781 1894.8561 0.667 -0.374 -0.644 22 63 89
-4688.1479 2993.8022 1916.0769 0.514 -0.538 0.668 23 65 87
-4290.6177 2952.7078 1674.0381 0.571 -0.322 -0.755 149 173 195
-4280.4736 2954.1152 1666.9686 -0.035 -0.816 -0.577 150 191 219
-3575.8079 2690.8604 1307.1957 0.402 -0.894 0.196 69 39 21
-3853.6877 3034.7412 1361.7375 0.483 -0.857 -0.178 139 188 214
-3836.9846 3029.8955 1352.7025 -0.109 -0.983 -0.149 140 188 211
-3816.1462 3030.7454 1338.9221 -0.113 -0.986 -0.120 147 182 196
-3810.9128 3035.5647 1333.7856 0.066 -0.993 -0.096 136 166 176
-3803.0786 3038.1636 1327.7758 0.346 -0.906 -0.241 30 53 57
-3783.4663 3039.9436 1314.4497 0.076 -0.971 -0.228 49 60 56
-3775.6711 3042.5430 1308.4648 0.014 -0.996 -0.089 147 155 148
-3064.2981 2609.3538 1006.1744 0.759 -0.409 0.507 172 156 141
-3070.8098 2673.3875 987.0899 -0.519 -0.787 0.333 67 44 30
-2976.9070 2601.3218 952.6014 -0.467 -0.801 0.374 68 46 29
-2911.5735 2563.6213 924.0804 -0.092 -0.983 -0.156 88 47 35
-2903.5457 2588.4707 909.8510 0.195 -0.901 0.387 95 55 43
-2830.5242 2574.4675 867.7394 -0.150 -0.878 -0.455 41 32 22
-2807.9949 2576.7246 852.3541 -0.094 -0.865 -0.492 34 34 18
-2791.5527 2568.5327 844.7049 0.473 -0.851 -0.229 29 32 12
-2786.0833 2571.2576 840.1778 0.349 -0.932 -0.092 25 25 5
-2734.0049 3000.5359 650.3487 -0.358 -0.721 -0.593 157 81 41
-2714.5720 2987.4766 642.5368 -0.232 -0.869 -0.436 150 76 37
-2450.7839 2729.8083 565.7421 -0.493 -0.667 0.559 111 47 12
-2267.9700 2856.6497 401.4178 0.348 -0.028 -0.937 171 93 65
-2285.6372 3329.8965 240.6817 0.387 -0.259 -0.885 9 9 9
-2269.2825 3402.0256 203.8699 0.588 -0.325 -0.741 29 30 34
-2268.3674 3489.1023 171.6017 0.896 -0.220 -0.385 33 36 43
-2276.5325 3528.4329 162.5724 0.457 -0.029 -0.889 54 51 51
-4715.6514 2807.2192 1990.0969 0.418 -0.283 -0.863 86 83 71
-4779.5044 2856.6951 2013.2026 0.799 -0.586 0.137 86 83 71
-4871.1606 3004.2622 2018.3738 0.936 -0.350 0.035 48 71 69
-4602.8638 2966.1477 1859.1993 0.478 -0.738 -0.477 22 66 85
-4292.6733 2958.2437 1661.9449 0.002 -0.787 -0.617 144 185 214
-3583.7607 2643.6287 1319.5924 0.405 -0.834 -0.375 129 185 230
-3589.6560 2697.4075 1303.7281 0.509 -0.860 -0.033 69 40 24
-3547.4517 2737.6692 1261.7720 0.384 -0.705 -0.596 101 98 112
-3836.1829 2996.3027 1353.4834 0.691 -0.418 -0.590 149 172 189
-3838.0232 3025.4255 1344.0200 0.429 -0.866 -0.257 94 135 156
-3832.3027 3029.8342 1338.7166 0.429 -0.866 -0.257 147 180 199
-3825.6267 3033.4341 1333.0925 0.452 -0.846 -0.283 159 186 202
-3821.0396 3038.8110 1328.1661 0.069 -0.991 -0.113 120 142 155
-3808.8345 3037.6885 1320.7017 0.399 -0.894 -0.205 20 35 41
-3790.3604 3049.7764 1304.3608 0.386 -0.916 -0.113 165 165 160
-3766.6929 3038.6755 1293.1495 -0.127 -0.971 -0.203 171 167 158
-2984.4097 2603.4883 947.5516 -0.455 -0.793 0.405 63 39 24
-2960.3406 2588.8765 937.3652 -0.377 -0.807 0.454 64 35 21
-2923.3516 2569.9692 920.4136 0.014 -0.916 0.401 77 43 28
-2898.1172 2553.9590 909.9867 -0.115 -0.993 -0.023 79 48 33
-2884.6116 2549.0842 903.0552 -0.336 -0.939 0.081 89 58 43
-2875.7070 2548.5879 897.4913 -0.354 -0.934 0.041 91 60 44
-2863.4182 2544.8049 890.9456 -0.349 -0.936 0.035 86 51 37
-2815.9126 2522.8569 868.3204 -0.400 -0.816 -0.417 36 26 17
-2803.6521 2534.9529 855.9856 -0.071 -0.995 0.070 43 30 21
-2634.1008 2886.2310 618.1161 0.677 -0.587 -0.443 151 76 37
-2470.6831 2747.7910 563.3040 0.086 -0.977 0.193 113 47 13
-2458.5076 2742.2900 557.4598 -0.112 -0.991 -0.069 100 49 17
-2296.4282 3565.0474 151.9819 0.400 0.028 -0.916 134 128 125
-4733.2070 2814.0845 1987.2579 0.426 -0.294 -0.856 71 72 58
-4753.1948 2835.3730 1992.3033 0.485 -0.828 0.280 74 70 58
-4797.1226 2880.7871 2003.8959 0.800 -0.564 -0.203 66 72 64
-4763.8687 2867.9260 1987.2089 0.876 -0.467 -0.125 56 76 67
-4271.7339 2692.0105 1734.9482 -0.054 -0.495 -0.867 12 67 83
-3590.6218 2644.5247 1313.7673 0.422 -0.827 -0.370 128 184 229
-3632.0608 2710.4534 1316.2150 0.487 -0.760 -0.430 59 46 37
-3609.5566 2708.8367 1302.3165 0.616 -0.787 -0.030 69 40 24
-3529.3330 2692.8979 1256.5122 0.004 -0.663 0.749 61 35 24
-3871.1118 3029.4629 1352.8784 0.706 -0.708 0.010 46 75 87
-3843.9700 3025.1079 1337.0001 0.449 -0.851 -0.272 19 52 71
-3839.5911 3030.6504 1332.1423 0.471 -0.835 -0.284 141 166 187
-3833.6248 3034.8557 1326.7538 0.586 -0.809 -0.051 167 186 205
-3824.0618 3036.0037 1320.1731 0.066 -0.993 -0.096 88 101 118
-3812.9626 3035.8254 1313.0907 0.101 -0.990 -0.094 14 20 33
-3805.1172 3057.0427 1300.2374 0.482 -0.798 -0.361 185 178 175
-3797.9482 3060.2224 1294.4515 0.288 -0.930 -0.228 163 154 148
-3783.3457 3056.9663 1286.2446 -0.319 -0.938 -0.135 173 161 151
-3203.1653 2761.5000 1021.2363 -0.315 -0.196 -0.929 113 89 77
-3210.4871 2776.9595 1020.2678 -0.285 -0.193 -0.939 52 30 16
-3180.3867 2757.4885 1008.0417 0.653 -0.755 -0.059 66 44 30
-3088.5403 2679.9658 977.3939 -0.517 -0.787 0.336 69 47 34
-2961.9539 2585.5005 930.6027 -0.373 -0.806 0.459 92 64 50
-2918.4412 2560.4106 911.8048 0.023 -0.920 0.392 75 46 30
-2901.3406 2552.1711 903.8212 -0.049 -0.999 -0.003 65 40 22
-2892.9697 2552.2217 898.4116 -0.203 -0.934 0.295 64 39 21
-2879.6289 2555.5427 888.5992 -0.174 -0.837 0.519 67 38 22
-2864.5310 2549.0508 881.2629 -0.191 -0.828 0.527 65 36 23
-2801.7456 2585.0613 827.5891 0.468 -0.865 -0.182 40 20 9
-2781.8755 2573.3682 819.0917 0.276 -0.716 -0.641 59 30 22
-2774.0981 2573.7561 813.9406 0.438 -0.708 -0.554 74 39 30
-2762.4475 2570.2183 807.7382 0.081 -0.783 -0.617 90 50 42
-2640.1414 2887.1868 612.4360 0.742 -0.514 -0.430 150 75 36
-2577.0457 2840.9719 588.7935 0.098 -0.942 -0.322 140 62 24
-2516.3501 2778.0840 572.8265 0.106 -0.742 0.662 132 57 18
-2246.2383 2804.2908 389.2379 0.435 -0.892 0.124 168 94 62
-2508.2834 3178.9812 420.2381 0.193 -0.920 -0.342 202 121 93
-2752.6118 3534.2700 446.9618 0.878 -0.469 0.099 179 117 89
-1882.6530 4880.4800 -608.2423 0.029 -0.859 0.511 217 159 160
-1862.8291 4849.6704 -609.6815 0.121 -0.879 0.462 211 152 154
-4754.1147 2831.5557 1982.5984 0.485 -0.828 0.280 69 65 53
-4823.0176 2892.9861 2004.1832 0.517 -0.846 -0.126 57 65 59
-4787.8784 2887.6094 1983.5836 0.945 -0.328 -0.010 41 66 65
-4749.2158 2871.1594 1964.8120 0.926 -0.343 -0.154 42 64 67
-4678.8589 2876.7751 1917.5123 0.786 -0.610 0.099 17 58 73
-4654.8096 2869.4824 1904.7494 0.687 -0.717 0.118 13 59 78
-4615.2539 2860.3940 1882.6829 0.634 -0.762 0.133 14 60 77
-4343.5967 2897.5430 1694.3372 0.594 -0.264 -0.760 141 134 118
-4217.0117 2910.2078 1608.2902 0.626 -0.573 -0.529 129 180 219
-3595.6211 2643.9363 1307.2860 0.415 -0.829 -0.375 128 184 229
-3637.6028 2710.2146 1309.7747 0.786 -0.591 -0.183 60 45 36
-3857.2046 3021.7009 1335.8063 0.580 -0.814 -0.023 18 50 63
-3848.9863 3024.0068 1329.6715 0.459 -0.848 -0.264 36 65 82
-3843.4922 3028.6030 1324.4413 0.459 -0.848 -0.264 153 174 193
-3837.3447 3032.6497 1318.9943 0.586 -0.809 -0.051 159 173 194
-3829.3269 3035.1089 1312.9316 0.063 -0.991 -0.118 78 84 105
-3821.2185 3037.4822 1306.8425 0.066 -0.993 -0.096 11 12 30
-3429.5139 2805.7969 1140.6929 -0.560 -0.618 -0.552 179 167 155
-3374.0808 2774.0364 1116.8000 -0.582 -0.687 -0.435 181 167 156
-3247.3518 2788.6707 1029.9326 -0.322 -0.168 -0.932 194 172 159
-3190.1929 2761.4863 1003.2391 0.661 -0.737 -0.138 86 64 50
-2920.5859 2557.5876 905.3015 0.023 -0.920 0.392 119 99 80
-2908.2427 2553.8940 898.7327 0.040 -0.930 0.366 95 78 58
-2897.8958 2552.0674 892.7568 -0.202 -0.927 0.316 84 67 47
-2894.3960 2556.7742 888.7677 -0.158 -0.835 0.527 77 58 39
-2880.5017 2551.4985 881.7867 -0.174 -0.837 0.519 69 49 30
-2863.3362 2543.0190 873.8870 -0.190 -0.835 0.517 59 38 24
-2830.3711 2535.1924 855.5905 0.129 -0.961 0.246 19 6 2
-2785.5278 2571.9976 813.1631 0.410 -0.739 -0.535 75 39 33
-2779.0659 2573.7083 808.3772 0.444 -0.713 -0.542 91 48 42
-2725.7505 2552.5469 781.9283 -0.486 -0.749 -0.450 137 69 29
-2699.6475 2558.5674 762.9247 0.003 -0.984 -0.177 167 70 41
-2681.5911 2548.1543 755.1672 -0.036 -0.964 -0.262 170 70 37
-2655.2134 2545.3542 739.2469 0.583 -0.813 -0.002 164 79 32
-2632.2412 2900.3081 593.2917 0.507 -0.796 0.331 139 64 25
-2544.2817 2814.6277 568.4202 -0.151 -0.823 0.548 125 52 13
-2535.1421 2813.0376 563.1330 0.179 -0.758 0.627 110 48 13
-2521.5088 3189.5269 415.2212 0.136 -0.909 -0.394 203 124 98
-2754.6519 3528.8989 439.6505 0.878 -0.469 0.099 194 135 112
-4752.9072 2817.9216 1975.2025 0.704 -0.149 -0.695 63 58 50
-4750.4414 2824.8096 1971.0612 0.477 -0.835 0.274 59 58 50
-4930.9575 2957.9265 2037.4154 0.805 -0.593 0.033 44 57 55
-4841.8276 2935.5278 1988.5555 0.503 -0.864 -0.007 24 53 58
-4821.2446 2930.8970 1977.0708 0.537 -0.841 -0.066 24 52 57
-4821.7114 2939.9858 1973.9935 0.532 -0.844 -0.073 22 53 59
-4667.6348 2864.8499 1903.0601 0.969 -0.242 0.051 14 58 78
-4318.0156 2739.4343 1725.3560 -0.144 -0.388 -0.911 0 59 75
-4304.4648 2746.6533 1713.9802 -0.405 -0.298 -0.865 6 46 64
-4664.5063 3021.3418 1842.9117 0.290 -0.643 -0.709 2 15 33
-4308.6758 2973.2209 1632.5055 0.646 -0.552 -0.528 128 180 218
-3601.3210 2643.9050 1301.0492 0.415 -0.829 -0.375 128 185 231
-3503.6672 2678.7485 1225.4537 -0.123 -0.588 -0.799 64 37 33
-3863.8972 3022.0071 1329.0303 0.586 -0.809 0.050 117 148 161
-3854.9729 3023.7239 1322.6670 0.596 -0.803 0.028 92 120 134
-3849.0315 3027.9419 1317.2881 0.596 -0.803 0.028 162 181 199
-3844.2373 3033.1316 1312.2843 0.603 -0.798 0.017 150 161 180
-3833.6750 3033.4385 1305.3939 0.566 -0.824 -0.027 62 67 87
-3820.8296 3031.7839 1297.7677 0.397 -0.894 -0.205 8 8 23
-3829.2927 3076.3000 1286.6582 0.484 -0.782 -0.392 173 158 153
-3572.8601 2917.8533 1181.0103 -0.088 -0.787 0.611 179 166 154
-3563.8386 2918.8984 1174.8342 -0.604 -0.779 -0.166 179 166 154
-3508.5554 2879.1106 1154.1493 -0.598 -0.635 -0.489 181 167 154
-3320.5198 2851.0959 1043.9225 -0.322 -0.168 -0.932 189 166 152
-3296.7253 2846.7539 1030.2701 -0.292 -0.200 -0.935 98 74 58
-2996.5491 2608.3586 926.2614 -0.384 -0.781 0.493 144 125 108
-2922.7266 2554.7695 898.8102 0.023 -0.920 0.392 142 127 106
-2910.5781 2551.2661 892.3181 0.040 -0.930 0.366 144 130 109
-2906.8506 2555.7561 888.2584 -0.200 -0.920 0.337 144 129 108
-2895.0640 2552.5435 881.8903 -0.163 -0.835 0.525 133 118 97
-2881.3721 2547.4651 874.9930 -0.174 -0.837 0.519 114 98 78
-2864.2732 2539.0596 867.1459 -0.190 -0.835 0.517 96 80 63
-2846.7009 2530.1294 859.1902 -0.190 -0.835 0.517 56 44 32
-2834.9558 2526.7688 852.9036 -0.077 -0.831 0.551 37 27 19
-2826.2886 2526.3582 847.4957 0.164 -0.962 0.220 33 20 14
-2778.5596 2576.3586 798.2982 0.707 -0.482 -0.518 109 55 52
-2776.3228 2582.3198 794.6486 0.727 -0.486 -0.485 119 66 52
-2762.2246 2576.2991 787.8407 -0.203 -0.974 -0.096 130 71 39
-2709.4817 2563.5940 758.7235 0.120 -0.935 -0.334 161 76 40
-2697.2302 2559.1982 752.4967 0.213 -0.913 -0.347 162 74 35
-2679.6604 2549.2654 744.9150 0.095 -0.975 -0.201 164 72 38
-2666.1758 2551.6631 735.3731 0.218 -0.956 -0.194 163 80 31
-2645.3269 2538.1467 727.0192 0.113 -0.993 0.021 165 78 33
-2619.4475 2527.3962 714.4101 0.355 -0.932 0.070 168 81 35
-2765.9500 3012.4907 628.1728 -0.063 -0.559 0.827 158 80 38
-2741.8389 2994.1191 619.5297 -0.069 -0.558 0.827 150 75 36
-2725.8843 2985.2026 612.6068 0.102 -0.510 0.854 142 68 29
-2651.4658 2916.8567 590.2558 0.156 -0.765 0.625 138 63 23
-2626.0173 2896.2905 581.5701 0.201 -0.736 0.646 133 58 19
-2612.4641 2889.7349 575.3107 0.206 -0.736 0.644 125 52 13
-2539.9316 2812.7034 557.3964 0.178 -0.768 0.615 111 48 13
-2526.8213 2806.3379 551.3504 0.121 -0.781 0.612 97 48 16
-2337.1174 3630.4421 123.4664 0.475 0.042 -0.879 195 177 179
-1598.9968 4040.2878 -502.3480 0.345 -0.060 -0.937 213 164 167
-1721.2865 4671.7734 -658.5078 -0.438 -0.353 -0.826 173 120 114
-4735.7324 2794.2219 1961.4113 0.858 -0.122 -0.498 53 59 53
-4765.7666 2821.7473 1970.3633 0.690 -0.166 -0.705 47 53 48
-4738.2290 2812.6282 1956.1360 0.159 -0.937 0.311 46 55 48
-4951.9458 2966.8245 2035.3992 0.760 -0.647 0.056 32 51 53
-4257.7363 2677.6946 1698.8538 0.999 0.016 0.046 8 53 63
-4619.7139 3039.5605 1795.4966 0.914 -0.404 -0.043 126 120 107
-4222.4570 2913.3696 1588.2478 0.639 -0.468 -0.611 121 176 217
-3610.2476 2646.4312 1295.9219 0.181 -0.831 -0.526 128 185 232
-3864.3674 3017.1047 1320.2107 0.550 -0.834 0.029 83 116 133
-3857.7092 3020.7136 1314.5995 0.594 -0.801 0.068 117 144 161
-3851.5986 3024.7812 1309.1675 0.594 -0.801 0.068 168 187 203
-3844.9827 3028.4233 1303.5710 0.579 -0.814 -0.041 139 151 167
-3837.3242 3031.1814 1297.6371 0.566 -0.824 -0.027 33 40 53
-3833.4644 3037.1560 1292.9341 0.579 -0.814 -0.041 8 9 18
-3835.3743 3076.0642 1279.6263 0.484 -0.782 -0.392 173 158 151
-3829.2913 3080.2263 1274.1769 0.294 -0.895 -0.337 174 156 144
-2903.3105 2547.5322 880.1826 -0.190 -0.927 0.324 136 115 96
-2889.6074 2542.4773 873.2959 -0.183 -0.843 0.506 130 111 91
-2873.9797 2535.5308 865.8833 -0.183 -0.841 0.509 137 118 99
-2857.9470 2528.1357 858.3787 -0.208 -0.834 0.511 143 123 104
-2843.0977 2521.8191 851.2292 -0.204 -0.829 0.520 138 121 107
-2831.8406 2518.9182 845.1044 -0.067 -0.827 0.559 128 111 102
-2819.5779 2515.0073 838.7128 -0.035 -0.819 0.572 111 90 83
-2735.4451 2568.6716 764.7984 -0.270 -0.958 -0.099 125 72 32
-2737.5962 2579.0833 762.2875 0.294 -0.826 -0.481 141 81 44
-2731.0715 2580.6477 757.5253 0.269 -0.830 -0.488 145 79 47
-2728.7375 2586.5095 753.8415 0.253 -0.825 -0.505 147 79 46
-2718.3293 2584.0647 748.0898 -0.362 -0.710 -0.604 150 76 45
-2620.6975 2556.3533 695.9222 0.771 -0.528 -0.357 165 82 38
-2659.6018 2910.6572 588.5152 0.090 -0.522 0.848 141 66 27
-2582.0935 2828.7451 569.4753 -0.184 -0.713 0.676 138 63 23
-2546.9050 2796.4221 559.0143 -0.207 -0.751 0.626 133 58 18
-2560.1887 2821.4570 558.1707 0.054 -0.778 0.626 124 51 13
-2549.2998 2817.8250 552.5547 0.205 -0.783 0.587 113 47 11
-2532.6750 2807.2949 545.8419 0.237 -0.770 0.593 99 47 15
-1760.1993 4717.9712 -662.3613 -0.167 -0.952 0.257 177 119 117
-1707.0049 4658.5786 -674.2426 0.765 -0.319 0.559 153 102 101
-4773.4785 2822.2869 1963.4360 0.686 -0.175 -0.706 28 47 44
-4743.9941 2811.9478 1948.4738 0.165 -0.936 0.312 29 47 42
-4469.2646 2774.9409 1786.7831 0.404 -0.448 -0.798 15 57 78
-4636.8096 3046.6929 1791.8499 0.987 -0.157 0.036 116 110 97
-4410.7153 2913.7661 1697.2504 0.597 -0.678 0.429 130 122 110
-4321.9233 2885.2395 1651.2109 0.824 -0.566 0.023 140 135 125
-4334.9302 2938.3494 1639.5870 0.702 -0.145 -0.697 146 179 206
-4236.7671 2919.1421 1584.0602 0.627 -0.437 -0.644 113 169 213
-3618.1877 2648.1675 1290.4410 0.181 -0.831 -0.526 127 185 233
-3647.3408 2687.5615 1294.2848 0.603 -0.527 -0.599 146 184 217
-3645.3240 2694.1504 1290.5226 0.603 -0.527 -0.599 104 128 146
-3650.6348 2706.6213 1289.2352 0.668 -0.574 -0.473 54 56 61
-3515.0483 2670.5564 1216.1190 -0.502 -0.743 -0.442 63 39 20
-3503.5642 2669.2808 1209.2583 -0.538 -0.696 -0.476 48 35 24
-3867.7141 3014.6204 1312.3530 0.550 -0.834 0.029 37 72 93
-3862.4678 3019.4062 1307.2035 0.560 -0.828 0.006 112 140 158
-3852.4607 3020.1978 1300.5107 0.563 -0.826 -0.017 166 185 201
-3846.8713 3024.6929 1295.2511 0.566 -0.824 -0.027 117 132 144
-3840.9690 3028.9268 1289.8895 0.566 -0.824 -0.027 1 10 17
-3835.3271 3033.3828 1284.6111 0.576 -0.817 -0.029 14 17 19
-3836.0398 3071.1870 1270.8751 0.190 -0.802 -0.566 168 154 144
-3771.0828 3024.7368 1246.7974 0.247 -0.927 -0.282 171 154 141
-3834.1025 3088.3013 1263.2125 0.185 -0.938 -0.294 173 154 139
-3716.1323 2995.7656 1222.5535 -0.004 -0.886 -0.464 172 155 139
-3713.6643 3002.7991 1218.3358 0.038 -0.894 -0.446 173 157 142
-3709.7883 3036.3730 1203.2554 0.294 -0.663 -0.688 176 159 142
-2926.9429 2541.1077 888.8486 0.449 -0.844 0.294 145 115 102
-2890.8459 2530.8528 869.6284 0.302 -0.750 0.588 144 112 97
-2886.7197 2534.8950 865.4739 -0.189 -0.902 0.388 142 112 96
-2871.6833 2528.5100 858.2608 -0.176 -0.846 0.503 142 113 97
-2857.5552 2522.9402 851.3221 -0.239 -0.845 0.478 142 112 95
-2843.4736 2517.3645 844.4156 -0.213 -0.829 0.517 140 114 100
-2832.0625 2514.3132 838.2680 -0.067 -0.827 0.559 141 113 103
-2817.8101 2508.4773 831.3500 -0.067 -0.827 0.559 143 111 103
-2750.8169 2562.8643 768.1176 -0.137 -0.904 0.405 85 38 28
-2737.3843 2557.4226 761.5754 -0.185 -0.902 0.391 93 46 37
-2723.9851 2551.9644 755.0609 -0.188 -0.904 0.383 99 53 40
-2712.9788 2548.8958 749.1786 -0.019 -0.904 0.427 108 60 48
-2701.0376 2577.5986 730.7721 0.320 -0.913 0.253 136 73 40
-2695.0691 2579.6692 726.1802 -0.428 -0.859 -0.281 134 73 39
-2615.8647 2595.8569 669.4832 0.978 -0.206 0.041 163 77 30
-2558.3616 2803.9873 554.6024 -0.156 -0.840 0.520 138 63 23
-2566.0637 2822.3857 552.6182 0.154 -0.825 0.543 130 57 18
-2543.7617 2814.4885 541.3293 0.012 -0.863 0.506 105 50 18
-2492.2173 2762.1440 528.0364 -0.357 -0.677 0.644 103 50 22
-2221.7471 3239.9490 175.8129 0.525 -0.036 -0.851 15 16 18
-2317.9109 3451.6907 157.7865 0.185 0.020 -0.982 34 37 46
-2745.5442 5628.4702 -386.0499 -0.495 -0.869 -0.012 215 181 180
-1718.1422 4559.7808 -641.4975 -0.044 -0.905 0.422 182 118 118
-1709.3145 4557.1782 -646.1625 -0.044 -0.905 0.422 179 119 118
-4780.7363 2822.5356 1956.3223 0.686 -0.175 -0.706 22 49 51
-4503.4004 2886.9578 1755.1051 0.234 -0.171 -0.957 25 25 23
-4596.5596 2959.9546 1786.9874 0.561 -0.687 0.462 33 33 28
-4449.7705 2936.7112 1702.1222 0.461 -0.763 0.454 131 122 112
-4331.1982 2887.1865 1645.1727 0.766 -0.643 0.015 119 114 104
-4336.1978 2943.2800 1627.1969 0.890 -0.390 -0.237 134 182 220
-4419.1182 3039.8918 1643.6377 0.957 -0.262 0.122 119 176 219
-3626.1387 2649.9058 1284.9523 0.181 -0.831 -0.526 125 185 235
-3654.2729 2704.8652 1282.1616 0.664 -0.563 -0.492 51 58 67
-3658.4951 2716.4958 1280.4667 0.301 -0.925 -0.231 62 43 31
-3647.4512 2715.9014 1273.6461 0.818 -0.535 -0.210 70 40 19
-3522.9678 2680.5640 1207.5728 -0.459 -0.587 -0.667 51 38 23
-3517.4258 2684.2009 1202.6653 -0.461 -0.590 -0.663 84 91 92
-3509.2720 2685.6787 1196.9065 -0.457 -0.578 -0.676 146 171 187
-3551.1550 2728.6350 1207.4152 -0.229 -0.483 -0.845 132 168 194
-3861.7920 3004.4136 1301.5114 0.756 -0.648 -0.092 125 160 185
-3846.8047 3028.5266 1282.8530 0.589 -0.808 -0.017 4 16 22
-3837.0881 3066.6523 1262.2694 0.095 -0.924 -0.371 167 154 142
-3825.4946 3066.0603 1255.0973 0.138 -0.920 -0.367 172 155 142
-3730.3835 3002.7332 1218.3214 0.151 -0.945 -0.289 172 154 140
-2967.6460 2566.5554 896.3560 -0.438 -0.811 0.388 149 117 102
-2829.9973 2507.5215 830.8257 -0.090 -0.852 0.516 141 113 100
-2784.8838 2567.6331 779.3673 0.499 -0.842 0.207 72 42 34
-2776.3726 2567.2615 774.0782 0.116 -0.988 -0.103 58 29 22
-2767.4138 2566.4189 768.6815 -0.213 -0.977 0.008 68 34 27
-2638.6233 2581.5479 680.8188 -0.267 -0.742 -0.615 162 81 38
-2638.1030 2589.3184 677.5549 -0.265 -0.958 -0.105 161 82 41
-2623.0315 2581.5840 670.8593 -0.165 -0.980 -0.110 164 87 45
-2541.1475 2796.0930 537.6884 0.016 -0.570 0.821 117 53 15
-2221.6128 2701.9080 369.3981 -0.360 -0.907 0.219 95 52 31
-2807.8179 3520.3467 434.5217 -0.499 -0.803 -0.326 187 143 124
-2794.5376 3514.5237 428.2475 -0.489 -0.802 -0.342 224 180 162
-2765.3677 3583.6074 383.5738 0.650 -0.507 -0.566 43 15 7
-4289.0791 2669.9951 1689.5033 0.009 -0.170 -0.985 6 26 26
-4436.2407 2913.6626 1690.7880 0.505 -0.705 0.498 131 121 109
-4424.7041 2914.2422 1683.2231 0.592 -0.618 0.517 131 123 112
-4359.3618 2876.6462 1655.8794 0.403 -0.831 0.384 129 121 110
-4371.0195 2902.2593 1653.5881 -0.137 -0.990 0.023 116 109 98
-4357.2422 2901.1187 1645.2491 -0.125 -0.992 0.021 102 96 87
-4347.7456 2964.5850 1615.1339 0.837 -0.357 -0.414 130 184 227
-3634.1013 2651.6472 1279.4559 0.181 -0.831 -0.526 128 186 234
-3655.9341 2709.7668 1271.3148 0.132 -0.944 -0.303 62 44 31
-3639.8574 2705.1226 1262.8406 0.196 -0.936 -0.291 69 39 18
-3535.7922 2678.2195 1206.7881 -0.305 -0.638 -0.707 76 46 24
-3574.5078 2734.8279 1209.9689 0.093 -0.423 -0.902 161 184 202
-3849.9194 3025.8354 1274.9535 0.809 -0.576 -0.117 11 22 27
-3860.1050 3062.2117 1267.6431 0.768 -0.035 -0.640 161 155 147
-3845.3953 3068.3315 1255.9567 0.095 -0.924 -0.371 166 152 139
-3863.5681 3093.2507 1258.0765 0.514 -0.768 -0.382 173 156 143
-3966.8745 3191.4224 1286.6180 0.592 -0.723 -0.356 173 154 140
-3893.3232 3244.7253 1219.5753 0.136 -0.953 0.271 130 112 92
-3802.9468 3203.3259 1177.7357 -0.524 -0.830 0.192 154 136 116
-3711.3987 3140.1931 1143.3921 -0.550 -0.826 0.124 169 151 131
-2795.4568 2565.0496 778.3564 0.597 -0.705 0.384 139 115 105
-2540.1433 2595.1011 604.4089 0.681 -0.485 0.548 160 79 34
-2536.0476 2765.7852 537.0708 -0.409 -0.712 0.571 141 63 20
-2509.8257 2743.9517 528.6562 -0.409 -0.712 0.571 133 58 16
-2537.7239 2786.0637 530.4476 0.060 -0.569 0.820 118 54 14
-2237.7776 2707.6948 369.2010 -0.358 -0.908 0.218 117 67 47
-2815.6021 3522.7258 427.9918 -0.329 -0.832 -0.447 209 168 150
-2800.7622 3514.8516 421.5299 -0.509 -0.787 -0.349 216 175 157
-1691.5120 4560.5820 -681.2822 0.563 -0.776 0.286 112 80 71
-4515.0127 2709.8398 1807.1473 0.455 -0.715 0.531 13 57 73
-4724.3789 3020.4688 1821.7894 -0.329 -0.241 -0.913 29 31 29
-4434.4399 2907.6985 1680.5306 0.505 -0.705 0.498 128 118 104
-4436.8115 2918.0881 1678.0773 0.589 -0.695 0.412 124 114 102
-4403.3633 2903.1501 1662.5165 -0.216 -0.954 0.207 104 96 84
-4403.7822 2912.1528 1659.3512 -0.195 -0.973 0.123 82 75 65
-4381.5723 2905.0703 1647.9374 -0.197 -0.968 0.159 69 62 53
-4366.5190 2903.0349 1639.1473 -0.140 -0.990 0.011 59 53 45
-4340.4194 2910.4473 1619.7372 0.792 -0.054 -0.608 91 105 117
-4391.3965 3018.5972 1610.9080 0.962 -0.250 0.112 110 165 206
-3653.2444 2662.1890 1277.6958 0.234 -0.808 -0.541 125 183 229
-3662.9314 2710.6951 1265.3627 0.132 -0.944 -0.303 59 41 28
-3649.4167 2708.1199 1257.7563 0.177 -0.932 -0.318 69 40 19
-3606.1692 2681.6211 1240.3748 0.240 -0.969 0.066 67 39 19
-3586.0156 2706.3372 1218.1472 -0.008 -0.984 -0.181 66 32 13
-3861.0906 2993.3591 1283.5426 0.696 -0.693 -0.190 151 186 210
-3853.7124 3070.0129 1249.6364 0.095 -0.924 -0.371 163 150 137
-3879.5581 3101.4648 1254.0719 0.576 -0.718 -0.392 169 152 140
-3869.1733 3102.0015 1247.2683 0.442 -0.721 -0.534 170 151 137
-3725.6187 2987.9836 1199.5052 0.399 -0.732 -0.553 170 151 136
-3864.4182 3193.7068 1209.2917 0.184 -0.908 -0.376 140 121 104
-3841.2344 3192.6716 1194.9541 -0.062 -0.891 -0.451 135 118 98
-3831.2156 3222.9167 1177.0593 -0.527 -0.829 0.185 137 119 99
-2792.3835 2565.1357 767.6513 0.590 -0.712 0.382 151 130 119
-2523.8564 2745.5811 528.2354 -0.357 -0.703 0.615 139 63 23
-2500.2842 2726.8582 520.3927 -0.353 -0.705 0.615 131 58 18
-2275.0735 2740.8948 371.9314 0.828 -0.298 0.474 157 92 67
-2811.6709 3509.5491 419.9315 0.662 -0.534 0.525 209 168 150
-4430.4326 2900.2000 1669.5026 0.529 -0.759 0.380 130 120 108
-4435.3589 2912.3613 1667.9681 0.596 -0.694 0.404 100 90 78
-4409.8940 2903.0811 1655.3724 -0.216 -0.954 0.207 52 44 31
-4411.3364 2912.8025 1652.5630 -0.194 -0.969 0.151 29 22 12
-4388.5898 2905.3582 1640.9882 -0.197 -0.968 0.159 24 17 9
-4374.6157 2904.1033 1632.6060 -0.140 -0.990 0.011 27 20 12
-4351.1543 2896.0356 1620.8164 0.589 -0.254 -0.767 25 20 17
-3669.9346 2711.6238 1259.4056 0.132 -0.944 -0.303 58 40 27
-3659.1614 2711.2549 1252.7141 0.190 -0.927 -0.323 68 37 17
-3611.6519 2681.3955 1234.0206 0.185 -0.981 -0.065 67 37 18
-3576.2820 2693.7219 1206.8655 0.607 -0.755 0.246 67 34 14
-3545.1448 2676.5356 1193.7009 -0.111 -0.825 -0.553 59 29 7
-3588.4163 2745.0857 1194.8849 0.337 -0.539 -0.772 144 180 206
-3895.2009 3109.3542 1249.9144 0.565 -0.656 -0.501 162 146 133
-3900.1919 3123.0847 1247.8199 0.502 -0.686 -0.527 162 144 130
-3733.4722 3026.1062 1179.2306 0.750 -0.305 -0.587 145 127 113
-3849.8184 3136.6846 1210.6611 -0.604 -0.782 -0.155 140 123 106
-3738.4768 3048.9963 1173.6359 -0.545 -0.817 -0.191 137 120 101
-3869.4624 3211.9565 1194.2848 0.025 -0.946 -0.323 142 125 105
-3855.9922 3209.7944 1186.5697 0.052 -0.961 -0.271 143 125 105
-3843.4507 3208.4241 1179.1404 0.079 -0.969 -0.235 145 127 107
-3827.5918 3204.0576 1170.7548 0.032 -0.976 -0.216 148 130 110
-3814.6206 3202.2310 1163.2277 -0.227 -0.973 0.034 147 129 109
-2824.8105 2543.7461 787.7065 0.698 -0.683 -0.216 141 114 103
-2818.5051 2545.6050 782.9952 0.722 -0.663 -0.196 139 115 105
-2797.4834 2557.1301 765.2474 0.597 -0.708 0.377 142 118 106
-2798.1604 2565.9089 762.3137 0.604 -0.752 0.263 149 127 116
-2576.3677 2590.6296 612.1741 0.740 -0.416 0.529 124 64 38
-2556.6790 2602.6763 595.0720 0.716 -0.519 0.466 144 75 39
-2545.9575 2599.2678 589.5777 0.643 -0.551 0.532 145 73 36
-2588.6143 2698.5696 578.5914 0.550 -0.595 0.586 150 76 35
-2293.1689 2657.4910 406.9452 -0.194 -0.629 -0.753 117 49 22
-2281.3201 2696.6929 384.4125 -0.207 -0.562 -0.801 119 53 25
-2322.2422 2795.9653 372.3372 -0.434 -0.444 -0.784 194 130 103
-2810.9224 3488.8740 416.8352 0.648 -0.588 0.484 126 85 67
-2801.0186 3487.5288 411.0692 0.613 -0.678 0.406 172 129 112
-2787.2314 3480.9924 404.8288 0.799 -0.585 -0.140 218 175 158
-2781.4250 3485.0244 399.6017 0.805 -0.575 -0.146 210 170 154
-2776.3066 3489.9775 394.4579 0.801 -0.577 -0.157 201 171 159
-2770.8623 3494.5007 389.2721 0.803 -0.576 -0.154 204 176 165
-2499.0969 3341.3621 275.5728 0.520 -0.732 -0.441 42 17 10
-2351.8149 3585.0562 88.8058 0.760 -0.115 -0.640 34 37 36
-4444.5083 2632.0737 1770.3157 0.163 -0.983 -0.085 11 55 68
-4420.7344 2664.3989 1742.8209 -0.090 -0.877 0.472 2 33 42
-4406.5264 2663.1250 1734.3175 0.315 -0.829 0.463 4 27 33
-4433.8633 2897.9446 1661.2167 0.530 -0.756 0.384 50 42 31
-4442.9810 2913.0388 1661.1769 0.625 -0.675 0.393 34 26 15
-4416.4253 2903.0120 1648.2272 -0.216 -0.954 0.207 18 10 2
-4412.6450 2909.0281 1643.5177 -0.194 -0.966 0.171 14 6 0
-4394.5503 2904.8938 1633.6550 -0.132 -0.991 0.023 27 18 9
-4378.6895 2902.3035 1624.6119 -0.124 -0.992 0.022 27 20 13
-4359.2031 2897.0879 1614.2847 0.589 -0.254 -0.767 22 20 15
-4352.6338 2901.0669 1608.5942 0.635 -0.207 -0.744 45 50 51
-3681.3491 2675.1753 1270.6232 0.530 -0.801 0.280 122 180 228
-3677.8655 2713.2876 1253.7445 0.109 -0.953 -0.284 59 41 28
-3614.2710 2678.8762 1226.7362 0.172 -0.983 -0.068 68 37 19
-3597.0481 2747.4109 1189.4478 0.335 -0.533 -0.777 144 180 206
-3691.6208 2833.9209 1216.0082 0.122 0.017 -0.992 141 180 209
-3850.0637 2973.8174 1262.4460 0.637 -0.126 -0.761 144 180 206
-3936.7073 3139.2615 1253.5975 0.478 -0.867 0.137 156 140 127
-3744.5217 3039.5537 1170.3269 0.736 -0.307 -0.604 136 119 102
-3790.6936 3098.5190 1176.8531 -0.329 -0.525 -0.784 139 121 101
-3892.7795 3236.6726 1188.2867 -0.258 -0.966 0.036 143 125 105
-2606.5083 2559.7559 634.6592 -0.491 -0.617 -0.616 72 34 26
-2560.5493 2568.1321 602.3411 0.666 -0.659 0.349 95 46 28
-2544.8438 2592.6924 582.9434 0.479 -0.076 -0.874 124 60 29
-2293.5452 2634.3120 407.8416 0.511 -0.691 -0.512 121 47 22
-2854.8337 3503.4375 428.5368 -0.429 -0.860 0.275 164 119 99
-2810.6689 3480.6990 409.3339 0.281 -0.746 0.604 117 76 56
-2794.6411 3471.2483 402.8263 0.639 -0.428 0.639 135 92 73
-2783.2900 3467.9121 396.9253 0.612 -0.428 0.665 175 133 113
-2778.2451 3472.9150 391.8055 0.649 -0.418 0.636 207 168 150
-2733.5144 3519.2222 345.6616 0.311 -0.415 0.855 60 26 17
-2520.9373 3352.8889 275.1336 0.765 -0.045 -0.642 55 24 18
-2510.6370 3349.8660 269.7771 0.510 -0.813 -0.281 43 18 10
-1655.6500 4429.0342 -686.9314 -0.518 -0.543 -0.661 64 50 39
-4383.7915 2550.5491 1752.6818 0.088 -0.823 0.562 7 55 75
-4396.6572 2566.3645 1754.6910 0.228 -0.950 0.214 5 55 78
-4374.7852 2560.2185 1743.2501 0.235 -0.936 0.263 7 55 76
-4435.1055 2606.2830 1763.5382 0.191 -0.963 0.189 9 54 72
-4379.2598 2657.0708 1708.6034 0.253 -0.861 0.442 3 19 18
-4462.2163 2869.9819 1678.6376 0.946 -0.263 -0.190 87 85 79
-4428.8462 2907.0933 1643.1952 -0.016 -0.864 0.503 26 19 9
-4418.9351 2908.7854 1636.2783 -0.094 -0.900 0.425 16 8 1
-4396.5918 2901.6521 1624.9215 -0.106 -0.994 0.014 26 19 9
-4382.0254 2899.9839 1616.3638 -0.106 -0.994 0.014 19 16 10
-4364.3071 2896.0371 1606.6964 0.734 -0.327 -0.595 17 20 17
-4350.2808 2894.6841 1598.3579 0.734 -0.338 -0.589 75 83 88
-3690.3792 2677.6987 1265.3793 0.513 -0.824 0.239 124 179 224
-3674.5552 2722.4724 1238.0577 0.208 -0.873 -0.442 68 37 20
-3605.2825 2749.4006 1183.8716 0.330 -0.532 -0.780 146 181 206
-3858.7068 2975.8025 1256.3895 0.630 -0.130 -0.766 144 180 205
-3874.8545 3034.7659 1243.7780 0.211 -0.663 -0.718 105 109 107
-3962.0537 3155.3179 1252.2279 -0.224 -0.646 -0.730 150 133 119
-3939.0046 3183.5972 1226.7234 -0.541 -0.470 -0.697 139 121 107
-3837.4661 3114.8328 1189.1763 0.567 -0.737 -0.368 132 113 97
-3013.0806 2717.3848 822.0988 -0.527 -0.525 -0.669 140 114 103
-3002.1306 2732.3096 809.4060 -0.560 -0.504 -0.657 139 115 107
-2938.7832 2695.3813 783.6703 -0.648 -0.630 -0.429 135 111 103
-2609.6724 2574.4700 622.5168 -0.472 -0.712 -0.520 73 36 26
-2557.6414 2559.7429 595.3411 -0.502 -0.618 -0.605 78 37 27
-2571.4358 2583.0569 595.0360 -0.450 -0.531 -0.718 76 33 20
-2461.1030 2611.6501 514.2633 -0.142 -0.689 0.711 142 69 30
-2296.9021 2632.6748 402.3844 0.490 -0.717 -0.497 130 53 30
-2342.2773 2716.2104 398.7318 0.237 -0.471 -0.850 136 60 36
-2319.4705 2696.6624 391.8856 0.105 -0.519 -0.848 136 59 36
-2793.4033 3461.8120 395.2732 0.639 -0.428 0.639 111 72 53
-2772.3369 3457.2363 383.7335 0.582 -0.443 0.682 175 136 120
-2764.1560 3458.0217 378.2609 0.585 -0.444 0.679 201 170 157
-2759.0928 3474.6697 368.6206 0.426 -0.671 0.607 204 175 167
-2756.7563 3554.9441 336.0850 0.823 -0.182 0.539 55 21 12
-2524.0427 3349.3765 268.5912 0.661 0.005 -0.751 55 24 18
-2501.8025 3329.4084 262.2654 -0.046 -0.786 -0.616 43 18 8
-1883.7462 4642.0225 -636.1014 -0.473 -0.472 -0.743 207 158 155
-4407.3057 2553.7312 1755.6993 0.118 -0.841 0.528 8 52 71
-4394.3594 2553.2627 1747.7177 0.116 -0.845 0.522 12 54 74
-4399.1108 2563.9456 1746.5599 0.228 -0.950 0.214 10 54 76
-4376.6235 2557.4182 1734.9175 0.235 -0.936 0.263 13 53 72
-4444.9346 2608.4890 1758.1367 0.330 -0.908 0.259 15 50 64
-4456.0669 2623.4141 1759.3535 0.241 -0.957 0.160 16 46 56
-4629.5703 2791.6741 1803.3405 0.741 -0.652 0.160 3 18 19
-4664.1489 2830.9683 1809.8669 0.752 -0.651 0.103 5 14 11
-4463.7998 2866.4976 1669.7119 0.948 -0.250 -0.196 91 87 76
-4432.7139 2905.1411 1635.0833 0.584 -0.656 0.478 45 38 27
-4421.2505 2905.7371 1627.6228 0.132 -0.759 0.638 28 20 9
-4403.4741 2901.8455 1617.9261 0.125 -0.763 0.634 16 13 4
-4383.3716 2896.2583 1607.4221 0.106 -0.740 0.665 7 9 6
-4364.5811 2891.5508 1597.4032 0.480 -0.772 0.417 12 22 25
-4345.3213 2886.4592 1587.2377 0.830 -0.389 0.399 91 105 114
-3699.4163 2680.2190 1260.1217 0.597 -0.632 -0.493 123 176 215
-3636.6538 2687.5459 1217.6947 0.187 -0.625 -0.758 66 36 20
-3567.8652 2681.0806 1176.8306 -0.110 -0.880 -0.463 66 36 14
-3614.0793 2751.8450 1178.4579 0.320 -0.532 -0.784 140 171 197
-3982.2134 3166.9141 1249.2126 -0.210 -0.648 -0.732 148 128 111
-2978.3875 2712.2976 792.9673 -0.519 -0.469 -0.714 132 115 109
-3008.7156 2759.3945 793.7795 -0.610 -0.575 -0.546 111 95 89
-2632.8362 2577.4282 627.5035 0.036 -0.503 -0.863 139 109 110
-2616.2607 2568.0581 620.6945 0.249 -0.729 -0.637 141 108 107
-2613.8813 2573.7781 616.9700 -0.092 -0.769 -0.632 137 102 98
-2608.4763 2576.2720 612.5918 -0.088 -0.763 -0.640 136 97 92
-2602.9670 2578.6506 608.1928 -0.085 -0.764 -0.640 128 90 83
-2603.1143 2587.1216 604.9919 -0.420 -0.685 -0.595 119 81 76
-2589.4761 2580.7224 598.8798 -0.486 -0.757 -0.437 97 59 56
-2584.1729 2583.3040 594.5318 -0.501 -0.628 -0.595 90 52 49
-2312.9153 2718.7991 370.7922 0.107 -0.214 -0.971 182 119 94
-2315.8660 2731.7388 367.6215 0.107 -0.214 -0.971 209 146 121
-2811.7808 3466.5710 394.6216 0.289 -0.744 0.603 117 80 64
-2764.6833 3450.9133 371.0101 0.592 -0.446 0.672 179 150 139
-2753.9341 3459.8982 360.7381 0.625 -0.445 0.641 201 174 167
-2717.5735 3493.2200 324.8526 0.363 -0.409 0.837 54 21 12
-2513.1211 3337.5850 256.4402 -0.046 -0.782 -0.621 43 18 8
-2493.5752 3321.3718 250.4186 -0.055 -0.802 -0.595 31 15 5
-2330.3872 3410.5166 112.8502 0.194 -0.143 -0.971 25 30 36
-2379.3752 3628.1013 59.1389 0.496 -0.224 -0.839 39 30 35
-1734.0494 4570.2871 -714.1531 0.106 -0.959 0.264 32 25 9
-4445.8682 2581.7119 1758.4423 0.675 -0.656 0.338 18 48 68
-4442.2124 2594.9360 1750.9742 0.523 -0.641 0.561 19 48 63
-4466.9189 2618.3958 1757.3577 0.674 -0.625 0.393 16 38 47
-4485.0093 2637.7571 1761.1781 0.128 -0.983 0.135 14 29 33
-4517.0171 2881.3750 1686.1326 0.960 -0.278 0.031 80 74 57
-4415.6157 2897.0942 1616.1693 0.132 -0.759 0.638 43 38 25
-4406.5142 2899.3218 1609.5704 0.138 -0.758 0.638 20 19 11
-4387.3950 2894.4397 1599.4446 0.075 -0.788 0.610 4 9 9
-4369.7168 2890.5320 1589.8452 0.526 -0.662 0.534 31 45 52
-4353.6221 2887.7078 1580.8188 0.801 -0.384 0.460 128 147 159
-3738.2302 2706.0017 1264.4965 0.535 -0.778 0.330 125 173 209
-3655.6125 2698.0496 1215.6049 0.363 -0.654 -0.664 62 35 18
-3577.0010 2683.8503 1171.6757 -0.102 -0.908 -0.406 58 24 5
-3623.0220 2754.3999 1173.0743 0.320 -0.532 -0.784 140 168 194
-3999.1233 3175.7146 1245.1647 -0.197 -0.653 -0.731 146 122 102
-4013.8430 3197.8484 1245.7806 -0.432 -0.536 -0.725 145 123 103
-3512.1084 3375.0046 860.7716 0.782 -0.003 -0.623 159 140 136
-2634.3311 2582.1094 618.1218 0.039 -0.962 0.272 146 111 114
-2625.5315 2581.0217 613.0085 0.039 -0.962 0.272 168 131 131
-2619.7900 2583.1792 608.5518 0.041 -0.971 0.234 175 136 136
-2613.0942 2584.3079 603.8966 0.197 -0.979 -0.054 181 142 141
-2606.2778 2585.2949 599.2207 -0.080 -0.886 -0.457 183 146 145
-2603.2590 2590.3672 595.3388 -0.322 -0.784 -0.530 174 137 138
-2596.3755 2591.2688 590.6541 -0.329 -0.782 -0.529 167 131 132
-2612.4514 2617.0784 590.6873 -0.372 -0.499 -0.783 160 122 124
-2420.6140 2630.9333 464.5330 0.963 -0.198 0.185 100 46 31
-3003.6125 3648.6328 433.8115 -0.663 -0.748 0.030 201 155 131
-2763.3933 3441.4258 363.5837 0.592 -0.446 0.672 105 79 69
-2700.6958 3438.7539 325.1664 0.412 -0.378 0.829 66 42 35
-2523.9160 3344.9836 250.5425 -0.033 -0.794 -0.607 44 19 9
-2504.2427 3328.6592 244.5389 -0.058 -0.818 -0.572 32 16 4
-2387.3577 3618.5525 57.6997 0.506 -0.227 -0.832 35 35 37
-4514.6875 2605.2913 1781.7330 0.247 -0.683 0.688 7 34 48
-4474.5747 2587.9915 1763.3276 0.641 -0.692 0.330 9 34 50
-4459.3442 2586.1980 1754.4645 0.712 -0.620 0.330 11 35 50
-4451.3931 2596.7285 1745.3348 0.517 -0.629 0.580 12 36 48
-4472.1562 2617.6694 1750.1556 0.642 -0.612 0.463 11 28 36
-4905.2061 2952.6716 1890.6521 0.270 -0.834 0.481 5 13 13
-4416.7959 2653.1943 1701.4303 0.019 -0.774 -0.633 10 12 7
-4382.4194 2670.5522 1673.0199 0.149 -0.726 -0.671 19 20 15
-4521.1792 2879.6521 1678.0839 0.960 -0.277 0.029 100 95 75
-4494.9810 2870.2668 1665.3118 0.955 -0.217 -0.201 112 107 87
-4469.1372 2912.6885 1632.4204 0.087 -0.798 0.596 95 91 79
-4418.7471 2894.6450 1607.8511 -0.010 -0.808 0.589 57 53 38
-4403.9287 2892.8354 1599.2529 0.126 -0.767 0.629 30 29 19
-4382.5020 2886.3167 1588.3524 0.075 -0.788 0.610 12 20 17
-4367.5781 2884.3533 1579.7484 0.476 -0.657 0.585 29 43 48
-4299.9336 2896.3025 1532.5637 0.629 -0.522 0.577 110 163 193
-4282.1646 2892.0754 1523.0610 0.655 -0.499 0.568 101 159 189
-4280.1479 2899.2642 1518.9717 0.603 -0.521 0.604 98 160 190
-4231.2476 2880.8667 1495.4771 0.627 -0.599 0.498 98 158 188
-4237.5410 2894.1138 1494.2291 0.654 -0.645 0.394 98 156 185
-4209.8687 2908.4126 1471.2313 0.619 -0.607 0.498 96 157 188
-4204.0088 2912.7683 1465.8397 0.583 -0.598 0.551 96 157 188
-4196.2388 2915.7014 1459.8074 0.537 -0.643 0.546 95 156 189
-4186.1885 2916.9221 1453.0146 0.538 -0.638 0.552 96 157 190
-4139.8545 2925.7625 1420.4374 0.785 -0.378 0.491 103 164 199
-4148.9917 2941.4956 1419.9995 0.488 -0.521 0.701 103 164 199
-4132.3496 2937.6255 1411.0649 0.496 -0.516 0.698 103 164 200
-3720.6814 2712.2080 1240.9717 0.174 -0.918 -0.356 134 168 185
-3714.2878 2715.3755 1235.7117 0.282 -0.883 -0.375 57 77 87
-3683.0708 2715.2827 1216.1379 0.396 -0.758 -0.518 62 35 19
-4031.3420 3207.1155 1241.7988 -0.260 -0.877 -0.404 139 117 96
-4053.7468 3245.6785 1240.7317 -0.502 -0.545 -0.671 136 115 96
-4117.7197 3340.3943 1243.7283 0.391 -0.489 -0.780 134 111 94
-3060.6294 2534.6584 896.0529 0.649 -0.189 -0.737 145 122 104
-3252.1101 2924.4138 863.3010 -0.587 -0.809 -0.038 134 103 100
-3197.8469 2880.9417 846.2831 -0.600 -0.799 -0.036 131 109 108
-3326.2932 3024.1106 870.7559 -0.538 -0.451 -0.712 106 101 99
-3574.3484 3337.3975 903.5684 -0.278 -0.749 0.602 39 45 41
-2662.4514 2598.4441 620.8790 0.445 -0.877 -0.180 149 107 113
-2647.7854 2591.2100 614.5065 0.016 -0.953 0.304 150 109 115
-2632.1475 2582.8799 607.9537 0.070 -0.950 0.304 165 125 130
-2627.2732 2585.9712 603.6781 0.054 -0.975 0.218 170 131 135
-2618.3833 2584.7634 598.5678 0.717 -0.688 -0.110 175 136 139
-2609.2961 2583.3184 593.4269 0.636 -0.768 0.069 180 140 144
-2634.0393 2635.1621 588.6137 0.109 -0.275 -0.955 174 139 142
-2643.9963 2680.2271 577.1739 -0.153 -0.300 -0.942 70 42 36
-2403.4124 2631.0066 445.3696 0.945 0.002 0.328 94 42 26
-2348.5164 2600.0925 423.0232 0.909 -0.242 0.338 106 51 23
-2821.2791 3451.9504 385.5243 -0.550 -0.827 -0.121 107 80 68
-2692.1323 3419.3250 317.2069 0.358 -0.414 0.837 101 77 71
-2536.5669 3354.9656 244.7540 -0.040 -0.799 -0.601 45 20 8
-2391.1604 3615.4268 51.1428 0.971 -0.162 -0.178 35 35 39
-1862.0388 4578.6304 -659.4421 0.613 -0.254 0.748 185 126 120
-1753.0824 4588.2573 -731.6666 0.768 -0.589 0.251 34 29 17
-1737.6641 4589.5332 -741.8531 -0.423 -0.544 -0.724 36 32 27
-4479.4067 2579.2961 1759.0725 0.668 -0.125 -0.733 4 27 39
-4474.2925 2583.8394 1754.0734 0.641 -0.692 0.330 2 24 36
-4461.8818 2583.8113 1746.3033 0.729 -0.602 0.326 1 21 32
-4476.2803 2616.2400 1742.5359 -0.509 -0.842 -0.179 5 18 24
-4442.5479 2665.7568 1701.8495 0.483 -0.474 -0.736 8 10 5
-4442.7661 2673.8811 1698.7810 0.057 -0.754 -0.655 10 11 5
-4457.6558 2748.4556 1678.6929 0.821 -0.453 -0.348 62 58 47
-4406.3433 2722.4719 1656.7729 -0.179 -0.570 -0.802 68 64 53
-4546.0708 2918.0420 1667.2158 -0.537 -0.654 -0.533 105 100 81
-4451.1768 2886.8652 1620.0204 0.989 -0.144 0.040 99 97 84
-4453.6997 2897.2434 1617.5074 0.496 -0.757 0.425 96 92 80
-4433.0239 2891.4021 1606.8489 0.427 -0.784 0.452 82 78 66
-4409.5747 2883.5571 1595.2423 0.108 -0.793 0.599 55 49 37
-4398.5596 2884.4058 1588.0010 0.133 -0.766 0.630 19 18 8
-4377.1519 2877.8940 1577.1482 0.075 -0.787 0.612 6 10 7
-4364.3311 2877.4072 1569.3019 0.476 -0.657 0.585 11 22 23
-4232.3691 2885.5916 1483.3358 0.598 -0.654 0.464 106 154 181
-3810.8367 2761.7234 1267.9178 -0.355 -0.912 -0.207 129 168 195
-3778.7327 2744.9121 1254.4224 -0.402 -0.908 0.120 144 180 202
-3750.9785 2731.4026 1242.3513 -0.385 -0.920 0.068 136 168 183
-3726.4465 2720.3352 1231.3370 -0.385 -0.920 0.068 58 77 86
-3704.4187 2711.1633 1221.1449 -0.360 -0.907 0.221 49 38 29
-3697.3542 2721.9927 1212.4430 0.608 -0.777 -0.167 63 35 18
-3583.5576 2679.8945 1157.7051 0.152 -0.962 -0.225 73 40 18
-3750.7861 2849.2749 1195.7238 0.053 0.020 -0.998 152 178 203
-3774.2219 2877.1121 1199.4342 0.122 0.046 -0.991 129 160 188
-4026.2078 3226.2446 1219.6718 -0.353 -0.930 0.106 130 109 90
-4108.6621 3316.6917 1235.6824 0.624 0.016 -0.781 130 109 92
-4352.0908 3536.6301 1301.5287 0.649 -0.223 -0.727 133 112 93
-3468.0569 3255.7388 858.0875 0.623 -0.603 -0.499 34 43 38
-2643.4983 2598.0657 600.5965 0.170 -0.917 -0.362 163 124 127
-2636.6992 2599.1367 595.9110 0.372 -0.582 -0.724 169 130 133
-2623.3308 2593.1550 589.8895 0.462 -0.675 -0.575 174 133 137
-2617.1260 2594.8198 585.3423 0.471 -0.676 -0.567 172 131 135
-2651.7725 2649.0088 585.6844 0.324 -0.117 -0.939 177 141 143
-2677.9875 2711.9731 577.2778 0.299 -0.121 -0.946 140 113 106
-2665.5405 2707.0474 571.4174 0.317 -0.690 -0.650 117 90 83
-2819.1472 3453.0188 373.3992 -0.497 -0.866 -0.058 102 74 62
-2480.5178 3290.8647 225.0652 -0.610 -0.760 0.225 22 11 1
-2336.2312 3418.3992 84.2819 0.642 -0.764 0.064 30 33 40
-1867.7965 4577.1138 -666.5905 0.619 -0.247 0.745 190 134 128
-1872.8190 4653.7363 -693.6733 0.965 -0.021 0.263 192 133 127
-4601.4214 2651.3176 1796.1804 0.592 -0.197 -0.782 3 19 28
-4569.6362 2663.1829 1771.5859 -0.323 -0.945 -0.056 1 14 19
-4520.2939 2639.9990 1749.9005 -0.437 -0.898 0.054 2 13 18
-4329.0098 2542.0002 1669.0529 -0.281 -0.935 0.216 4 12 14
-4425.5869 2642.7205 1689.5569 0.152 -0.984 -0.092 11 15 13
-4494.8989 2727.8760 1699.1697 -0.181 -0.658 -0.731 29 30 24
-4589.9819 2798.4351 1730.6963 0.873 -0.469 0.132 35 36 31
-4593.0352 2817.1687 1725.1798 0.823 -0.451 0.346 54 51 44
-4531.8911 2785.1016 1699.6309 0.628 -0.742 0.235 64 60 50
-4492.2295 2902.1682 1628.3998 0.055 -0.793 0.606 109 107 94
-4447.1162 2879.4321 1609.1831 0.105 -0.784 0.612 108 106 94
-4444.2495 2886.0210 1604.7770 0.108 -0.793 0.599 107 105 93
-4424.7349 2880.9768 1594.5653 0.108 -0.793 0.599 87 83 72
-4405.3359 2875.9626 1584.4137 0.108 -0.793 0.599 49 42 32
-4395.2935 2877.4805 1577.5277 0.140 -0.762 0.633 17 14 6
-4362.1660 2862.6980 1562.6581 0.070 -0.777 0.626 9 9 6
-4361.6040 2870.8489 1559.0748 0.360 -0.778 0.514 22 27 25
-3717.9353 2717.2126 1217.1962 -0.412 -0.892 0.185 50 37 27
-3731.8872 2736.4680 1218.2930 0.378 -0.834 0.402 62 34 15
-3702.5891 2721.5027 1205.8922 0.704 -0.694 -0.151 62 33 15
-3589.8093 2680.3237 1151.6436 0.152 -0.962 -0.225 73 38 12
-3634.2507 2724.4141 1161.9738 0.343 -0.821 -0.455 66 41 24
-3636.6819 2734.6499 1159.4371 0.386 -0.799 -0.461 45 41 40
-3650.2688 2753.9993 1160.2682 0.304 -0.428 -0.851 94 110 125
-3772.5046 2862.0818 1193.9097 0.121 0.043 -0.992 145 172 196
-3795.5042 2889.5603 1197.4081 0.122 0.046 -0.991 135 165 192
-4096.7266 3300.6321 1222.9316 0.635 0.028 -0.772 135 114 95
-3458.6074 3074.0378 913.4506 -0.580 -0.803 -0.137 128 103 98
