ply
format ascii 1.0
element vertex 789
property float x
property float y
property float z
property float nx
property float ny
property float nz
property uchar diffuse_red
property uchar diffuse_green
property uchar diffuse_blue
end_header
-3247.1353 2894.9299 292.2684 -0.154 -0.863 0.481 110 74 58
-3224.5288 2885.6594 286.8496 -0.117 -0.840 0.529 110 74 58
-3200.6846 2875.2405 281.3405 0.497 -0.837 -0.227 110 74 58
-3228.3403 2908.0645 281.0475 0.693 -0.241 -0.679 99 63 47
-3208.8062 2901.2112 275.9922 -0.007 -0.991 -0.135 99 63 47
-3197.6418 2901.3652 271.7913 -0.000 -0.991 -0.131 99 63 47
-3176.5195 2902.5837 263.5446 -0.210 -0.961 -0.179 81 49 34
-2810.5974 2764.3064 172.0354 0.903 0.426 0.053 106 51 30
-2646.7681 2815.4841 94.6271 0.682 0.315 -0.659 172 115 95
-2716.8862 2923.2092 85.9891 0.728 0.123 -0.674 250 189 171
-2720.1841 3013.3206 58.1801 0.993 -0.018 0.114 160 69 59
-2743.1438 3057.1682 52.5891 0.996 -0.021 0.091 174 88 81
-2704.9348 3046.4282 41.8420 0.948 0.123 0.293 188 121 105
-2706.0056 3057.4880 38.6766 0.980 0.116 0.159 186 126 110
-2830.9275 3275.5649 14.8597 0.775 0.465 -0.428 149 100 106
-2784.9731 3343.0127 -23.9605 0.952 -0.235 -0.199 143 102 110
-2818.5823 3392.5850 -27.4362 0.970 -0.193 -0.147 143 102 110
-2694.8196 3314.7112 -48.3640 0.002 -0.993 -0.116 112 85 85
-2714.3533 3348.5784 -52.0131 0.171 -0.968 -0.186 105 81 79
-2718.0991 3363.9836 -55.5840 -0.009 -0.962 -0.272 98 75 73
-2726.9250 3385.4875 -59.2312 0.217 -0.950 0.224 92 69 67
-2601.9282 3399.9412 -110.3670 0.919 -0.076 0.388 24 17 19
-2631.1099 3447.7820 -114.9311 0.878 -0.443 0.181 22 15 17
-2555.4548 3419.3679 -133.9072 -0.029 -0.988 0.150 43 35 43
-2512.9961 3420.5667 -150.0813 0.758 0.265 -0.596 50 41 50
-2585.1262 3743.1902 -227.2146 0.735 0.087 -0.672 218 187 185
-2365.1089 3862.0132 -347.3122 0.444 -0.892 -0.087 227 197 199
-1733.7998 4562.8794 -807.8872 0.880 -0.430 0.201 171 165 162
-2641.3743 2040.7341 335.3908 0.855 -0.316 0.410 97 68 62
-2635.9341 2043.6683 332.4276 0.844 -0.330 0.423 129 98 93
-2633.3699 2048.6045 329.8808 0.839 -0.318 0.441 150 121 115
-2632.2461 2054.5576 327.5380 0.802 -0.301 0.516 156 127 121
-2629.4988 2059.3796 324.9604 0.801 -0.301 0.517 156 127 121
-2627.8894 2065.0115 322.5419 0.681 -0.236 0.693 156 127 121
-2678.6167 2265.3254 276.4816 0.794 -0.584 -0.170 145 91 79
-2682.8408 2290.8992 269.7675 0.976 -0.216 -0.024 138 86 72
-3247.0334 2861.5317 293.8951 -0.068 -0.768 -0.637 115 74 56
-3254.4136 2896.3154 285.3681 -0.148 -0.869 0.472 114 78 62
-3228.6975 2884.4917 279.6768 0.012 -0.903 0.429 114 78 62
-3212.7163 2880.6909 274.9919 0.341 -0.775 -0.532 114 78 62
-3236.1567 2909.9529 274.1967 0.685 -0.249 -0.684 103 67 51
-3212.2239 2899.4277 268.7451 0.052 -0.978 -0.204 103 67 51
-3193.1436 2892.8921 263.7983 -0.006 -0.990 -0.142 103 67 51
-3176.3481 2888.2087 259.0977 0.124 -0.924 -0.361 102 68 51
-3024.7163 2795.8938 232.8538 0.708 0.103 -0.699 79 50 34
-2666.2659 2830.4771 88.9865 0.601 0.198 -0.774 169 112 93
-2713.9517 2906.1633 82.1390 0.853 0.189 -0.486 255 206 188
-2721.7729 2923.5171 79.4170 0.857 -0.015 -0.516 236 175 157
-2695.3777 3051.1707 28.3294 0.975 0.158 0.156 173 119 105
-2732.9150 3101.4629 25.9451 0.347 -0.545 -0.763 166 116 116
-2733.9678 3112.7065 22.6954 0.289 -0.569 -0.770 162 111 116
-2895.5322 3341.2961 8.5074 0.718 0.415 -0.558 149 100 106
-3024.4341 3505.8938 2.9424 0.775 0.431 -0.463 151 110 119
-2789.8093 3354.1279 -34.7772 0.995 0.091 0.028 152 111 119
-2757.7058 3350.0178 -45.3293 -0.225 -0.973 0.043 154 113 121
-2745.7585 3347.0986 -48.8065 -0.225 -0.973 0.043 146 106 114
-2733.7075 3343.9980 -52.2634 -0.077 -0.994 -0.080 141 102 108
-2721.6167 3340.7891 -55.6999 -0.069 -0.993 -0.091 125 93 95
-2728.4727 3359.7993 -59.3154 -0.085 -0.977 -0.196 118 88 88
-2721.8647 3363.0164 -62.8025 0.097 -0.994 0.059 112 82 82
-2644.6370 3347.5916 -86.3943 0.282 -0.790 0.544 11 8 3
-2639.9507 3363.8699 -93.3977 0.823 -0.377 0.424 12 8 5
-2601.3811 3382.6575 -113.7545 0.895 -0.277 0.350 31 18 23
-2620.9031 3429.4021 -121.6587 0.841 -0.435 0.322 29 16 21
-2616.9912 3435.7568 -125.1634 0.218 -0.971 0.095 23 10 14
-2533.1672 3418.7839 -150.6957 0.060 -0.998 0.034 58 44 54
-2537.5518 3458.4224 -161.9026 0.748 0.257 -0.612 59 42 52
-2565.6677 3588.7839 -193.6904 0.651 -0.491 0.579 141 108 118
-2545.9771 3574.0476 -196.2089 0.712 -0.410 0.570 183 142 153
-2562.1409 3607.8342 -201.1619 -0.232 -0.970 0.078 185 143 153
-2504.0137 3575.9504 -212.3567 -0.036 -0.999 0.032 208 168 177
-1787.8621 4569.3604 -798.9651 -0.040 -0.756 0.654 213 191 194
-1755.8320 4611.9199 -824.5958 0.999 0.049 0.011 201 189 187
-1758.4437 4637.0527 -831.7639 0.965 0.174 0.197 194 182 181
-2638.6533 2035.6091 329.1889 0.853 -0.185 0.488 75 46 40
-2634.0667 2039.1270 326.3553 0.843 -0.186 0.504 90 61 55
-2629.7959 2042.8602 323.5680 0.843 -0.138 0.519 101 72 66
-2627.4890 2047.9663 321.0580 0.809 -0.277 0.519 145 116 110
-2618.5183 2048.3906 317.6151 0.497 -0.517 0.697 151 124 117
-2608.9402 2048.3569 314.0972 0.491 -0.523 0.697 156 127 121
-2598.9456 2047.9957 310.5324 0.487 -0.528 0.696 162 130 124
-3066.9426 2638.4331 290.9854 0.190 -0.843 -0.503 141 89 75
-3245.6897 2913.2656 267.4841 0.692 -0.241 -0.681 110 74 58
-3234.4700 2913.4961 263.2756 -0.060 -0.988 -0.140 110 74 58
-3090.8921 2867.2207 225.4236 0.796 -0.553 -0.244 84 55 39
-2725.7673 2922.9146 72.7956 0.857 -0.015 -0.516 234 172 154
-2858.0005 3127.0232 55.1519 0.982 0.148 0.121 169 83 68
-2700.4924 3051.7874 21.5836 0.990 0.128 0.059 169 116 101
-2684.3577 3114.4402 -4.7310 0.818 -0.259 -0.513 156 108 117
-2681.5837 3131.6902 -11.3615 0.672 -0.587 -0.451 155 115 124
-2673.2351 3132.6064 -14.7352 0.512 -0.853 -0.106 155 115 124
-2740.1604 3335.2185 -55.9532 -0.115 -0.912 0.394 168 127 135
-2735.8657 3341.1399 -59.4607 -0.136 -0.924 0.358 165 124 131
-2728.9934 3344.0493 -62.9385 -0.305 -0.943 0.131 142 103 107
-2719.9148 3366.3088 -73.5206 0.088 -0.978 0.187 141 102 105
-2644.4890 3375.0073 -104.1372 0.162 -0.593 0.789 19 18 14
-2634.7771 3374.1802 -107.4464 0.159 -0.592 0.790 26 22 19
-2596.8562 3371.5735 -120.5698 0.838 -0.335 0.430 84 65 72
-2581.2661 3363.1902 -123.5880 0.960 -0.098 0.264 85 66 72
-2580.7234 3384.6262 -130.7574 0.301 -0.931 0.204 63 42 49
-2578.0325 3587.6697 -197.7640 0.715 -0.457 0.529 139 103 115
-2564.7595 3581.7007 -200.7133 0.651 -0.491 0.579 189 151 163
-2558.5125 3585.1345 -204.1313 0.650 -0.494 0.577 193 153 163
-2575.5439 3620.0955 -209.2233 0.069 -0.986 -0.150 193 153 162
-2549.6931 3596.9543 -211.2235 0.021 -0.983 -0.180 193 153 162
-2564.9802 3629.7502 -216.2543 0.171 -0.984 -0.041 197 157 166
-2553.6680 3626.3101 -219.3034 0.009 -0.992 -0.125 207 167 176
-2515.1934 3585.4661 -220.1988 -0.033 -0.999 -0.012 205 165 174
-1783.9270 4550.3374 -803.3211 0.022 -0.781 0.624 221 199 202
-1733.6715 4526.6250 -814.1267 0.958 0.085 0.275 223 203 204
-1733.3334 4543.5464 -819.7530 0.954 0.103 0.283 222 202 203
-1760.3737 4669.6641 -850.7950 0.480 -0.634 -0.607 217 197 198
-2629.4680 2039.3926 317.7320 0.736 -0.524 0.429 91 62 56
-2626.5605 2044.0708 315.1380 0.735 -0.521 0.434 103 76 69
-2615.4448 2042.9882 311.4153 0.497 -0.517 0.697 118 91 84
-2612.2354 2047.4387 308.7848 0.503 -0.509 0.699 140 111 105
-2614.7043 2055.9099 306.9237 0.868 -0.197 0.456 159 127 121
-3087.2971 2650.3870 286.0836 0.067 -0.767 -0.639 141 89 75
-2960.5132 2652.2671 238.9760 0.536 -0.737 -0.412 115 79 63
-2959.4478 2660.1067 236.0250 0.543 -0.729 -0.417 115 79 63
-3214.5320 2892.0474 253.8201 0.089 -0.959 -0.268 110 74 58
-2676.4504 2786.1946 91.0673 -0.122 -0.739 -0.663 138 73 43
-2689.8640 2844.9819 76.7871 0.675 0.254 -0.692 207 152 137
-2716.6418 2899.6609 68.7496 0.939 0.181 -0.294 244 189 169
-2791.1965 3043.0566 49.2592 0.914 0.147 0.378 175 84 71
-2862.8630 3127.0598 48.1062 0.973 0.140 0.182 183 90 78
-2863.0664 3137.4905 44.7744 0.975 0.137 0.176 188 95 85
-2874.7004 3159.8582 41.7358 0.973 0.106 0.203 198 106 98
-2677.2793 3132.1016 -21.5967 0.649 -0.562 -0.513 160 120 129
-2693.5515 3275.8247 -62.5672 -0.159 -0.980 -0.119 169 128 136
-2686.2883 3278.0874 -65.9697 -0.161 -0.980 -0.113 167 125 133
-2713.6113 3331.5884 -73.4225 -0.303 -0.945 0.120 154 111 116
-2720.8530 3384.0862 -87.9118 0.016 -0.440 0.898 131 87 92
-2663.0732 3370.0730 -104.5240 0.392 -0.705 0.590 16 12 9
-2639.9741 3364.0654 -111.0329 0.141 -0.677 0.722 14 10 7
-2635.7593 3369.9436 -114.4982 0.182 -0.577 0.796 31 27 24
-2626.1819 3369.2412 -117.7811 0.191 -0.581 0.791 95 90 87
-2595.9399 3364.9980 -127.4855 0.838 -0.335 0.430 127 102 111
-2586.2183 3363.9331 -130.7027 0.959 -0.115 0.261 128 101 110
-2579.6201 3377.7771 -137.6436 0.809 -0.364 0.461 121 93 102
-2552.4246 3455.2234 -172.9094 0.584 0.028 -0.812 158 129 143
-2570.2549 3547.8904 -196.6344 0.554 -0.251 0.794 119 77 91
-2571.8611 3585.3901 -208.2921 0.657 -0.461 0.596 187 145 157
-2571.7588 3597.1311 -212.1642 0.748 -0.438 0.498 197 158 167
-2583.1841 3624.5093 -216.9156 0.155 -0.988 -0.020 196 159 167
-2575.2852 3625.8132 -220.2381 0.155 -0.988 -0.020 198 158 167
-1754.1577 4465.4897 -795.5834 0.792 -0.538 -0.288 224 199 203
-1758.5842 4494.2021 -803.3370 0.758 -0.464 -0.458 222 200 203
-1766.9191 4533.1597 -813.0035 0.751 -0.471 -0.463 222 200 203
-1758.3723 4546.5176 -820.5003 0.572 -0.638 -0.515 223 201 204
-1749.1913 4558.2554 -827.7004 0.627 -0.620 -0.472 226 200 203
-1730.1195 4526.0977 -824.1922 0.956 0.094 0.277 227 199 203
-1734.3411 4573.0269 -837.9703 0.981 0.175 0.081 226 199 203
-1682.7457 4561.0840 -852.9909 0.330 -0.802 -0.497 223 199 199
-1678.9050 4568.8018 -856.9199 0.324 -0.801 -0.503 223 202 201
-1694.8896 4649.6875 -877.4741 0.364 -0.582 -0.727 224 203 202
-2819.7161 1483.8739 562.5650 0.429 -0.269 -0.862 57 47 38
-2634.3923 2039.5842 312.6248 0.335 -0.889 0.311 76 47 41
-2607.3806 2027.4371 306.7500 0.584 0.038 0.811 71 44 37
-2602.8843 2030.9480 303.9571 0.597 0.029 0.802 85 58 51
-2607.5774 2040.9203 302.3988 0.722 0.189 0.665 107 78 72
-2639.4963 2070.1687 304.4548 0.981 -0.191 0.028 126 94 88
-2960.4172 2656.6719 229.1965 0.695 -0.591 -0.409 116 79 63
-3222.2444 2903.4709 243.8053 0.057 -0.987 -0.153 111 74 58
-3222.1179 2912.9985 240.6337 -0.028 -0.931 -0.363 111 74 58
-3208.9517 2930.8281 229.9791 0.350 -0.638 -0.686 103 74 58
-3224.2432 2953.6567 228.0719 0.513 0.020 -0.858 103 74 58
-3233.5657 2981.3237 222.3987 -0.116 -0.972 -0.204 96 67 51
-2713.7288 2864.1519 71.0915 0.785 -0.169 0.596 242 189 172
-2709.0220 2868.7668 67.8596 0.927 0.239 -0.288 252 200 182
-2714.5232 2883.5769 65.0092 0.939 0.191 -0.287 247 196 177
-2825.6013 3073.5894 43.2218 0.928 0.047 0.369 191 97 85
-2859.3462 3118.4409 40.8258 0.746 0.126 0.654 198 103 91
-2698.3613 3029.9609 11.0902 0.989 0.113 0.090 174 114 99
-2681.7524 3267.5627 -72.9153 -0.149 -0.987 -0.067 169 126 134
-2732.7366 3337.6750 -77.3054 -0.261 -0.965 0.017 170 123 129
-2658.3916 3358.9900 -111.4340 0.826 -0.307 0.473 16 12 9
-2644.5854 3353.2644 -114.5951 0.816 -0.348 0.461 15 11 8
-2646.5608 3366.6614 -118.2690 0.187 -0.589 0.786 11 7 4
-2633.0833 3361.2458 -121.4118 0.182 -0.577 0.796 28 23 20
-2623.0261 3359.9443 -124.6558 0.182 -0.577 0.796 86 78 76
-2589.1416 3351.1509 -134.1392 0.593 -0.278 0.755 165 134 145
-2581.9468 3353.1975 -137.4368 0.954 -0.109 0.280 165 134 144
-2578.6799 3371.1475 -144.5176 0.809 -0.364 0.461 164 132 143
-2578.0791 3529.1201 -196.5583 -0.185 -0.898 -0.399 144 98 114
-2578.4836 3541.3157 -200.4113 0.229 -0.875 -0.426 129 83 99
-2563.5464 3533.2146 -203.2060 0.602 -0.436 0.669 148 102 118
-2571.9976 3591.5769 -219.2665 0.740 -0.448 0.501 205 164 174
-2589.3286 3626.8792 -224.5211 0.139 -0.988 -0.064 205 165 174
-2576.4348 3621.4399 -227.4432 0.145 -0.988 -0.048 205 165 174
-2556.0427 3605.7244 -229.7311 0.040 -0.992 0.123 209 169 178
-2083.3042 4668.5288 -750.9274 0.839 0.377 0.393 236 206 206
-2103.1047 4730.1929 -763.9284 0.834 0.379 0.400 234 204 204
-2091.0649 4720.8242 -765.2496 0.841 0.342 0.420 230 200 200
-1797.6339 4657.3613 -851.5358 0.650 -0.232 -0.724 227 199 204
-1768.8226 4636.7573 -855.2933 0.292 -0.606 -0.740 230 199 204
-2598.7532 2031.4926 295.4936 0.722 0.189 0.665 76 48 41
-2979.8203 2607.7983 244.0446 0.605 -0.281 -0.745 126 84 66
-2976.3984 2622.2363 238.0442 0.533 -0.420 -0.735 126 84 66
-2982.7056 2636.0474 235.7849 0.467 -0.353 -0.811 125 84 66
-3005.5181 2663.4946 235.0289 0.962 -0.267 -0.060 117 78 62
-3006.6284 2673.1965 232.2356 0.953 -0.287 -0.097 117 79 63
-3013.8198 2687.9692 229.9807 0.893 -0.362 -0.266 117 79 63
-2705.5798 2823.9641 73.1870 0.932 0.284 -0.225 149 88 64
-2712.4138 2839.8467 70.4366 0.757 -0.156 0.634 163 104 84
-2710.2673 2856.1899 64.2718 0.785 -0.169 0.596 254 211 191
-2710.2229 2865.4182 61.2150 0.927 0.239 -0.288 247 191 172
-2721.0181 2885.4866 58.5243 0.933 0.248 -0.261 206 147 127
-2824.6882 3067.7556 36.1307 0.854 -0.020 0.521 202 106 93
-2700.6626 3147.9988 -35.3677 0.235 -0.363 -0.902 172 131 139
-2684.5588 3140.3743 -38.7060 0.499 -0.482 -0.720 172 131 139
-2667.3638 3245.6426 -79.6385 -0.004 -0.963 -0.270 171 127 133
-2687.2317 3279.3647 -83.5318 0.307 -0.904 -0.297 182 132 137
-2650.3103 3246.9741 -86.2727 0.016 -0.936 -0.353 182 131 137
-2635.9832 3240.7920 -89.4408 -0.056 -0.994 0.096 182 131 137
-2661.4392 3346.2920 -114.9546 0.162 -0.788 0.595 18 12 8
-2657.0198 3351.9290 -118.4174 0.826 -0.307 0.473 16 12 8
-2647.5369 3351.4390 -121.7011 0.708 -0.405 0.578 16 11 8
-2644.0757 3358.2209 -125.1932 0.187 -0.589 0.786 14 10 7
-2630.4182 3352.5835 -128.2975 0.182 -0.577 0.796 18 12 9
-2620.3870 3351.3032 -131.5200 0.182 -0.577 0.796 54 45 43
-2612.5015 3352.6096 -134.8152 0.478 -0.297 0.826 149 135 136
-2586.0640 3341.9446 -140.9059 0.483 -0.291 0.826 177 144 155
-2570.1655 3333.1711 -143.7911 0.530 -0.752 0.391 177 144 154
-2567.2686 3351.4446 -150.8645 0.802 -0.355 0.480 167 131 143
-2588.7593 3422.9199 -166.6078 0.124 -0.984 0.132 186 148 164
-2582.9441 3426.7776 -169.9915 0.077 -0.993 0.089 185 148 164
-2603.2217 3544.7109 -201.4833 -0.201 -0.904 -0.378 154 107 122
-2586.3040 3534.1887 -204.1625 -0.185 -0.898 -0.399 125 78 93
-2584.4329 3543.3982 -207.8767 0.229 -0.875 -0.426 130 83 97
-2561.7664 3525.1057 -210.0842 0.602 -0.436 0.669 189 142 156
-2596.5923 3583.0232 -216.5155 0.218 -0.957 -0.191 193 146 159
-2558.2087 3602.7686 -236.9664 0.043 -0.993 0.110 214 172 182
-2535.4934 3583.7708 -238.9591 -0.079 -0.978 -0.191 223 181 191
-2985.7695 2608.4443 237.7164 0.532 -0.417 -0.737 139 89 72
-2978.1814 2619.5022 231.3130 0.281 -0.824 -0.491 139 89 72
-2990.0276 2637.8257 229.5323 0.464 -0.348 -0.815 139 89 73
-2990.2656 2646.7195 226.6749 0.466 -0.354 -0.811 124 77 61
-2999.3960 2662.9668 224.5992 0.252 -0.551 -0.795 124 77 61
-2993.2021 2675.4136 218.2403 0.229 -0.490 -0.841 124 77 61
-3022.6235 2708.7358 217.8509 0.269 -0.420 -0.867 131 84 68
-3009.7488 2706.9043 213.8016 0.483 -0.592 -0.646 131 84 68
-3026.1667 2747.6255 206.2614 0.635 -0.532 -0.559 123 82 64
-2970.6133 2718.4543 195.8280 0.589 -0.645 -0.487 122 82 65
-3089.3328 2904.3687 177.2273 0.147 -0.512 -0.846 101 67 50
-2689.0869 2776.2769 74.8934 0.103 -0.978 0.180 141 74 47
-2704.6526 2836.9133 60.4541 0.757 -0.156 0.634 209 136 113
-2701.1531 2842.6606 57.2865 0.755 -0.163 0.635 252 184 161
-2702.0508 2852.7754 54.2636 0.855 0.253 -0.452 211 139 116
-2824.1670 3082.3496 22.4419 0.784 0.165 -0.599 201 116 115
-2556.7607 3092.2886 -77.5397 0.295 -0.951 -0.092 181 135 138
-2609.3696 3163.0146 -81.9237 0.542 -0.831 0.124 181 135 138
-2612.6030 3177.0645 -85.4043 0.581 -0.800 0.147 182 136 138
-2639.9143 3240.1995 -96.4234 0.020 -0.954 -0.300 189 143 141
-2675.7854 3347.1506 -118.8484 -0.012 -0.912 0.410 51 34 29
-2656.9641 3346.4685 -125.4283 0.820 -0.311 0.481 25 13 9
-2649.5090 3348.4282 -128.7726 0.725 -0.387 0.570 15 4 3
-2644.4858 3353.3120 -132.2052 0.201 -0.573 0.794 23 13 9
-2627.5930 3343.7483 -135.1484 0.188 -0.582 0.791 30 18 15
-2616.3027 3340.9192 -138.2946 0.173 -0.581 0.795 21 10 8
-2606.2617 3339.5623 -141.4763 0.173 -0.581 0.795 109 93 92
-2578.5706 3327.3113 -147.4348 0.483 -0.300 0.823 175 147 152
-2566.3064 3323.0215 -150.4497 0.493 -0.286 0.822 176 144 151
-2571.2532 3340.0610 -154.3002 0.955 -0.109 0.275 185 146 155
-2637.5251 3560.2205 -203.1990 0.991 0.131 0.042 179 137 148
-2601.8586 3548.8474 -212.3318 -0.187 -0.897 -0.400 135 93 102
-2582.5791 3535.1899 -214.7833 -0.094 -0.995 0.046 187 145 154
-2594.6755 3574.6396 -223.4653 0.211 -0.958 -0.193 206 164 173
-2998.1118 2614.2405 231.9558 0.534 -0.422 -0.733 140 89 72
-3008.9038 2666.5315 218.4578 0.206 -0.609 -0.766 130 81 66
-2968.1353 2685.4351 197.5020 0.652 -0.107 -0.751 132 84 68
-3057.0212 2880.7874 164.5543 0.932 0.013 0.362 97 64 47
-2698.5037 2826.3804 53.6139 0.776 -0.208 0.596 207 131 108
-2705.9331 2842.8796 50.8032 0.881 0.198 -0.429 238 162 139
-2702.6479 2848.8525 47.6354 0.855 0.243 -0.458 204 128 105
-2754.1321 3005.2905 14.1628 0.546 -0.022 -0.837 195 111 115
-2611.6104 3160.5422 -88.7359 0.542 -0.831 0.124 186 140 142
-2693.3621 3297.4277 -104.8164 -0.174 -0.920 -0.351 188 143 140
-2684.0212 3329.7471 -118.9212 0.759 -0.384 0.527 137 92 91
-2676.7759 3332.0374 -122.2900 0.602 -0.631 0.489 117 78 76
-2675.7126 3341.6816 -125.8784 0.569 -0.609 0.553 62 44 39
-2669.1357 3344.7537 -129.2666 0.569 -0.609 0.553 25 12 6
-2653.9790 3337.4983 -132.3095 0.456 -0.610 0.648 28 15 9
-2645.5281 3338.2397 -135.5973 0.717 -0.389 0.578 16 5 2
-2629.5842 3340.7859 -142.1817 0.178 -0.600 0.780 27 13 10
-2616.1052 3335.3013 -145.2094 0.180 -0.600 0.779 24 10 8
-2603.6990 3331.0510 -148.2615 0.173 -0.581 0.795 88 72 69
-2571.9141 3313.7522 -153.9503 0.199 -0.580 0.790 175 147 152
-2563.6628 3314.4021 -157.1358 0.492 -0.775 0.397 179 146 153
-2567.1416 3329.5769 -160.9280 0.469 -0.881 0.059 181 142 151
-2549.7588 3329.7136 -167.2293 0.941 -0.156 0.299 190 139 151
-2615.1375 3548.7407 -216.5068 -0.186 -0.897 -0.400 147 106 114
-2605.7893 3548.2214 -219.6984 -0.186 -0.897 -0.400 181 140 148
-2587.3069 3535.6528 -222.1721 -0.088 -0.995 0.051 206 165 173
-2603.3801 3580.3381 -231.2413 0.215 -0.957 -0.197 206 165 173
-2370.7432 1862.5994 249.8864 0.909 0.373 0.188 174 156 144
-2378.5637 1874.1125 248.8437 0.963 0.001 0.269 183 165 152
-2348.8472 1871.2916 239.1416 -0.144 -0.867 -0.477 180 151 135
-2981.2136 2587.9038 226.3920 0.384 -0.810 0.444 149 98 81
-3002.1377 2613.3059 225.4057 0.577 -0.463 -0.673 140 89 72
-3031.2119 2671.7593 216.3040 0.451 -0.428 -0.783 137 88 73
-3005.8489 2812.6233 160.1902 0.493 -0.768 -0.409 112 79 62
-2871.2268 2739.3435 136.4367 0.982 -0.187 0.022 104 71 54
-3052.6521 2919.9028 141.1374 -0.189 -0.858 -0.478 102 67 48
-2847.8367 2763.1985 120.0946 -0.261 -0.965 -0.013 96 61 42
-2728.9209 2769.7556 75.3121 0.944 -0.205 0.259 135 68 41
-2698.2283 2776.3237 62.1258 0.112 -0.980 0.165 141 74 47
-2687.5752 2802.1008 49.7040 0.906 -0.166 0.389 183 105 82
-2684.6506 2808.3162 46.5814 0.903 -0.169 0.396 201 125 101
-2786.3721 2975.0593 27.3466 0.595 0.087 -0.799 195 116 89
-2804.7554 3003.3145 24.4978 0.768 0.003 -0.641 195 115 92
-2803.7876 3012.1196 21.2114 0.582 -0.027 -0.812 195 114 98
-2810.3354 3028.5967 18.0556 0.491 0.001 -0.871 188 106 97
-2683.4375 3175.3660 -76.3975 0.488 0.249 -0.837 180 134 136
-2763.4668 3351.8596 -106.6575 0.410 0.190 -0.892 190 142 141
-2692.4636 3312.6587 -119.0015 0.394 -0.372 0.841 182 132 131
-2673.7554 3323.0984 -129.1879 0.706 -0.237 0.667 125 86 84
-2675.0752 3335.5503 -132.8724 0.530 -0.605 0.593 76 58 53
-2668.6785 3338.8289 -136.2582 0.569 -0.609 0.553 35 22 16
-2655.1438 3333.5293 -139.3367 0.448 -0.605 0.658 29 16 10
-2626.9636 3332.2332 -148.9975 0.296 -0.488 0.821 23 9 6
-2614.9895 3328.5767 -152.0657 0.189 -0.587 0.787 29 15 12
-2601.1460 3322.5730 -155.0198 0.173 -0.581 0.795 59 42 39
-2564.6372 3310.2710 -163.9892 0.492 -0.775 0.397 183 150 157
-2556.1123 3310.5505 -167.1360 0.489 -0.800 0.349 175 136 145
-2559.5039 3358.4268 -181.9054 0.957 0.218 0.194 195 140 154
-2581.9180 3408.8799 -190.7216 0.983 0.122 -0.139 191 145 156
-2583.8452 3422.5322 -194.5893 0.988 0.145 0.047 180 134 145
-2620.5032 3526.6404 -216.2170 0.957 0.286 -0.044 145 101 111
-2631.4146 3552.4412 -220.9227 0.956 0.294 -0.014 174 132 141
-2623.5576 3553.9390 -224.2370 -0.186 -0.897 -0.400 191 150 158
-2614.1721 3553.4094 -227.4219 -0.186 -0.897 -0.400 195 154 162
-2625.5769 3580.1138 -232.2525 0.980 0.182 -0.085 194 153 161
-2636.9409 3630.8381 -245.1171 0.365 -0.819 -0.443 206 165 173
-1935.8296 4229.6392 -696.1588 0.842 0.333 0.424 234 205 207
-2380.4338 1878.5615 241.8497 0.989 -0.148 0.018 200 171 156
-2366.2197 1880.6790 236.0727 -0.148 -0.877 -0.458 192 163 147
-2352.2981 1876.8635 232.3894 -0.215 -0.864 -0.455 200 171 155
-2996.7229 2613.3728 215.1444 0.340 -0.788 0.513 140 89 72
-3006.2317 2673.3740 198.4145 0.513 -0.712 0.480 141 92 77
-3081.9766 2836.9343 170.5707 -0.326 -0.945 0.038 118 77 59
-2973.8572 2771.1321 154.0937 0.242 -0.942 -0.231 116 83 66
-3004.5369 2816.2168 149.9125 0.437 -0.695 -0.571 116 83 66
-3003.7742 2824.8018 146.7620 0.816 -0.577 0.039 108 75 58
-2692.8057 2802.7788 43.2946 0.912 -0.148 0.382 190 112 89
-2691.0669 2810.1641 40.1984 0.913 -0.158 0.376 199 121 98
-2703.7761 2831.7715 37.4835 0.892 0.270 -0.363 185 107 84
-2709.9973 2847.0977 34.5621 0.890 0.268 -0.369 179 101 78
-2771.0569 3300.8545 -95.8249 0.614 0.321 -0.722 194 148 150
-2645.8589 3242.1279 -120.7626 -0.011 -0.999 0.033 190 142 140
-2652.5708 3314.2415 -142.5509 0.572 -0.279 0.771 42 29 23
-2626.0674 3314.9370 -152.2319 0.393 -0.388 0.834 16 2 0
-2618.0986 3316.1431 -155.4770 0.612 -0.181 0.770 22 8 5
-2609.1404 3316.1177 -158.6618 0.392 -0.400 0.828 33 20 14
-2598.6035 3314.1294 -161.7512 0.173 -0.581 0.795 38 21 17
-2580.7048 3390.7024 -193.8080 0.984 0.117 -0.136 187 138 150
-2585.0942 3418.5818 -201.5918 0.984 0.117 -0.136 159 113 124
-2597.6482 3457.1362 -210.0446 0.926 0.346 -0.150 119 73 84
-2618.2273 3517.9758 -223.1094 0.957 0.286 -0.044 197 153 163
-2629.9392 3544.7559 -227.9142 0.956 0.292 -0.009 208 166 174
-2632.2029 3559.4028 -232.0187 0.990 0.123 -0.067 198 157 165
-2638.1167 3578.8787 -236.4412 1.000 0.008 0.003 203 162 170
-2637.1936 3589.5000 -240.3318 0.959 0.199 -0.202 210 169 177
-2378.8921 1874.5497 236.4761 0.982 -0.188 0.017 199 171 156
-2362.8823 1881.4510 228.4722 0.366 -0.664 -0.653 200 171 155
-3010.7039 2807.8813 146.3006 0.857 -0.402 -0.323 119 86 69
-3027.6724 2841.2546 141.0812 0.879 -0.203 -0.431 109 76 59
-3009.1753 2843.6292 133.7194 0.800 -0.573 -0.178 109 76 59
-2772.4773 2686.3882 102.7013 0.022 -0.993 -0.117 110 75 56
-2753.4104 2820.5569 50.7526 0.238 -0.894 0.380 140 73 46
-2744.7976 2821.4211 47.4059 0.238 -0.894 0.380 140 73 46
-2693.8062 2808.4016 33.7005 0.904 0.263 -0.337 171 93 70
-2699.0488 2822.6538 30.7607 0.904 0.263 -0.337 170 92 69
-2643.8855 3224.1121 -124.0100 -0.009 -0.957 -0.291 197 152 149
-2621.2056 3208.1941 -126.6953 -0.207 -0.975 -0.085 200 152 150
-2665.4709 3302.6353 -142.7968 0.472 -0.210 0.856 141 102 100
-2601.6807 3301.7407 -165.1262 0.409 -0.391 0.825 27 12 7
-2590.9941 3299.5400 -168.1763 0.176 -0.568 0.804 32 15 11
-2561.2178 3327.8989 -188.2905 0.600 -0.284 -0.748 196 145 157
-2579.1902 3372.2576 -196.8533 0.493 -0.680 -0.542 183 125 140
-2582.1641 3409.3462 -208.2887 0.992 0.094 -0.088 124 76 88
-2592.5330 3445.0168 -216.6231 0.520 -0.827 -0.213 193 147 158
-2354.3123 3500.9021 -319.9566 0.411 -0.222 -0.884 215 181 180
-2354.0120 3512.1052 -323.8361 0.445 -0.135 -0.885 215 181 180
-2362.4502 3535.9885 -328.8857 0.443 -0.127 -0.887 215 181 180
-2368.8401 3604.7317 -349.7697 0.262 -0.292 -0.920 230 196 195
-2407.2642 1897.6211 232.5212 -0.169 -0.897 -0.409 200 171 155
-2363.4473 1891.0793 219.2638 -0.321 -0.886 -0.334 211 182 166
-3033.7368 2842.0273 134.2792 0.881 -0.204 -0.427 114 81 64
-3035.5859 2853.0005 131.2207 0.858 -0.240 -0.454 114 81 64
-3127.3250 2982.3069 119.8750 -0.043 -0.814 -0.579 115 80 61
-2830.3669 2743.2395 95.8901 0.282 -0.877 -0.390 110 75 56
-2831.5315 2762.2219 89.8808 0.584 -0.715 -0.385 102 62 42
-2828.6980 2768.6377 86.7105 0.575 -0.713 -0.401 113 54 32
-2755.3069 2827.0684 41.0360 -0.008 -0.995 0.100 136 69 42
-2695.9409 3184.5215 -100.8246 0.081 -0.745 0.663 194 148 150
-2678.0662 3258.5903 -132.1877 0.074 -0.890 -0.450 197 152 149
-2641.9380 3248.2959 -141.4613 0.985 0.114 0.129 188 140 138
-2610.5610 3285.6565 -165.1757 0.714 -0.208 0.668 26 13 7
-2536.1843 3280.7346 -189.7704 0.622 -0.691 -0.368 168 122 133
-2583.8748 3361.6482 -200.3001 0.564 -0.298 -0.770 162 105 120
-2584.8682 3373.9163 -204.0988 0.493 -0.680 -0.542 145 89 104
-2583.8792 3406.0044 -215.3011 0.991 0.099 -0.088 177 129 141
-2599.1443 3459.2009 -227.9041 0.930 0.340 -0.141 199 153 164
-2818.2883 3814.1680 -270.5929 0.944 0.284 -0.169 206 165 173
-2676.4202 1602.2615 421.1696 0.987 0.155 -0.048 46 36 27
-2680.3445 1609.8422 419.9734 0.985 0.156 -0.073 46 36 27
-2637.0122 1598.4863 408.6057 0.967 0.075 0.242 46 36 27
-2398.1248 1827.9948 246.7113 0.195 -0.150 0.969 76 62 54
-2363.3240 1894.1439 212.0141 -0.279 -0.886 -0.370 195 166 150
-3043.5647 2864.8367 121.2923 0.474 -0.207 -0.856 121 88 71
-2849.7100 2765.3555 86.9725 0.294 -0.892 -0.343 111 74 55
-2837.5974 2772.3738 80.3326 0.321 -0.823 -0.469 113 54 32
-2778.9219 3006.8127 -19.9183 0.806 0.061 -0.588 179 116 135
-2674.8037 3270.8596 -146.1931 -0.300 -0.952 -0.064 199 149 148
-2650.5408 3285.1519 -159.5728 0.478 -0.284 0.831 122 104 98
-2640.9214 3284.4751 -162.7227 0.483 -0.263 0.835 62 47 42
-2599.2856 3277.5317 -174.9930 0.743 -0.202 0.639 26 13 7
-2560.4343 3283.8772 -190.7991 0.187 -0.570 0.800 175 142 147
-2567.4634 3303.2661 -194.9156 0.897 -0.248 0.366 166 127 134
-2546.5061 3288.2043 -197.1628 0.678 -0.687 -0.262 174 128 139
-2813.9924 3764.7271 -265.0468 0.574 -0.357 -0.737 205 163 171
-2662.2434 1597.8656 411.4340 0.041 -0.944 0.327 41 31 22
-2664.2729 1615.5669 406.1050 0.234 -0.920 0.316 41 31 22
-2655.6016 1616.6105 402.7171 0.234 -0.920 0.316 42 32 23
-2646.7903 1617.5568 399.3134 0.309 -0.889 0.339 42 32 23
-2354.1780 1896.8475 201.7250 -0.242 -0.883 -0.403 212 176 163
-2296.8525 1891.6425 183.4568 -0.024 -0.673 -0.739 122 83 71
-2653.7490 2765.0652 10.2882 0.003 -0.923 -0.385 206 129 108
-2753.2959 3034.4719 -46.8101 0.502 0.091 -0.860 183 125 133
-2646.6870 3275.3333 -166.2526 0.494 -0.483 0.723 135 114 109
-2607.9746 3272.0212 -178.6586 0.641 -0.316 0.699 27 12 7
-2596.0857 3268.4258 -181.5890 0.743 -0.202 0.639 27 13 7
-2593.8086 3276.3611 -185.0922 0.737 -0.208 0.643 27 12 7
-2572.1875 3282.2490 -194.6606 0.746 -0.304 0.592 159 133 136
-2567.4995 3287.2466 -198.0047 0.746 -0.304 0.592 168 138 142
-2566.5259 3296.8037 -201.6054 0.897 -0.248 0.366 153 115 121
-2547.6265 3284.2996 -203.9479 0.740 -0.609 -0.286 124 79 89
-2598.3472 3390.9255 -222.5876 0.704 -0.519 -0.485 202 156 167
-2329.0625 3648.4187 -404.5835 0.423 -0.297 0.856 197 165 162
-2320.9294 3672.8250 -415.7531 0.007 -0.891 -0.453 237 203 201
-1817.8066 4010.1946 -706.7593 0.232 -0.513 -0.827 237 207 209
-1814.5087 4017.6396 -710.4522 0.232 -0.513 -0.827 237 207 209
-1725.5520 3950.5815 -718.6799 0.197 -0.355 -0.914 236 205 209
-2658.7021 1598.9254 403.5917 0.074 -0.934 0.349 40 30 21
-2645.1555 1597.4432 399.3860 0.655 -0.688 0.312 40 30 21
-2641.1985 1600.9031 396.8238 0.394 -0.666 0.633 40 30 21
-2624.6697 1603.2960 390.2530 0.374 -0.722 0.582 39 29 20
-2660.9121 2767.6843 3.9532 0.003 -0.923 -0.385 188 116 108
-2629.4788 3260.4138 -175.7890 0.480 -0.331 0.812 161 123 123
-2622.4321 3262.7002 -179.0241 0.480 -0.331 0.812 113 79 78
-2605.0664 3263.2959 -185.2705 0.641 -0.316 0.699 43 19 15
-2592.6216 3259.0264 -188.1379 0.632 -0.352 0.691 23 4 0
-2587.5396 3263.5542 -191.4574 0.688 -0.302 0.660 38 23 16
-2565.6016 3279.6475 -204.6039 0.902 -0.234 0.363 133 109 108
-2561.4998 3285.3435 -207.9826 0.897 -0.241 0.370 118 87 88
-2551.1177 3283.3167 -210.9006 0.740 -0.609 -0.286 144 107 110
-2598.9250 3364.0732 -221.9328 0.557 -0.334 -0.760 192 144 151
-2325.2998 3636.6558 -410.5237 0.423 -0.297 0.856 223 188 186
-2313.6062 3631.0645 -412.6770 0.854 0.036 0.520 230 195 193
-1898.7731 4001.4031 -683.8907 0.858 0.310 -0.409 229 205 200
-1811.4187 4018.1628 -720.0269 0.200 -0.445 -0.873 236 214 210
-1753.8632 4022.4102 -741.5082 0.210 -0.373 -0.904 234 204 203
-2720.0291 1485.6543 457.5542 0.865 -0.418 0.277 69 60 51
-2839.3550 1546.0898 478.0769 0.905 0.194 0.378 70 61 52
-2784.4038 1531.5984 464.0364 0.649 -0.574 0.499 68 59 50
-2741.9971 1533.4448 448.7182 0.640 -0.765 0.075 53 43 34
-2737.5786 1536.7773 446.0419 0.646 -0.762 0.048 53 43 34
-2640.4121 1597.8588 391.3842 0.532 -0.803 0.268 50 40 31
-2337.4329 1891.0790 185.5997 0.024 -0.800 -0.600 194 178 165
-2330.2617 1891.9701 182.8102 0.029 -0.799 -0.600 194 177 167
-2326.3999 1895.2461 180.3460 0.101 -0.707 -0.700 203 186 176
-2322.8604 1898.7538 177.9137 0.028 -0.696 -0.717 198 180 170
-2881.0208 2789.5303 64.7024 0.021 -0.801 0.598 116 72 56
-2859.0471 2778.6875 60.8247 0.790 -0.558 -0.253 112 53 34
-2855.7773 2784.7761 57.5978 0.790 -0.558 -0.253 114 51 33
-2857.9873 2795.8845 54.5412 0.538 -0.784 -0.311 116 51 31
-2771.2542 2824.4502 14.6828 -0.270 -0.928 -0.256 126 55 35
-2749.6130 2982.0293 -47.0246 0.766 -0.429 -0.479 190 129 134
-2748.0681 2990.1394 -50.3498 0.752 -0.429 -0.501 190 129 134
-2715.7996 3313.5139 -172.7782 -0.274 -0.890 -0.365 197 155 156
-2625.4595 3250.4431 -182.3582 0.483 -0.263 0.835 193 152 152
-2618.5532 3252.8743 -185.5858 0.483 -0.263 0.835 185 148 147
-2599.9136 3251.9138 -191.7092 0.632 -0.290 0.719 56 30 26
-2590.0591 3250.7314 -194.7144 0.632 -0.352 0.691 28 9 3
-2584.9238 3255.1755 -198.0214 0.688 -0.302 0.660 41 25 18
-2554.2112 3281.8406 -217.8292 0.865 -0.273 0.420 190 154 156
-2591.3511 3349.2849 -228.1740 0.878 0.219 0.427 200 153 159
-2602.3950 3373.9709 -232.8433 0.617 -0.640 -0.458 204 156 162
-1746.6536 3998.5222 -744.0088 -0.107 -0.979 -0.175 235 204 202
-1735.8247 3988.6006 -744.3446 -0.107 -0.971 -0.214 235 204 202
-1712.7426 3950.4475 -739.2101 0.336 -0.419 -0.843 235 203 204
-2747.9365 1528.2390 446.2755 0.640 -0.765 0.075 60 50 41
-2742.4995 1531.0946 443.4157 0.600 -0.776 0.196 60 50 41
-2738.1465 1534.4567 440.7543 0.644 -0.763 0.056 60 50 41
-2600.7607 1484.6276 410.6362 0.942 0.329 0.067 57 47 38
-2627.2278 1561.2156 393.2938 0.927 0.238 0.290 60 50 41
-2614.0771 1581.5864 381.7248 0.295 -0.726 0.621 63 53 44
-2387.9414 1780.5504 235.0713 0.127 -0.350 0.928 83 61 47
-2332.9001 1860.7896 188.3851 0.682 -0.129 0.720 201 181 157
-2327.6697 1899.3151 173.2724 0.920 -0.379 0.097 182 165 155
-2322.3481 1901.5265 170.6750 0.853 -0.521 -0.030 194 176 166
-2879.9326 2784.1184 57.8463 0.024 -0.804 0.595 116 72 56
-2862.2476 2777.1804 54.1502 0.790 -0.558 -0.253 112 53 34
-2858.9780 2783.2705 50.9197 0.790 -0.558 -0.253 114 51 33
-2862.4128 2795.4897 47.8813 0.538 -0.784 -0.311 116 51 31
-2765.5403 2964.5420 -43.9021 0.423 -0.195 -0.885 187 125 130
-2760.8723 2988.7957 -53.8901 0.828 -0.557 -0.070 190 129 134
-2618.4875 3237.0193 -188.7078 0.622 -0.246 0.744 198 156 157
-2612.9524 3241.0378 -192.0032 0.622 -0.246 0.744 196 159 158
-2587.4324 3242.3809 -201.2598 0.688 -0.302 0.660 37 18 12
-2582.3186 3246.8308 -204.5591 0.688 -0.302 0.660 43 27 20
-2572.5657 3245.6885 -207.5247 0.864 -0.250 0.437 38 25 17
-2567.7351 3250.4495 -210.8339 0.278 -0.558 0.782 55 42 36
-2538.7478 3247.0056 -219.6310 0.266 -0.628 0.731 187 159 159
-2530.2048 3247.1384 -222.6203 0.266 -0.628 0.731 210 176 177
-2547.1025 3278.5359 -227.6463 0.787 0.020 0.616 210 169 173
-2568.8784 3327.0010 -236.8885 0.502 -0.863 -0.051 206 160 166
-1817.5739 3684.9536 -619.4112 0.727 0.059 -0.684 236 196 194
-1867.2928 3838.3975 -655.2961 0.633 -0.115 -0.766 236 200 196
-1892.1670 3916.7068 -673.7820 0.431 -0.683 -0.590 231 203 199
-1826.7339 4022.2688 -732.7976 0.718 0.104 0.688 57 33 29
-1762.8408 3998.2397 -746.5090 0.004 -0.903 -0.429 234 203 201
-1754.2709 4008.3994 -752.9717 -0.139 -0.958 -0.251 235 204 202
-1700.8934 3930.4880 -744.4437 0.128 -0.652 -0.748 235 203 206
-2635.9880 1573.9246 385.7560 0.540 -0.359 0.761 68 58 49
-2630.8103 1576.7189 383.0114 0.319 -0.709 0.629 72 62 53
-2601.3647 1621.6584 357.3246 0.839 -0.291 -0.460 67 57 48
-2330.8545 1868.4308 178.9671 0.783 -0.279 -0.556 184 167 153
-2329.7390 1879.6786 174.6823 0.829 -0.140 -0.542 182 165 155
-2329.6895 1885.6909 172.5793 0.657 -0.608 -0.445 182 165 155
-2333.0874 1894.2184 170.7855 0.773 -0.344 -0.533 184 167 157
-2334.8218 1901.5721 168.8287 0.792 -0.316 -0.522 191 174 164
-2324.4773 1900.1340 165.7813 0.850 -0.527 0.012 201 184 174
-2321.8533 1904.3148 163.4312 0.850 -0.527 0.012 211 191 181
-2314.7812 1905.2264 160.6904 0.742 -0.668 -0.059 197 166 157
-2314.0244 1910.7800 158.5040 0.395 -0.539 -0.744 207 175 166
-2310.1011 1914.0001 156.0418 0.573 -0.585 -0.574 169 137 128
-2305.8682 1916.9858 153.5547 0.578 -0.598 -0.554 106 71 62
-2867.0154 2795.2495 41.2156 0.620 -0.728 -0.295 116 51 31
-1927.8678 2250.9102 -91.8912 0.712 0.428 -0.556 206 156 157
-2611.0125 3233.5569 -198.6222 0.554 -0.242 0.797 142 105 104
-2582.5857 3241.9473 -211.2787 0.561 -0.279 0.779 45 29 22
-2572.6462 3240.5830 -214.2130 0.700 -0.278 0.658 32 19 11
-2565.6851 3242.7649 -217.3564 0.289 -0.544 0.788 27 15 10
-2559.4751 3245.8342 -220.5503 0.285 -0.546 0.788 69 54 49
-2524.0215 3234.3616 -228.7244 0.224 -0.549 0.805 192 158 160
-2541.9336 3266.9211 -233.8803 0.787 0.020 0.616 201 161 165
-2575.0396 3329.2683 -244.1622 0.498 -0.867 -0.028 215 169 174
-2399.0669 3692.5320 -430.5265 0.867 -0.463 -0.185 210 175 173
-1872.2473 3841.5813 -662.8489 0.418 -0.772 -0.479 237 199 196
-1883.0210 3877.1807 -671.5067 0.369 -0.883 -0.290 236 201 199
-1881.3744 3887.6853 -675.7158 0.731 -0.570 -0.375 235 201 199
-1825.7292 3998.1101 -733.1049 0.738 0.122 0.664 57 36 31
-1832.8652 4028.2620 -741.1198 0.839 0.012 0.544 70 49 44
-2627.9414 1567.2267 379.1803 0.548 -0.363 0.754 59 49 40
-2640.3140 1578.9797 379.3060 0.284 -0.632 0.721 63 53 44
-2399.0393 1764.8768 232.2334 0.169 -0.333 0.927 63 47 39
-2384.5239 1761.2181 228.5565 0.167 -0.336 0.927 110 91 77
-2311.8125 1846.0254 174.2054 0.562 -0.663 -0.494 201 182 161
-2334.9546 1874.4696 172.1895 0.797 -0.128 -0.591 176 159 149
-2332.6025 1878.8171 169.8724 0.658 -0.559 -0.505 182 165 155
-2333.4790 1885.4958 167.8446 0.654 -0.564 -0.504 184 170 159
-2336.5669 1893.7961 166.0060 0.773 -0.344 -0.533 169 152 144
-2332.6372 1909.2533 159.2801 0.748 -0.539 -0.387 210 191 180
-2329.0598 1912.7616 156.8375 0.794 -0.192 -0.577 215 190 179
-2322.2087 1913.8546 154.1195 0.603 -0.609 -0.516 163 137 125
-2318.1792 1917.0153 151.6438 0.575 -0.621 -0.533 79 53 41
-2306.2554 1932.7622 142.0899 -0.050 -0.907 -0.419 111 82 72
-1996.0577 1848.8577 65.5068 0.905 -0.326 0.274 139 90 75
-2688.8271 2777.2778 -21.6408 0.231 -0.814 0.534 179 110 105
-2581.8103 3235.8259 -217.9084 0.659 -0.202 0.724 30 14 6
-2569.6357 3231.7778 -220.6511 0.633 -0.233 0.738 35 22 14
-2561.8594 3232.9602 -223.7158 0.225 -0.422 0.878 22 11 5
-2556.8564 3237.4656 -226.9921 0.221 -0.421 0.880 40 25 20
-2519.7883 3224.0037 -234.9468 0.228 -0.544 0.807 199 165 166
-2531.0398 3248.3203 -239.5807 0.795 -0.103 0.598 203 163 166
-2393.9539 3090.2610 -231.2751 0.848 0.104 0.519 206 161 166
-1833.8600 4023.0513 -747.3280 0.847 -0.015 0.531 59 38 33
-1843.4999 4058.8062 -756.4968 0.841 -0.042 0.539 61 40 35
-2623.0100 1562.1326 373.1486 0.548 -0.363 0.754 57 47 38
-2342.1565 1759.3137 208.8352 0.330 -0.703 0.630 197 175 161
-2354.8779 1867.6411 175.2536 0.390 -0.853 -0.347 202 182 158
-2347.2764 1868.2853 172.4481 0.324 -0.748 -0.580 201 182 161
-2345.3113 1872.9139 170.1618 0.326 -0.751 -0.575 192 175 162
-2339.3533 1874.6990 167.5150 0.796 -0.130 -0.592 175 158 148
-2336.0925 1878.4017 165.1127 0.581 -0.624 -0.522 150 133 123
-2335.9507 1884.3475 162.9845 0.526 -0.667 -0.527 132 115 105
-2339.4490 1892.9379 161.1663 0.981 -0.185 -0.051 147 130 120
-2340.3904 1899.7122 159.1158 0.925 0.086 0.369 176 159 149
-2340.0708 1905.5918 156.9503 0.925 0.086 0.369 199 182 172
-2314.8674 1899.3938 150.5643 0.912 -0.086 0.401 140 120 108
-2329.6560 1916.3695 149.6446 0.730 -0.344 0.590 65 44 31
-2319.0510 1914.6909 146.6324 0.543 -0.743 0.391 59 39 26
-2319.8848 1921.4510 144.5502 0.587 -0.616 -0.525 69 48 35
-2313.5576 1935.2487 137.5755 -0.050 -0.907 -0.419 80 60 46
-2685.0916 2769.2854 -28.1151 0.230 -0.816 0.531 179 110 105
-2535.1824 3093.5737 -192.4531 0.853 0.403 -0.331 122 78 79
-2592.5918 3211.9763 -214.3916 0.485 -0.398 0.779 189 158 155
-2579.3325 3217.1924 -220.7170 0.487 -0.392 0.780 48 30 22
-2577.8569 3225.9246 -224.2728 0.659 -0.202 0.724 25 9 1
-2566.2710 3222.5710 -227.0321 0.637 -0.228 0.737 21 8 1
-2560.3113 3225.9197 -230.2265 0.313 -0.512 0.800 26 15 9
-2552.3660 3226.8599 -233.2522 0.221 -0.430 0.876 36 20 16
-2518.7776 3217.6035 -241.4144 0.217 -0.539 0.814 199 165 166
-2504.2463 3210.3184 -243.7977 0.313 -0.511 0.801 203 163 166
-2002.4325 4003.9170 -691.7728 0.529 -0.106 -0.842 225 185 183
-1893.1310 4069.6025 -751.8527 0.678 -0.148 0.720 173 144 146
-1871.3334 4052.5120 -753.2720 0.522 -0.087 0.848 48 24 22
-1824.9396 3996.3320 -749.3638 0.845 0.255 0.470 55 34 29
-1816.5258 3992.5920 -750.9111 0.641 -0.006 0.768 56 35 30
-2615.2625 1555.6235 366.6953 0.962 -0.090 0.257 53 43 34
-2618.1167 1562.4603 365.2574 0.578 -0.545 0.608 52 42 33
-2397.5669 1741.2295 227.9700 0.393 -0.112 0.913 46 33 25
-2391.0989 1742.7954 225.2355 0.191 -0.311 0.931 70 57 49
-2359.0454 1867.6708 170.5400 0.513 -0.834 -0.206 202 182 158
-2344.3286 1869.3055 164.9957 0.671 -0.255 -0.696 200 183 169
-2343.9263 1875.0453 162.8433 0.687 -0.283 -0.669 196 180 167
-2343.1379 1880.5244 160.6522 0.526 -0.667 -0.527 191 174 164
-2340.3560 1884.5852 158.2861 0.526 -0.667 -0.527 187 170 160
-2340.1677 1890.5176 156.1384 0.981 -0.185 -0.051 212 195 185
-2339.3870 1896.0377 153.9354 0.957 -0.007 0.290 204 187 177
-2340.6218 1903.0349 151.8942 0.958 -0.025 0.284 173 155 145
-2335.2749 1905.2590 149.3071 0.919 -0.070 0.387 136 118 107
-2332.6138 1909.4365 146.9407 0.923 -0.073 0.377 48 32 18
-2327.9705 1912.1615 144.4153 0.753 -0.315 0.578 48 32 17
-2319.2559 1911.8770 141.5722 0.543 -0.743 0.391 72 56 41
-2324.2029 1921.6715 139.8020 0.548 -0.721 0.424 45 30 15
-2314.2651 1926.6107 134.7106 0.191 -0.970 -0.152 57 41 26
-2321.1831 1937.9617 133.0592 -0.053 -0.908 -0.415 60 44 29
-2315.7939 1940.1244 130.4793 -0.301 -0.951 -0.067 63 46 31
-2322.8455 1951.6556 128.8096 -0.444 -0.807 -0.389 79 52 36
-2588.3787 3201.8721 -220.7340 0.514 -0.434 0.740 192 161 158
-2581.7002 3204.4084 -223.8805 0.514 -0.434 0.740 154 129 124
-2577.4792 3209.8438 -227.2154 0.505 -0.402 0.764 64 46 38
-2571.9031 3213.6658 -230.4414 0.794 -0.019 0.608 34 18 10
-2563.6472 3214.2739 -233.4432 0.640 -0.231 0.733 25 12 4
-2557.6433 3217.5518 -236.6223 0.313 -0.512 0.800 34 22 16
-2513.4583 3205.9727 -247.4765 0.218 -0.541 0.812 199 165 166
-1895.1003 4066.3884 -758.5821 0.095 -0.742 0.664 119 90 92
-1864.6694 4030.8628 -756.3785 0.664 -0.378 0.645 56 31 28
-1837.8660 3987.9243 -750.3455 0.409 -0.882 0.232 50 26 22
-1820.9550 3965.9529 -748.3378 0.509 -0.825 0.244 47 27 20
-1814.2272 3965.8271 -750.5656 0.841 0.240 0.485 48 27 22
-1824.2771 4002.1462 -759.9310 0.837 0.243 0.491 49 28 23
-1764.8135 4017.3071 -785.3392 0.360 -0.343 0.868 139 105 104
-1741.9514 4039.6565 -800.9117 0.086 -0.739 -0.668 234 199 205
-1727.6870 4021.6543 -799.4046 0.449 -0.359 -0.818 232 200 205
-1741.8318 4084.7698 -816.8011 0.032 -0.869 -0.494 232 200 205
-2624.7434 1612.4474 343.7353 0.632 -0.463 -0.621 48 38 29
-2397.7505 1727.2632 226.9597 0.406 -0.087 0.910 61 47 39
-2391.3115 1728.8488 224.2368 0.406 -0.087 0.910 61 47 39
-2344.4316 1878.5267 155.6831 0.581 -0.624 -0.522 202 185 175
-2341.9473 1882.7993 153.3411 0.581 -0.624 -0.522 200 183 173
-2341.1423 1888.2838 151.1359 0.989 -0.147 -0.012 205 188 178
-2335.3191 1890.1577 148.5181 0.941 -0.056 0.335 177 160 150
-2334.2073 1895.4323 146.2839 0.941 -0.056 0.335 119 102 92
-2331.8696 1899.8265 143.9483 0.922 -0.049 0.384 62 45 34
-2330.6541 1905.0449 141.6989 0.922 -0.049 0.384 49 36 22
-1949.2961 1785.2092 55.8319 0.166 -0.924 0.344 163 113 97
-1986.1705 1826.6483 53.6039 0.974 0.086 -0.209 155 106 92
-2946.0686 2784.6409 38.1934 0.070 -0.909 0.410 130 90 75
-1795.8593 2012.8077 -76.0140 0.586 -0.747 -0.314 192 131 136
-1746.4904 1980.2311 -81.1106 0.927 -0.203 -0.314 200 145 148
-1744.7040 1984.4530 -83.2002 0.985 -0.089 -0.148 199 145 148
-1744.3022 1990.1300 -85.3378 0.994 -0.075 -0.080 200 146 148
-2588.0352 3196.3486 -227.3472 0.505 -0.402 0.764 191 158 154
-2581.3171 3198.8318 -230.4805 0.505 -0.402 0.764 151 124 118
-2574.4463 3201.1145 -233.5945 0.500 -0.401 0.768 70 50 42
-2574.2498 3211.3147 -237.2589 0.823 0.016 0.568 52 35 26
-2554.3037 3197.9771 -239.2559 0.578 -0.254 0.776 46 32 23
-2548.5076 3201.4570 -242.4311 0.578 -0.254 0.776 40 27 20
-2510.8181 3197.6306 -253.7454 0.218 -0.541 0.812 198 165 166
-2017.2278 3463.4116 -513.3567 0.630 -0.708 0.320 226 197 194
-2017.6368 3475.8350 -517.6017 0.642 -0.705 0.302 226 197 194
-1932.3871 3344.1584 -499.7956 0.829 -0.468 0.306 226 197 194
-1951.5917 3399.3901 -512.8265 0.930 -0.269 0.250 227 198 197
-1948.7610 3406.1045 -516.1462 0.930 -0.269 0.250 227 198 197
-1999.5883 4041.1372 -723.0863 0.383 -0.377 -0.843 213 172 170
-1893.5756 4055.7698 -763.8698 -0.116 -0.866 0.487 101 72 70
-1876.7754 4034.7366 -762.0950 0.300 -0.785 0.542 56 28 26
-1861.1848 4016.0825 -760.7531 -0.052 -0.930 0.363 47 22 17
-1844.0299 3993.8860 -758.6872 0.402 -0.866 0.298 44 22 15
-1822.8676 3962.8452 -754.8478 0.509 -0.825 0.244 43 23 16
-1739.0771 4116.6011 -837.2425 -0.138 -0.978 -0.155 233 201 206
-1537.3763 3751.1880 -776.1108 0.460 -0.694 -0.554 233 201 206
-1537.3051 3866.4561 -816.7975 0.042 -0.809 0.587 232 200 205
-2397.1880 1718.5497 223.8800 0.348 -0.209 0.914 64 45 31
-2383.9197 1715.8335 220.4064 0.403 -0.109 0.909 73 54 40
-2369.8108 1757.7905 200.8277 0.870 -0.492 -0.031 198 176 154
-2337.0962 1858.3845 154.2584 0.623 -0.628 -0.468 183 168 156
-2334.5962 1862.5995 151.9297 0.623 -0.628 -0.468 209 195 184
-2330.2349 1865.4917 149.4472 0.643 -0.619 -0.450 202 188 179
-2328.3625 1870.1580 147.1684 0.646 -0.622 -0.442 218 204 195
-2324.4907 1873.3956 144.7271 0.955 -0.284 -0.087 165 151 142
-2337.4675 1888.7733 143.6183 0.933 -0.065 0.355 97 83 74
-2335.0366 1893.0920 141.2759 0.924 -0.051 0.378 48 35 26
-2332.5078 1897.3438 138.9244 0.919 -0.054 0.390 47 34 25
-2331.2454 1902.5226 136.6679 0.919 -0.054 0.390 40 30 19
-2328.0366 1906.2878 134.2615 0.783 -0.312 0.538 46 36 25
-2899.9973 2766.5955 20.7348 -0.022 -0.773 0.634 112 63 51
-2780.3213 2792.7876 -28.5516 -0.198 -0.957 -0.212 116 51 38
-1799.3317 2013.3390 -80.4089 0.576 -0.757 -0.308 186 128 131
-1737.1058 1985.7094 -91.4246 0.860 -0.200 0.469 196 147 147
-2502.7676 3021.8015 -202.4616 0.844 0.430 -0.321 204 157 156
-2557.8145 3186.6636 -242.4564 0.652 -0.165 0.740 40 18 9
-2550.6851 3188.5505 -245.5081 0.576 -0.278 0.769 25 7 0
-2543.7056 3190.5933 -248.5650 0.573 -0.275 0.772 19 10 4
-2509.5959 3191.0295 -260.1227 0.224 -0.535 0.815 196 166 163
-2009.5682 3410.1240 -504.8940 0.950 -0.280 0.135 222 202 196
-1939.1680 3430.2834 -535.5703 0.494 -0.828 0.265 216 195 192
-1874.3170 4022.1863 -766.9143 0.315 -0.839 0.444 67 45 28
-1858.1543 4002.3191 -765.2803 0.024 -0.919 0.393 35 15 2
-1780.5797 3979.0303 -782.9648 0.574 -0.011 0.819 145 99 94
-1674.2000 3941.3511 -805.1818 -0.284 -0.749 -0.599 228 201 202
-1626.5950 3858.3521 -791.6966 -0.076 -0.797 -0.600 240 218 220
-1622.6085 3863.3264 -794.7913 -0.077 -0.784 -0.616 228 205 207
-1534.5175 3866.7422 -825.4509 0.388 -0.921 -0.031 231 205 208
-1535.0898 3883.0005 -831.0186 0.634 -0.709 -0.308 227 200 203
-2393.6787 1708.0376 220.4878 0.375 -0.182 0.909 70 51 36
-2377.1533 1742.6976 202.6638 0.864 -0.504 -0.014 203 181 159
-2375.1013 1747.0629 200.4287 0.859 -0.512 0.009 203 181 158
-2366.5667 1747.2292 197.5309 0.890 -0.449 -0.076 203 181 158
-2371.3850 1756.0620 195.9919 0.870 -0.493 -0.025 203 181 158
-2399.3423 1780.0588 196.7557 0.857 -0.429 0.286 199 177 154
-2327.5063 1866.6449 142.0663 0.560 -0.282 0.779 186 172 163
-2288.6909 1874.5947 126.3285 0.554 -0.653 0.517 49 39 29
-2310.1497 1896.3323 125.7344 0.800 -0.484 -0.355 52 42 32
-1988.6996 1823.2189 44.8228 0.978 0.110 -0.177 163 117 109
-2900.8821 2762.9885 13.9693 0.132 -0.934 0.332 108 58 47
-2828.1765 2724.8362 3.3568 0.866 -0.364 -0.343 106 50 37
-2828.6191 2734.1160 0.2035 0.869 -0.379 -0.317 106 50 37
-2759.7783 2778.0808 -38.3305 -0.239 -0.920 -0.312 122 58 46
-2767.3350 2830.7385 -54.5461 0.004 -0.742 -0.671 181 115 116
-1824.6666 2005.1044 -74.4271 -0.020 -0.998 -0.067 194 137 140
-1876.8422 2070.3210 -80.2690 0.217 -0.905 -0.365 187 132 135
-1809.7408 2014.7488 -82.8217 0.641 -0.759 -0.112 178 123 126
-1805.7618 2016.8901 -84.9068 0.636 -0.767 -0.088 184 130 133
-2533.8750 3082.3884 -221.7010 0.959 0.237 -0.154 206 156 155
-2576.9602 3183.4861 -243.3283 0.321 -0.480 0.816 177 140 132
-2553.9766 3177.0215 -248.6735 0.566 -0.271 0.779 45 22 12
-2547.2607 3179.3796 -251.7460 0.561 -0.273 0.781 30 11 4
-2539.9504 3181.0085 -254.7567 0.573 -0.275 0.772 22 14 6
-2171.0166 3524.6313 -499.6833 0.880 -0.368 -0.299 224 190 189
-2130.3159 3507.2668 -507.0445 0.873 -0.360 -0.330 222 192 192
-2010.1575 3393.9397 -506.7025 0.976 -0.023 -0.217 217 197 192
-2011.5104 3407.6096 -511.1145 0.968 -0.250 -0.007 217 198 192
-1947.6381 3427.3975 -539.3968 0.937 -0.250 0.243 221 206 201
-1945.0178 3434.5466 -542.8110 0.928 -0.270 0.258 225 206 202
-1937.0570 3432.4900 -544.7274 0.472 -0.845 0.250 230 202 201
-1930.3660 3432.5842 -546.9863 0.460 -0.851 0.252 229 193 195
-1922.0662 3429.8447 -548.7725 0.430 -0.875 0.223 232 192 196
-1914.9628 3429.1392 -550.8842 0.439 -0.869 0.228 231 192 195
-1858.9856 3365.5554 -546.8875 0.425 -0.769 0.478 232 195 197
-1905.1288 4050.7976 -775.2619 -0.114 -0.870 0.480 165 134 118
-1875.8674 4018.1746 -773.3912 0.315 -0.839 0.444 71 50 30
-1856.2684 3991.0366 -770.2578 0.054 -0.920 0.389 39 20 4
-1755.2358 4032.5964 -818.6434 0.568 0.124 0.814 157 99 108
-1681.6646 3951.4351 -814.2468 -0.284 -0.749 -0.599 230 204 205
-1671.4265 3942.1394 -814.3458 -0.238 -0.786 -0.571 232 210 209
-1647.8450 3901.2476 -807.6451 -0.172 -0.646 -0.744 234 214 215
-1599.3044 3961.5544 -845.2394 -0.228 -0.833 -0.504 242 211 217
-1589.9656 3953.4226 -845.4532 -0.243 -0.840 -0.484 229 199 204
-1585.9133 3958.3879 -848.5671 -0.244 -0.848 -0.470 222 194 198
-1556.9215 3930.7205 -848.3694 -0.157 -0.815 -0.558 224 198 201
-2647.0857 1539.8342 358.4686 0.367 -0.602 0.709 66 56 46
-2730.7617 1625.9937 355.3875 0.900 -0.416 -0.132 57 47 37
-2395.0481 1689.4805 221.6264 0.561 -0.817 0.136 67 50 42
-2382.7251 1698.5280 214.3176 0.372 -0.210 0.904 85 66 52
-2369.7917 1735.2349 196.9290 0.894 0.125 0.430 210 188 166
-2389.5022 1765.0840 192.7914 0.808 -0.554 -0.201 210 188 165
-2356.5227 1860.2954 147.8761 0.508 0.087 0.857 202 182 164
-2342.8958 1856.7012 144.6504 0.447 -0.288 0.847 205 190 178
-2336.7896 1858.3702 142.0338 0.455 -0.292 0.841 202 188 177
-2330.8481 1860.1406 139.4355 0.455 -0.292 0.841 172 158 149
-2323.0803 1860.5942 136.7031 0.560 -0.282 0.779 69 55 46
-2846.2358 2736.7207 -3.0704 0.949 -0.314 0.042 106 50 37
-2844.4907 2744.0752 -6.2742 0.949 -0.314 0.027 106 50 37
-2842.1394 2750.8982 -9.4890 0.949 -0.314 0.027 106 50 37
-2848.7961 2765.9033 -12.6450 0.797 -0.601 0.069 107 51 38
-2845.7007 2772.1047 -15.8840 0.421 -0.900 -0.112 107 51 38
-2839.4539 2775.4355 -19.1406 0.421 -0.900 -0.112 107 51 38
-2826.6309 2772.7246 -22.4155 0.415 -0.902 -0.120 108 51 38
-2761.9167 2821.0715 -61.0955 0.324 -0.527 -0.786 180 116 116
-1838.1896 2009.4535 -76.9096 -0.023 -0.997 -0.067 196 137 141
-1930.6575 2121.5801 -86.3550 0.912 -0.393 -0.117 185 135 136
-1933.5127 2131.0776 -88.8021 0.929 -0.293 -0.225 178 128 129
-2598.9138 3121.9736 -222.4931 0.984 -0.134 0.118 205 157 155
-2573.9009 3174.8066 -249.6380 0.321 -0.480 0.816 183 147 138
