ply
format ascii 1.0
element vertex 791
property float x
property float y
property float z
property float nx
property float ny
property float nz
property uchar diffuse_red
property uchar diffuse_green
property uchar diffuse_blue
end_header
-3722.6682 5779.4414 1711.2109 0.924 -0.201 0.324 89 44 14
-3547.0593 5595.1450 1598.9938 0.880 -0.476 -0.004 97 52 20
-3545.0098 5657.3931 1580.0944 0.161 -0.571 0.805 102 57 27
-3535.2114 5657.8657 1570.8954 0.176 -0.577 0.798 101 57 27
-3229.1165 5700.4580 1275.9208 0.525 -0.847 0.082 75 41 13
-3227.6069 5770.8955 1255.2845 0.572 -0.820 0.040 49 33 21
-3229.8362 5793.5645 1251.1565 -0.353 -0.930 -0.102 40 23 9
-3164.4062 5709.5303 1213.5430 -0.411 -0.912 -0.004 32 20 7
-3181.4888 5835.3579 1194.9878 0.279 -0.960 -0.021 30 19 9
-3172.8088 5838.0815 1186.2092 0.279 -0.960 -0.021 30 19 9
-2819.0176 6004.6455 813.2231 0.858 -0.389 -0.335 49 39 30
-2358.7520 5756.3472 454.9901 -0.817 -0.573 -0.064 26 16 7
-1716.8167 5137.4165 29.8240 0.036 -0.981 -0.189 194 154 162
-1766.5148 5427.4023 -3.3769 -0.699 -0.693 0.174 214 184 188
-1625.3967 5543.2598 -165.6493 0.986 -0.016 -0.164 255 254 244
-1626.2498 5577.6211 -174.2450 0.986 -0.016 -0.164 249 243 230
-1627.1129 5612.3828 -182.9406 0.986 -0.016 -0.164 122 105 89
-1667.3964 5889.6475 -221.3818 0.986 -0.063 -0.156 116 46 28
-1748.3640 6221.1890 -236.9881 -0.257 -0.733 -0.629 142 60 46
-1733.9712 6240.8145 -255.6714 -0.278 -0.774 -0.569 165 59 51
-1697.6464 6141.9663 -262.2971 -0.358 -0.731 -0.581 188 65 62
-1636.0916 6400.9951 -390.0256 0.384 -0.917 -0.104 255 97 112
-1619.8707 6375.8462 -398.1718 0.378 -0.921 -0.094 255 98 113
-1606.1610 6360.6250 -406.7050 0.434 -0.901 -0.017 255 100 114
-1531.6406 6215.0288 -435.9187 0.388 -0.603 -0.697 255 98 113
-432.2149 4085.4521 -871.9595 0.135 -0.989 0.052 252 30 84
-420.4613 4090.7661 -884.2908 0.096 -0.990 0.101 252 95 116
-329.7469 4022.1926 -949.5322 -0.330 -0.457 0.826 251 108 121
-320.4063 3976.6975 -945.7523 -0.406 -0.559 0.723 245 77 103
-49.1589 3148.8574 -970.7255 0.466 -0.741 -0.482 209 1 21
-44.6013 3155.8516 -976.8547 0.455 -0.739 -0.497 208 3 20
-40.1651 3183.1648 -988.4213 -0.414 -0.825 0.384 223 21 37
-3896.1392 5694.7710 1876.9304 0.426 -0.506 0.750 143 107 80
-3583.4998 5703.4614 1585.2954 0.858 -0.445 0.257 99 59 30
-3590.2793 5731.2930 1583.8895 0.686 -0.559 -0.466 105 67 38
-3460.0754 5949.3965 1403.2627 0.809 -0.549 -0.209 111 70 41
-3455.2192 5959.2974 1396.0385 0.809 -0.549 -0.209 105 65 37
-3410.3379 5898.0918 1371.4017 0.866 -0.500 0.021 82 45 18
-3398.5112 5895.4453 1361.1904 0.859 -0.511 0.027 69 33 9
-3384.0505 5888.0596 1349.8496 0.856 -0.517 0.012 68 32 7
-3230.3311 5757.1758 1243.7439 0.571 -0.820 0.046 55 31 21
-3150.9089 5665.9019 1195.4471 0.075 -0.982 0.174 29 20 6
-3189.7485 5850.7158 1180.3942 0.455 -0.883 0.115 35 21 10
-3026.5369 5827.7148 1035.7446 0.936 -0.314 -0.159 118 98 82
-3026.6816 5847.9229 1030.3037 0.946 -0.303 -0.118 119 99 81
-3023.4656 5901.9648 1012.4197 0.971 -0.212 -0.108 32 13 1
-2860.4619 5835.0649 880.0732 0.383 -0.567 0.730 42 30 22
-2860.2014 5855.4482 874.2089 0.375 -0.366 0.852 30 19 10
-2858.1497 5872.1763 867.6959 0.372 -0.359 0.856 32 20 12
-2560.3596 6396.7202 447.4882 0.101 -0.987 -0.124 52 35 25
-2548.8357 6394.1973 437.5229 -0.200 -0.976 0.088 46 28 19
-1752.3029 5069.5493 66.0494 -0.186 -0.913 -0.363 200 171 166
-1634.7948 5546.2305 -174.1669 0.995 -0.020 -0.094 252 251 247
-1633.3900 5572.4780 -182.7077 0.995 -0.020 -0.098 255 254 248
-1748.0975 6221.4336 -255.6166 -0.251 -0.732 -0.633 127 52 45
-1705.0164 6170.7578 -281.4929 0.286 -0.645 -0.709 186 84 87
-1698.7546 6183.8643 -290.9016 0.286 -0.645 -0.709 201 91 95
-1631.4281 6343.5371 -397.2382 0.232 -0.792 -0.565 246 81 101
-1546.7072 6279.8545 -458.0492 0.387 -0.585 -0.713 253 83 102
-1549.8496 6334.5479 -470.2304 0.455 -0.547 -0.702 252 82 101
-1486.3401 6147.5439 -477.3965 0.404 -0.611 -0.680 251 82 101
-1480.6698 6850.3242 -676.5213 0.232 -0.774 -0.589 238 135 129
-960.0438 5210.1431 -705.6929 0.612 -0.566 -0.553 234 127 118
-410.0604 4049.7219 -894.3779 -0.220 -0.957 -0.191 255 165 143
-79.8382 3979.3682 -1180.4731 0.188 -0.759 -0.623 225 7 31
-62.4973 3139.1389 -964.7184 0.557 -0.406 -0.724 218 2 25
-53.6582 3173.7888 -982.4548 0.531 -0.404 -0.745 216 3 25
-49.2365 3198.1863 -993.2761 0.522 -0.408 -0.750 222 9 31
-3899.0547 5652.2466 1873.4811 0.397 -0.572 0.718 137 101 75
-3885.6516 5647.5996 1862.3827 0.397 -0.572 0.718 122 86 60
-3467.8975 5926.0850 1398.5243 0.802 -0.547 -0.242 111 72 43
-3431.0095 5879.4561 1377.4081 0.889 -0.456 0.047 106 65 37
-3304.2002 5799.4409 1282.4503 -0.734 -0.626 0.262 75 39 15
-3225.0530 5692.5269 1239.0563 0.460 -0.884 0.086 82 49 36
-3221.0547 5721.5884 1227.2626 0.495 -0.854 0.163 57 29 21
-3240.3806 5775.3379 1230.1564 0.136 -0.988 0.068 42 21 8
-3211.8618 5741.4175 1213.2379 -0.204 -0.960 0.194 33 19 8
-3200.0500 5831.7139 1177.1582 0.272 -0.962 -0.017 36 21 10
-3204.1907 5858.5488 1173.5099 0.440 -0.891 0.115 35 21 10
-3033.1619 5840.6919 1020.3471 0.944 -0.308 -0.121 160 139 120
-3026.3037 5867.0737 1006.6553 0.944 -0.308 -0.121 76 54 39
-2866.4553 5806.0303 875.8626 0.349 -0.573 0.741 26 16 7
-2853.9839 5800.6538 865.8292 0.349 -0.573 0.741 26 16 7
-2857.3342 5828.4443 861.1840 0.399 -0.535 0.745 23 13 4
-2850.9167 5835.8389 853.1899 0.928 -0.328 0.173 25 15 6
-2848.7898 5852.3447 846.6245 0.930 -0.323 0.175 26 13 5
-2842.0830 5880.4478 832.5933 0.176 -0.941 -0.287 28 17 11
-2834.0271 5884.5825 823.9926 0.176 -0.941 -0.287 29 18 14
-2832.3896 5902.4976 817.4870 0.183 -0.942 -0.282 28 17 13
-2795.1211 5974.4556 762.9788 0.474 -0.560 0.680 17 6 0
-2584.4165 6404.5522 448.3230 0.131 -0.979 -0.154 59 41 31
-2575.0430 6407.6206 438.8010 0.120 -0.982 -0.147 54 36 26
-2559.7883 6395.5947 428.0467 -0.200 -0.976 0.088 47 29 19
-1743.9407 5069.7441 43.0946 0.442 -0.688 -0.575 206 173 168
-1679.0952 5150.8252 -39.4540 -0.223 -0.927 0.301 252 251 247
-1661.8456 5122.2593 -47.4445 -0.266 -0.917 0.296 252 251 249
-1639.0380 5562.1147 -191.0842 0.972 -0.091 -0.218 245 244 239
-1639.9644 5596.6963 -199.8628 0.971 -0.090 -0.223 225 222 217
-1761.1763 6234.4331 -265.4710 -0.251 -0.732 -0.633 95 25 21
-1692.2194 6310.2354 -350.3503 0.270 -0.847 -0.458 231 105 109
-1668.8962 6374.8926 -389.9302 0.281 -0.786 -0.551 206 63 73
-1632.8147 6310.8525 -405.4496 -0.261 -0.965 -0.035 211 61 73
-1527.7864 6455.6597 -542.9076 -0.329 -0.918 -0.220 252 72 97
-1490.2648 6798.0913 -673.0084 0.169 -0.680 -0.714 239 140 134
-898.7781 5277.4878 -796.2482 0.811 -0.449 -0.375 226 130 114
-99.5588 3579.6440 -1062.1816 0.794 -0.357 0.491 254 23 55
-66.5684 3128.8359 -967.0826 0.514 -0.410 -0.753 217 3 25
-57.9881 3179.2166 -989.0532 0.522 -0.408 -0.750 217 4 26
-53.6121 3205.9746 -1000.5546 0.522 -0.408 -0.750 225 11 33
-49.3100 3248.3464 -1016.3380 0.387 -0.540 -0.747 226 17 36
-44.7796 3276.7544 -1028.4419 0.411 -0.546 -0.730 227 28 42
-4045.6323 5807.0518 1947.4904 -0.231 -0.617 0.752 104 68 42
-3885.7495 5631.8779 1849.0280 0.678 -0.625 0.388 95 59 33
-3562.4690 5570.3042 1567.6053 0.720 -0.572 0.394 95 52 28
-3569.2388 5613.5601 1561.6909 0.172 -0.889 0.425 95 58 31
-3435.6875 5869.1836 1366.3521 0.889 -0.456 0.047 105 65 39
-3432.4768 5881.7119 1359.8601 0.886 -0.457 0.071 99 59 33
-3240.5957 5684.3394 1238.0736 0.460 -0.884 0.086 86 52 28
-3232.5129 5687.7246 1229.6516 0.460 -0.884 0.086 84 49 37
-3251.1169 5776.2642 1221.9323 0.088 -0.994 0.067 42 21 8
-3023.0630 5941.8286 964.6017 0.737 -0.514 -0.439 27 15 2
-2863.5195 5904.6836 827.6171 0.165 -0.980 -0.111 22 11 5
-2854.6521 5907.1792 818.7202 0.165 -0.980 -0.111 21 10 6
-2850.4387 5919.6260 811.3247 0.212 -0.977 -0.015 22 11 7
-2850.9478 5942.2749 805.4226 0.310 -0.945 0.102 22 11 7
-2846.1980 5953.7559 797.8029 0.706 -0.604 -0.371 22 11 7
-2804.7837 5995.7295 747.7216 0.588 -0.509 0.628 18 7 1
-2568.2004 6390.4521 418.0327 -0.193 -0.973 0.129 47 29 19
-2071.0730 5564.3027 191.0783 0.569 -0.799 0.193 32 15 8
-1757.4341 5061.3618 42.7491 0.442 -0.688 -0.575 215 180 176
-1743.7384 5069.7046 27.7455 0.228 -0.583 -0.780 199 162 160
-1741.0125 5111.5366 13.4565 0.440 -0.670 -0.598 196 152 159
-1814.2988 5496.9375 -27.2557 -0.701 -0.696 0.156 255 251 247
-1772.8108 5394.2285 -36.6969 -0.693 -0.674 0.255 252 252 247
-1660.4635 5575.8623 -191.6230 0.551 -0.649 0.524 252 251 247
-1653.4647 5582.5005 -199.9584 0.495 -0.730 0.471 242 241 237
-1640.2488 5567.3516 -207.9091 0.838 -0.099 -0.536 253 252 247
-1642.3470 5606.1167 -216.8770 0.840 -0.097 -0.534 173 168 164
-1759.3024 6228.7988 -283.9960 -0.379 -0.715 -0.588 95 27 25
-1686.8971 6253.1855 -357.7680 0.383 -0.880 0.280 190 91 86
-1671.1257 6268.4561 -376.6389 0.330 -0.766 -0.551 191 90 86
-1657.4902 6253.8018 -385.1165 0.233 -0.796 -0.559 236 133 129
-1626.7302 6288.0698 -423.1839 -0.205 -0.979 0.009 194 70 74
-1614.5110 6278.6606 -431.8284 0.014 -0.892 -0.452 204 80 83
-1585.4342 6240.5664 -447.9803 0.325 -0.835 -0.445 227 101 105
-1576.1890 6323.8315 -479.9516 0.248 -0.676 -0.694 230 76 86
-1569.3333 6336.5161 -489.8559 0.248 -0.676 -0.694 240 86 96
-1510.9457 6847.8062 -687.6698 0.164 -0.695 -0.700 243 148 141
-989.9910 5292.5347 -731.4966 0.401 -0.901 -0.165 241 141 131
-984.5138 5307.4702 -740.7605 0.396 -0.893 -0.216 241 141 131
-981.9022 5338.8955 -752.0159 0.363 -0.903 -0.229 237 137 127
-977.3878 5359.9438 -762.1099 0.320 -0.925 -0.205 237 137 127
-972.7662 5380.7114 -772.2239 0.284 -0.933 -0.220 237 137 127
-886.6219 4971.5342 -736.7042 0.157 -0.984 0.085 233 136 122
-463.9554 4166.3271 -900.7410 -0.155 -0.673 -0.724 251 27 79
-451.0260 4101.2485 -894.3785 -0.240 -0.684 -0.689 253 36 85
-383.4915 4249.8911 -998.6102 0.083 -0.826 -0.557 254 172 154
-127.2674 3467.5408 -1015.2667 -0.160 -0.972 -0.172 254 84 96
-71.0746 3146.5369 -976.8770 0.452 -0.454 -0.768 216 3 25
-66.4086 3143.9609 -980.4642 0.530 -0.781 -0.330 213 1 23
-53.8225 3262.9016 -1025.5604 0.384 -0.545 -0.746 227 17 36
-39.8508 3319.4343 -1054.3779 0.367 -0.514 -0.775 240 55 65
-20.3016 3140.9319 -1022.2198 0.668 -0.679 -0.304 255 102 103
-4044.2676 5788.8794 1932.9933 -0.231 -0.617 0.752 97 61 35
-4001.0901 5740.8018 1906.7739 -0.231 -0.617 0.752 105 69 43
-3580.4102 5614.9302 1553.9979 0.248 -0.892 0.377 95 58 31
-3451.6670 5842.6880 1370.3840 -0.600 -0.779 -0.183 112 72 46
-3436.4854 5852.1592 1353.6716 0.890 -0.451 0.066 105 65 39
-3416.2839 5834.7773 1339.9521 0.914 -0.404 -0.024 100 60 34
-3426.5159 5870.8833 1339.1442 0.912 -0.409 0.037 78 40 16
-3233.6145 5671.4546 1217.6410 0.445 -0.890 0.102 87 49 38
-3222.4277 5723.5630 1192.5045 -0.209 -0.974 0.085 33 19 8
-3039.6587 5913.6987 969.6815 0.737 -0.514 -0.439 109 92 77
-3030.0767 5935.3071 954.6926 -0.098 -0.839 -0.535 41 29 15
-2817.1479 5912.8184 764.4223 0.191 -0.980 0.061 22 11 7
-2630.0081 5739.3677 640.8600 0.679 -0.317 0.662 32 18 9
-2585.5608 6354.5845 425.0212 -0.227 -0.968 -0.104 59 41 31
-2100.2581 5594.8340 192.6495 0.279 -0.802 -0.528 29 12 5
-2077.5852 5557.5444 182.3034 0.569 -0.799 0.193 32 15 8
-2168.3621 5888.1699 172.2113 0.691 -0.652 0.311 46 26 18
-1758.2609 5064.3813 27.4888 0.228 -0.583 -0.780 203 168 164
-1757.2810 5111.1006 13.3104 0.652 -0.527 -0.545 203 164 168
-1743.2150 5093.6523 5.2763 -0.170 -0.925 -0.340 222 188 192
-1749.7938 5138.8584 -1.4908 -0.192 -0.914 -0.358 247 220 224
-1648.6615 5597.8975 -225.3121 0.840 -0.097 -0.534 221 218 213
-1772.4440 6241.8716 -293.9450 -0.354 -0.720 -0.597 133 72 65
-1758.3468 6226.5186 -302.6033 -0.033 -0.853 -0.521 167 100 94
-1742.2642 6203.6753 -310.9672 -0.094 -0.853 -0.513 158 84 83
-1733.6846 6208.2773 -320.1986 -0.094 -0.853 -0.513 168 90 88
-1701.7120 6235.8877 -357.5725 0.645 -0.584 -0.493 178 101 89
-1694.7325 6246.7979 -367.1183 0.383 -0.880 0.280 195 118 105
-1688.2355 6259.6616 -376.7737 0.336 -0.768 -0.545 189 112 100
-1667.9678 6257.6206 -394.9130 0.233 -0.796 -0.559 165 88 76
-1658.7980 6260.3057 -404.1449 -0.226 -0.960 -0.167 204 114 106
-1647.4463 6254.4502 -412.9657 -0.241 -0.956 -0.165 201 107 100
-1636.7452 6290.0742 -432.9702 -0.205 -0.979 0.009 153 56 51
-1624.2349 6279.6030 -441.5498 0.039 -0.873 -0.486 192 96 91
-1602.1405 6230.4897 -448.0025 0.265 -0.821 -0.506 227 130 125
-1594.9760 6280.9092 -468.9441 0.308 -0.752 -0.582 198 94 90
-1599.0409 6337.8525 -481.3678 0.550 -0.543 -0.635 177 49 51
-1590.7406 6344.5762 -490.9441 0.253 -0.666 -0.701 192 58 61
-1586.7830 6369.3579 -501.6400 0.253 -0.662 -0.705 208 72 76
-1542.7356 6480.5000 -573.8982 0.660 -0.459 -0.595 233 76 91
-1030.2783 5426.6309 -747.7884 -0.399 -0.895 0.202 242 148 135
-495.8233 3907.7917 -809.8943 -0.021 -0.810 0.586 253 40 80
-134.5495 3391.2808 -996.8198 0.069 -0.583 -0.809 255 90 105
-60.5465 3080.2888 -976.8135 0.011 -0.940 -0.340 227 10 33
-58.1631 3259.5835 -1029.9536 0.551 -0.564 -0.615 228 17 36
-3902.8853 5334.8696 1914.3619 0.047 -0.763 0.645 133 88 55
-3814.8660 5873.7188 1678.5422 0.228 -0.299 0.926 97 50 30
-3537.7119 5813.1172 1440.0924 0.947 -0.320 0.023 82 38 11
-3522.1333 5839.2559 1418.2142 0.932 -0.355 -0.078 70 26 1
-3269.5747 5682.1113 1230.1614 0.019 -0.971 -0.240 109 73 51
-3259.6970 5682.2808 1220.9950 0.044 -0.967 -0.251 121 83 61
-3238.8809 5680.6768 1202.2402 -0.002 -0.926 -0.377 97 62 56
-3230.8113 5684.0854 1193.8136 -0.002 -0.926 -0.377 56 26 18
-3258.3760 5752.2217 1199.7128 -0.199 -0.956 0.217 33 12 0
-3230.1035 5719.0474 1183.1313 -0.365 -0.928 -0.076 31 16 5
-3071.4724 6018.5752 950.7821 -0.195 -0.926 -0.323 40 26 15
-2931.3716 6048.5693 812.8549 0.676 -0.313 0.667 21 10 6
-2485.9160 5477.8481 565.3801 0.597 -0.379 0.707 34 19 14
-2659.0256 6459.4395 443.5994 0.339 -0.644 -0.686 49 32 22
-1803.9337 5102.0059 43.6719 -0.314 -0.855 -0.412 206 173 168
-1764.9460 5109.7300 5.4677 0.652 -0.527 -0.545 253 226 228
-1767.4946 5142.4697 -1.5714 0.419 -0.661 -0.622 255 233 236
-1765.6132 5162.0894 -8.9360 0.406 -0.638 -0.655 255 237 237
-1655.8124 5530.8877 -216.0817 0.758 -0.450 -0.473 255 254 250
-1693.8417 5855.9824 -274.2328 0.814 -0.126 -0.567 89 45 32
-1738.9475 6228.9707 -339.5900 0.371 -0.864 0.340 116 51 36
-1730.6211 6234.6763 -348.9126 0.372 -0.884 0.285 101 38 21
-1710.7139 6233.9854 -367.0903 0.645 -0.584 -0.493 104 41 24
-1692.5970 6277.7119 -396.3565 0.652 -0.560 -0.511 107 46 29
-1682.1227 6275.5142 -405.3947 0.236 -0.797 -0.556 108 46 29
-1681.7576 6312.4253 -416.3199 -0.080 -0.970 -0.228 108 38 23
-1671.7817 6312.3096 -425.4951 -0.212 -0.977 -0.011 116 43 29
-1650.8032 6307.9590 -443.6119 -0.212 -0.977 -0.011 131 56 43
-1633.4946 6278.6519 -451.1820 0.045 -0.869 -0.493 117 44 30
-1612.2483 6233.2402 -457.7675 0.265 -0.821 -0.506 122 48 35
-1608.5483 6337.6660 -491.1379 0.252 -0.667 -0.701 169 61 57
-1604.7308 6362.7290 -501.8511 0.253 -0.662 -0.705 173 59 56
-1597.9789 6376.0000 -511.8904 0.253 -0.662 -0.705 174 59 56
-1591.9279 6392.3213 -522.1579 0.260 -0.663 -0.702 174 58 56
-1013.2722 5427.2188 -779.4562 0.432 -0.880 -0.197 235 148 133
-1006.7055 5437.1929 -788.3788 0.456 -0.855 -0.247 235 148 133
-1002.5388 5460.9419 -799.0375 0.447 -0.851 -0.275 235 148 133
-1006.0953 5578.2930 -829.4172 0.383 -0.910 -0.160 237 143 127
-564.1459 4168.0815 -832.8441 -0.401 -0.649 0.647 226 111 92
-451.9150 4117.9590 -922.0637 -0.282 -0.723 -0.631 255 150 137
-74.3094 3110.8704 -981.7338 -0.089 -0.917 -0.388 213 2 24
-69.5122 3097.4858 -982.3226 0.091 -0.950 -0.297 219 6 28
-38.7124 4263.5654 -1345.2482 -0.665 -0.739 -0.107 254 92 92
-4060.7886 5499.1948 1995.3987 0.546 -0.837 -0.030 136 93 58
-4046.8325 5493.9370 1984.0459 0.513 -0.858 -0.021 137 93 58
-4033.8442 5489.9995 1973.2040 0.533 -0.776 0.338 138 92 58
-3985.1780 5731.6641 1858.3198 0.704 -0.344 0.622 89 53 27
-3750.1741 5579.4951 1685.5844 0.135 -0.675 0.725 182 137 107
-3761.6309 5659.7822 1672.9025 0.543 -0.249 0.802 101 52 20
-3638.1023 5530.5181 1596.3760 0.547 -0.495 0.675 98 50 27
-3745.2588 5730.4829 1637.3231 0.436 -0.335 0.835 98 51 31
-3649.3584 5676.0039 1564.6272 0.923 -0.315 0.219 129 89 64
-3626.1233 5655.0776 1549.2516 0.922 -0.308 0.234 127 90 63
-3630.3455 5694.6196 1541.6953 0.127 -0.894 0.429 121 84 57
-3624.1553 5701.1143 1534.1036 0.039 -0.871 0.490 116 79 52
-3610.5188 5695.5557 1523.1332 0.039 -0.871 0.490 119 83 57
-3586.8948 5673.7061 1507.6665 0.036 -0.877 0.479 127 89 61
-3581.8457 5698.6514 1495.7841 0.900 -0.398 0.178 149 102 72
-3551.4771 5698.9126 1467.6917 0.925 -0.364 0.112 152 101 74
-3531.6609 5802.5107 1419.4078 0.940 -0.335 0.055 87 43 16
-3535.1865 5825.9268 1415.8790 0.938 -0.345 -0.048 83 39 12
-3236.5122 5712.2373 1173.2601 -0.368 -0.925 -0.099 33 19 8
-3117.4502 5513.5537 1120.9585 -0.327 -0.873 0.362 29 21 7
-3237.0391 5861.8560 1130.4163 -0.459 -0.584 0.669 71 53 43
-3041.8726 5837.4287 957.4386 0.918 -0.396 0.006 90 69 51
-3037.2134 5848.1235 950.0431 0.918 -0.396 0.006 94 76 60
-2905.3706 5783.7769 847.0457 -0.178 -0.844 -0.506 23 13 4
-2905.6350 5804.6851 841.2345 -0.176 -0.849 -0.499 16 6 0
-2899.6780 5812.8896 833.3628 -0.435 -0.861 -0.266 15 5 0
-2951.2317 6134.9194 787.6632 0.537 -0.432 0.725 30 19 15
-2678.7559 6455.5200 443.4422 0.125 -0.651 -0.749 48 31 21
-1701.0018 5849.3745 -283.0482 0.814 -0.126 -0.567 121 83 67
-1768.1429 6228.6367 -330.9424 0.853 -0.492 -0.173 133 70 61
-1748.0212 6227.2852 -349.1145 0.372 -0.884 0.285 145 84 68
-1738.4480 6228.3706 -358.2606 0.372 -0.884 0.285 148 89 71
-1728.8770 6229.4551 -367.4046 0.372 -0.884 0.285 138 80 62
-1718.5387 6227.6636 -376.4233 0.369 -0.881 0.296 120 62 43
-1702.6501 6279.6030 -406.1232 0.621 -0.577 -0.532 152 94 75
-1694.3060 6285.6157 -415.5624 0.308 -0.760 -0.572 152 93 75
-1692.1740 6315.6021 -426.2134 -0.080 -0.970 -0.228 154 94 76
-1685.1475 6326.9634 -435.9862 -0.370 -0.928 -0.049 157 95 78
-1674.1725 6323.0518 -444.9784 -0.370 -0.928 -0.049 162 98 81
-1644.2950 6283.7471 -461.1591 0.045 -0.869 -0.493 170 108 90
-1619.7188 6344.1631 -501.3288 0.252 -0.667 -0.701 212 123 113
-1615.9530 6369.3594 -512.0999 0.253 -0.662 -0.705 215 122 112
-1609.2104 6382.6636 -522.1732 0.253 -0.662 -0.705 216 122 112
-1558.9390 6466.8584 -592.9346 0.656 -0.471 -0.590 255 150 147
-1555.7114 6496.4692 -604.4875 0.659 -0.473 -0.585 255 160 156
-1079.5903 6282.9648 -981.9039 0.971 -0.200 -0.133 237 141 125
-470.6008 3562.8816 -755.9853 0.589 -0.727 0.354 247 49 78
-499.6422 4274.2637 -935.2115 0.620 -0.320 0.717 255 32 86
-136.0718 3461.7849 -1035.3290 0.493 -0.252 0.832 247 67 82
-4056.0137 5712.0830 1911.1648 0.735 -0.450 0.507 112 76 50
-3917.0952 5630.4731 1806.9360 0.721 -0.386 0.576 87 51 25
-3759.4307 5593.1636 1672.4712 0.548 -0.458 0.700 185 136 105
-3659.8447 5548.3838 1593.7407 0.522 -0.503 0.689 98 51 27
-3648.6924 5625.9395 1560.7843 0.287 -0.937 0.201 160 113 93
-3660.1643 5660.2886 1561.3197 0.936 -0.333 0.115 154 111 87
-3670.5076 5693.0210 1561.2872 0.937 -0.324 0.130 154 113 89
-3637.2827 5688.9106 1531.8544 0.127 -0.894 0.429 131 91 65
-3601.5327 5680.5454 1501.3370 0.095 -0.897 0.432 122 84 56
-3598.4617 5708.7144 1490.2703 0.900 -0.333 0.282 126 80 49
-3592.7185 5716.0200 1482.8390 0.898 -0.336 0.282 137 86 57
-3590.3557 5728.9043 1476.8936 0.887 -0.306 0.345 145 94 65
-3540.2742 5764.7568 1420.2350 0.961 -0.274 -0.048 153 109 80
-3534.4487 5789.4668 1407.6398 0.941 -0.333 0.064 96 52 23
-3398.5000 5749.1450 1294.0782 0.509 -0.217 0.833 76 36 10
-3396.1577 5762.7651 1287.9366 0.531 -0.199 0.824 66 28 4
-3366.3601 5746.1289 1265.3260 0.535 -0.196 0.822 83 47 25
-3351.3955 5737.6035 1254.0206 0.538 -0.195 0.821 106 72 47
-3271.1250 5702.1934 1190.3605 -0.653 -0.703 -0.280 101 67 62
-3250.0637 5718.3799 1166.2090 -0.368 -0.925 -0.099 34 20 9
-3261.7336 5869.4941 1132.7904 0.499 -0.633 0.592 38 21 11
-3059.1362 5734.3970 985.4844 0.820 -0.370 0.437 143 116 98
-3073.5632 6001.7720 920.6185 -0.276 -0.935 -0.222 56 39 29
-2894.9817 5823.6724 808.0278 -0.436 -0.873 -0.220 29 19 10
-2882.6899 5818.8213 798.1127 -0.413 -0.875 -0.253 29 19 10
-2869.9431 5812.9756 788.0685 -0.242 -0.919 -0.311 34 23 17
-3070.3704 6343.3984 817.7987 0.596 -0.571 -0.565 44 33 29
-3040.7771 6326.2271 795.5327 0.610 -0.553 -0.567 44 33 28
-2937.1548 6127.0576 758.2172 0.159 -0.857 -0.490 47 36 30
-2357.2915 5778.6909 325.4087 0.346 -0.551 0.759 49 31 21
-2230.8911 5624.1274 254.0503 -0.246 -0.875 0.417 45 28 20
-2207.9846 5813.7344 177.4974 0.172 -0.921 -0.349 33 16 9
-1761.9147 6207.1938 -348.8247 0.373 -0.887 0.272 176 116 107
-1742.8761 6209.5996 -367.0822 0.373 -0.887 0.272 178 116 98
-1733.3595 6210.8022 -376.2085 0.373 -0.887 0.272 161 99 81
-1723.8446 6212.0044 -385.3331 0.373 -0.887 0.272 154 91 74
-1723.4633 6322.1519 -417.8866 0.281 -0.767 -0.577 202 138 121
-1714.9337 6327.7061 -427.3750 0.263 -0.771 -0.580 201 138 121
-1667.0068 6296.5459 -462.4555 -0.218 -0.975 -0.043 202 139 122
-1626.0364 6251.9932 -487.2066 0.310 -0.833 -0.458 230 165 149
-1622.4802 6277.0781 -497.8192 0.376 -0.773 -0.511 237 168 153
-1516.6600 6245.7100 -586.2186 0.215 -0.746 -0.630 251 162 156
-1505.6825 6240.5244 -594.8243 0.205 -0.762 -0.614 252 165 159
-1501.5385 6264.7100 -605.7159 0.203 -0.750 -0.629 252 169 159
-1101.2284 6188.3940 -952.5051 0.926 -0.340 -0.162 248 155 138
-1106.7484 6276.5410 -973.1855 0.895 -0.447 0.009 244 148 132
-575.7299 4165.6904 -845.6885 -0.480 -0.649 0.591 226 111 93
-574.2088 4253.5190 -872.7679 0.139 -0.922 -0.363 237 88 89
-511.5538 4327.3691 -952.1286 0.701 -0.276 0.658 254 31 85
-82.7265 3111.1174 -991.9470 -0.068 -0.935 -0.349 214 2 24
-73.0460 3081.9102 -992.3339 0.114 -0.973 -0.201 227 13 35
-68.7455 3413.1868 -1093.1490 0.565 -0.668 -0.485 231 34 47
-4057.2183 5493.0146 1958.7373 0.798 -0.433 0.418 137 92 59
-3870.2686 5515.9331 1779.6967 -0.304 -0.928 -0.215 95 59 33
-3843.8123 5597.1479 1731.3497 0.650 -0.703 0.288 105 69 42
-3829.9792 5591.6963 1720.2112 0.300 -0.633 0.714 70 33 7
-3815.5261 5585.2725 1708.7882 0.218 -0.538 0.814 88 51 24
-3796.9207 5572.5356 1695.4016 0.218 -0.538 0.814 84 47 21
-3734.9478 5586.2065 1634.2581 0.514 -0.237 0.824 155 106 75
-3654.8250 5619.1572 1550.6996 0.297 -0.934 0.200 145 97 76
-3670.0281 5675.5210 1548.0764 0.942 -0.283 0.179 143 102 76
-3569.5762 5711.1323 1444.9991 0.900 -0.318 0.298 107 56 27
-3564.2974 5719.2495 1437.7393 0.900 -0.318 0.298 107 55 25
-3555.6895 5721.8936 1429.0266 0.957 -0.287 -0.039 104 54 24
-3540.4956 5730.5640 1412.4666 0.960 -0.278 -0.035 97 53 22
-3532.1526 5733.6763 1403.8599 0.961 -0.275 -0.011 128 85 53
-3509.1350 5746.4492 1378.8795 0.682 -0.059 0.729 94 51 19
-3346.3350 5710.6445 1239.4227 0.647 -0.221 0.730 109 74 49
-3206.1340 5638.5747 1131.4934 -0.484 -0.860 0.163 30 20 6
-3266.3691 5840.0859 1127.5339 0.754 -0.400 0.522 37 20 10
-3256.0300 5839.8262 1118.0830 0.515 -0.633 0.578 37 20 10
-3240.2517 5829.4897 1106.5934 -0.416 -0.580 0.700 43 25 15
-2711.1658 5601.5239 686.3060 0.410 -0.741 0.532 53 43 36
-2205.5681 5350.5767 294.4455 0.430 -0.399 -0.810 49 31 19
-2217.9272 5815.1978 168.7220 0.172 -0.921 -0.349 33 16 9
-1801.8451 5073.1436 4.2801 0.433 -0.660 -0.614 255 228 224
-1674.6647 5568.1069 -258.9854 0.718 -0.467 -0.517 239 234 231
-1773.9396 6180.7100 -348.2847 0.431 -0.809 0.400 195 141 135
-1764.2955 6181.3521 -357.3613 0.431 -0.809 0.400 203 144 138
-1754.6550 6181.9941 -366.4347 0.431 -0.809 0.400 180 115 104
-1742.1235 6172.0532 -375.0490 0.434 -0.808 0.398 116 50 37
-1729.1022 6160.1772 -383.5438 0.309 -0.867 0.390 93 27 16
-1714.8656 6143.6504 -391.7859 0.475 -0.754 0.454 129 63 50
-1684.1655 6137.9834 -418.4041 0.385 -0.923 0.014 223 155 143
-1691.1411 6201.1465 -430.6157 0.148 -0.882 -0.447 223 155 143
-1680.2865 6197.1465 -439.4381 0.083 -0.909 -0.409 237 171 158
-1624.4390 6208.2979 -494.1934 0.067 -0.869 -0.491 237 170 157
-1619.4784 6227.4229 -504.4086 0.339 -0.788 -0.514 244 173 161
-1107.7881 6229.5981 -976.5815 0.895 -0.446 -0.001 245 154 137
-507.8600 4357.1943 -976.8677 0.644 -0.727 0.237 248 48 92
-139.1989 3427.6125 -1042.2699 0.571 -0.150 0.807 246 49 69
-81.9998 3093.7551 -996.4565 0.127 -0.971 -0.203 217 7 28
-68.6700 3437.2517 -1110.1080 0.543 -0.522 -0.658 234 48 55
-3927.6333 5381.4062 1855.0397 0.280 -0.709 -0.648 138 92 59
-3865.4661 5583.2534 1737.6619 0.655 -0.710 0.257 124 88 62
-3857.9536 5587.2563 1729.5507 0.655 -0.710 0.257 155 119 94
-3848.5034 5588.3765 1720.5132 0.650 -0.703 0.288 82 47 22
-3729.3438 5546.1255 1623.3524 0.634 -0.231 0.738 166 120 95
-3575.9521 5671.1431 1444.8417 0.586 -0.250 0.771 93 43 16
-3464.1721 5773.8755 1311.2928 0.661 -0.052 0.749 113 74 42
-3359.2876 5680.2456 1242.5833 0.665 -0.447 0.599 85 47 24
-3355.9644 5691.9551 1236.0345 0.672 -0.433 0.601 95 57 36
-3346.8511 5693.5908 1227.1539 0.664 -0.439 0.605 117 79 58
-3376.2522 5780.7290 1228.2776 -0.669 -0.695 -0.264 121 83 62
-3364.3867 5777.7578 1218.2345 -0.659 -0.701 -0.273 120 82 61
-3216.8076 5785.8579 1079.9019 -0.413 -0.581 0.702 55 40 29
-3122.8745 5704.0693 1017.7513 0.234 -0.909 -0.345 70 53 36
-3092.2815 5997.6680 902.1239 -0.268 -0.941 -0.206 83 65 55
-2891.3804 5754.8320 789.4258 -0.413 -0.839 0.353 74 60 50
-2869.7551 5750.9072 770.6779 0.568 -0.344 0.748 73 60 49
-1692.2960 5629.7153 -277.6598 0.837 -0.100 -0.537 255 246 246
-1782.9078 6143.8184 -347.3372 0.338 -0.935 -0.103 137 96 95
-1778.2523 6162.1338 -357.0803 0.420 -0.814 0.402 142 94 95
-1764.9430 6149.5186 -365.5805 0.409 -0.815 0.410 146 92 93
-1755.2578 6149.8462 -374.5981 0.409 -0.815 0.410 76 18 16
-1745.5771 6150.1733 -383.6115 0.409 -0.815 0.410 106 47 40
-1731.2034 6133.3223 -391.8304 0.475 -0.754 0.454 160 100 91
-1721.6362 6133.9365 -400.8247 0.475 -0.754 0.454 208 147 138
-1712.0723 6134.5498 -409.8157 0.475 -0.754 0.454 232 171 162
-1500.4965 6098.9229 -594.0644 0.072 -0.573 0.816 253 183 177
-1215.1262 5769.3071 -758.7103 0.145 -0.652 -0.744 235 171 160
-498.9965 3710.8779 -805.1405 0.300 -0.388 0.872 254 33 77
-159.4976 3437.9509 -1036.5239 0.382 -0.233 0.894 254 83 100
-154.2272 3433.2937 -1039.9907 0.382 -0.233 0.894 255 72 89
-91.9628 3146.6257 -1011.9493 0.641 -0.477 -0.601 215 4 24
-86.8638 3125.3706 -1010.3143 0.309 -0.637 -0.706 217 11 31
-64.9977 3577.4458 -1165.1079 0.627 -0.779 0.015 250 81 81
-3925.2095 5405.6216 1828.3002 0.216 -0.603 -0.768 140 95 62
-3919.0803 5411.1123 1821.0077 0.229 -0.600 -0.767 140 95 62
-3848.8479 5573.1597 1707.6465 0.852 -0.246 0.462 91 57 32
-3706.2729 5541.1089 1586.0448 0.514 -0.504 0.694 127 81 58
-3698.4255 5544.5049 1577.8004 0.577 -0.514 0.635 129 81 57
-3637.0459 5590.1221 1507.5886 0.901 -0.170 0.400 86 42 13
-3492.7900 5718.1558 1336.3158 0.558 -0.045 0.828 108 62 31
-3444.8689 5723.0396 1290.7373 0.661 -0.052 0.749 109 70 37
-3359.7041 5663.2139 1230.3296 0.665 -0.447 0.599 104 66 43
-3356.1790 5674.5010 1223.6917 0.672 -0.433 0.601 95 57 36
-3347.1362 5676.2183 1214.8519 0.664 -0.439 0.605 102 64 43
-3321.7937 5773.9858 1162.1343 -0.769 -0.638 0.031 50 30 16
-3222.6316 5777.7090 1069.7385 -0.413 -0.581 0.702 44 30 19
-2825.0918 6108.7495 604.2971 0.160 -0.613 -0.774 87 64 41
-2340.9031 5762.2876 262.7642 0.142 -0.552 -0.822 65 44 20
-2286.1174 5695.1826 232.5081 0.611 -0.601 0.516 65 39 24
-2263.3325 5660.7422 221.8883 0.343 -0.625 0.701 65 39 24
-2266.6169 5718.0596 207.6811 0.263 -0.550 0.792 54 28 11
-2202.4512 5575.1182 191.5883 -0.075 -0.644 0.761 51 25 10
-2189.3582 5564.9590 182.5905 -0.074 -0.652 0.755 46 23 10
-2201.2727 5770.9980 131.6190 -0.236 -0.971 0.031 48 31 21
-1688.9867 5557.9717 -275.8893 0.705 -0.459 -0.541 255 247 248
-1693.4697 5603.8130 -285.5432 0.837 -0.101 -0.538 255 247 247
-1738.6062 5887.1831 -329.1814 0.833 -0.147 -0.533 144 114 112
-1749.5715 5958.8047 -340.6186 0.793 -0.241 -0.560 154 120 118
-1789.6760 6134.2598 -356.4477 0.949 -0.316 -0.003 158 118 118
-1785.8544 6155.4180 -366.3260 -0.016 -0.972 -0.236 162 116 118
-1768.8561 6129.6694 -374.2321 -0.138 -0.941 -0.309 166 114 116
-1707.5276 6083.2510 -416.7295 0.053 -0.930 -0.363 231 171 163
-791.4298 5015.6621 -939.0430 -0.330 -0.939 -0.096 232 133 114
-630.7405 4545.9253 -945.7439 -0.402 -0.728 0.556 244 80 87
-451.8191 4467.0391 -1086.7224 -0.439 -0.851 0.288 254 160 147
-74.7866 3560.9399 -1161.3851 0.435 -0.729 -0.529 248 66 70
-3647.3022 4958.9673 1690.8354 0.696 -0.589 0.411 149 103 70
-3854.3501 5550.5879 1701.8296 0.856 -0.241 0.457 147 113 88
-3709.3599 5529.9272 1574.7129 0.795 -0.596 0.116 117 71 48
-3652.9106 5695.8091 1472.4579 0.535 -0.810 0.239 139 98 68
-3479.1096 5677.7207 1318.0562 0.671 -0.048 0.740 93 47 16
-3393.5413 5652.1045 1247.1083 0.149 -0.713 0.685 156 117 84
-3375.2825 5655.1670 1229.3820 0.685 -0.453 0.571 136 96 70
-3360.1184 5646.2617 1218.1332 0.665 -0.447 0.599 105 67 44
-3356.5215 5657.3545 1211.4590 0.664 -0.439 0.605 103 65 44
-3452.1150 6025.5840 1187.6907 0.146 -0.685 0.714 36 20 5
-3125.0200 5670.4858 994.5040 0.336 -0.873 0.353 90 77 61
-3121.4749 5682.3721 987.6368 0.282 -0.820 0.498 84 71 55
-3011.3240 5698.5527 881.3942 0.815 -0.403 0.417 105 89 76
-2887.4287 5726.4121 758.9641 0.595 -0.325 0.735 79 65 54
-2703.9636 5710.2627 595.0836 -0.449 -0.868 -0.210 109 80 64
-2794.1443 6017.3516 584.8839 0.122 -0.634 -0.764 103 75 53
-2781.9690 6104.6050 547.2127 -0.654 -0.756 0.002 101 69 44
-2345.6465 5823.6460 231.0503 0.255 -0.730 0.635 73 45 31
-2307.8638 5751.3662 218.2195 0.291 -0.431 0.854 73 45 31
-2266.6624 5693.9834 197.7243 0.270 -0.599 0.754 59 32 15
-2215.6614 5585.8086 183.6228 -0.070 -0.652 0.755 48 22 7
-2201.8157 5573.7905 174.5313 -0.070 -0.652 0.755 40 15 2
-1802.1161 5075.4585 -41.9949 0.419 -0.382 -0.824 255 239 238
-1766.4172 5092.6230 -80.0435 0.473 -0.612 -0.634 255 243 243
-1731.5087 5734.9849 -307.0323 0.815 -0.127 -0.565 255 251 244
-1741.4342 5865.3242 -337.4425 0.785 -0.178 -0.594 204 177 174
-1794.9598 6119.5425 -365.3239 0.954 -0.299 -0.027 213 172 174
-1793.3580 6148.3882 -375.5485 0.016 -0.982 -0.188 217 170 173
-1765.8464 6120.0381 -392.2572 -0.128 -0.946 -0.299 237 179 176
-1740.8317 6100.0015 -409.1912 -0.093 -0.947 -0.308 219 160 154
-1728.7190 6091.2192 -417.6701 0.015 -0.919 -0.395 240 181 175
-1517.0011 5647.2241 -477.7458 -0.006 -0.998 -0.068 241 176 172
-1201.0039 5493.2061 -721.7245 0.200 -0.618 -0.760 248 186 175
-587.0850 4265.3237 -913.9984 0.327 -0.399 0.857 254 41 77
-473.2111 4553.8608 -1106.2914 -0.494 -0.814 0.305 253 166 145
-428.9825 4163.3110 -1028.4979 -0.512 -0.742 0.432 255 159 148
-105.7411 3001.6724 -973.4576 0.852 -0.207 -0.482 227 1 28
-3904.5535 5197.1606 1838.5056 0.224 -0.912 0.344 162 118 83
-4006.7510 5637.9087 1797.5433 0.914 -0.331 0.236 103 66 39
-4008.5056 5655.4937 1793.7734 0.791 -0.331 0.515 83 47 21
-3716.8477 5525.5210 1565.4012 0.323 -0.584 0.745 125 77 55
-3714.5166 5537.3452 1559.6382 0.299 -0.600 0.742 125 77 53
-3695.8416 5524.0859 1546.5269 0.299 -0.595 0.746 124 73 47
-3433.6863 5502.1294 1312.2135 -0.098 -0.875 -0.474 149 102 72
-3401.3320 5630.8418 1243.0632 0.717 -0.117 0.687 150 111 78
-3397.1882 5640.8447 1236.1909 0.149 -0.713 0.685 151 112 79
-3375.8254 5621.3896 1222.5050 0.141 -0.693 0.707 161 122 91
-3373.4893 5634.5112 1216.3401 0.132 -0.722 0.679 147 107 81
-3364.3298 5670.5571 1196.8840 0.651 -0.398 0.646 109 71 50
-3219.4912 5697.8135 1055.3701 0.252 -0.917 0.310 33 20 11
-3074.0244 5630.0127 942.3787 -0.107 -0.944 0.313 68 55 39
-3033.7688 5572.4077 923.0008 0.233 -0.810 -0.537 64 51 35
-2850.5288 5592.0610 748.5071 -0.089 -0.896 0.435 60 46 35
-2751.3977 5545.7192 671.5491 0.435 -0.777 0.454 30 24 12
-2749.9534 5562.5137 665.0800 0.385 -0.786 0.484 26 20 8
-2724.6064 5650.5410 614.8272 0.286 -0.642 -0.711 21 7 0
-2644.3484 5643.1411 543.3004 -0.042 -0.683 -0.730 119 85 62
-2626.3752 6028.1323 408.9179 0.816 -0.571 0.091 103 63 42
-2630.2212 6061.2026 402.3301 0.801 -0.564 0.200 94 58 41
-2604.9275 6025.1558 390.1091 -0.531 -0.728 -0.434 90 55 39
-2537.7583 5984.3711 340.8370 0.517 -0.517 0.682 88 54 39
-2505.8943 6004.2534 305.4533 0.001 -0.705 -0.709 86 56 34
-2287.2336 5698.6646 197.9590 0.328 -0.428 0.842 73 46 29
-2229.9058 5599.0635 175.7406 -0.121 -0.682 0.721 46 20 5
-2207.2041 5564.1274 165.5629 -0.064 -0.650 0.757 35 10 0
-2190.2407 5543.8770 156.1655 0.715 -0.598 -0.362 35 16 4
-2229.0715 5795.3667 114.8792 -0.223 -0.974 0.029 48 31 21
-1823.8123 4926.8540 8.1475 0.711 -0.631 0.311 254 219 215
-1806.0356 5136.4224 -72.3522 0.420 -0.573 -0.704 252 240 240
-1610.8291 5293.5635 -299.9376 0.761 -0.559 0.328 244 239 232
-1626.8674 5377.5889 -310.9142 0.674 -0.697 0.244 255 249 242
-1661.2277 5525.5859 -324.6284 0.654 -0.694 0.302 234 218 213
-1653.4493 5529.3013 -332.9174 0.654 -0.694 0.302 204 178 175
-1783.7242 6150.0864 -403.1791 -0.048 -0.974 -0.219 215 158 155
-1738.5699 6092.9795 -427.2135 -0.228 -0.893 -0.389 223 164 158
-1643.7793 5851.0664 -440.3105 0.103 -0.989 -0.106 230 171 165
-1447.8339 5190.8457 -418.3562 -0.350 -0.933 -0.083 230 166 161
-1494.1813 5526.7002 -478.5579 0.118 -0.960 -0.254 241 176 172
-422.9872 4105.0601 -1028.2448 -0.573 -0.733 0.367 255 137 141
-403.3664 3962.3289 -1002.5906 -0.622 -0.559 0.548 245 93 112
-173.5864 3558.4534 -1090.2200 0.036 -0.546 0.837 255 70 87
-168.1087 3553.4468 -1093.7238 0.036 -0.546 0.837 255 57 75
-94.8884 3328.9177 -1092.3099 0.313 -0.794 -0.521 223 27 41
-89.3995 3550.6694 -1165.2415 0.359 -0.788 0.500 238 51 57
-84.1135 3546.8779 -1168.9409 0.331 -0.832 0.446 247 67 70
-78.4800 4268.0503 -1394.8931 0.054 -0.623 0.781 245 107 96
-4033.4470 5332.3481 1898.4514 0.031 -0.914 0.404 168 124 89
-3707.0037 4989.5244 1704.3727 0.598 -0.589 0.543 163 117 84
-3667.7256 4960.6455 1677.2001 0.019 -0.796 -0.605 160 114 81
-3647.6753 4945.5093 1663.4510 0.131 -0.832 -0.539 155 109 76
-4056.2239 5531.4854 1857.8699 0.426 -0.509 -0.748 155 109 76
-4008.3303 5624.6411 1785.0850 0.914 -0.331 0.236 114 77 50
-3783.3477 5474.0278 1624.8679 0.276 -0.623 0.732 68 34 9
-3754.5369 5445.9585 1607.0636 0.643 -0.759 0.101 65 32 7
-3745.3381 5447.0903 1598.2612 0.648 -0.755 0.098 66 28 5
-3738.5835 5451.8882 1590.5724 0.648 -0.755 0.098 73 30 9
-3738.2200 5466.3218 1585.7799 0.657 -0.750 0.077 78 31 11
-3674.2705 5475.1230 1524.2972 0.278 -0.420 0.864 128 77 51
-3453.2815 5437.5605 1332.8298 0.084 -0.979 -0.184 173 123 96
-3430.5625 5496.5796 1293.7227 0.239 -0.913 -0.331 166 119 89
-3423.5674 5501.2729 1285.8448 0.239 -0.913 -0.331 136 89 59
-3421.2744 5513.7861 1279.8727 -0.165 -0.976 -0.142 108 61 31
-3392.8984 5616.1128 1222.1901 0.237 -0.601 0.763 156 117 84
-3386.4973 5622.2207 1214.4214 -0.004 -0.618 0.786 159 120 89
-3232.1758 5630.5874 1070.0284 0.350 -0.867 0.355 50 32 20
-3228.7170 5660.0664 1057.7448 0.332 -0.868 0.369 37 23 12
-3238.7241 5732.5669 1044.5455 0.612 -0.705 0.359 61 47 36
-3216.1106 5709.6104 1030.8566 0.707 -0.697 0.123 73 59 48
-3222.6992 5740.0137 1027.5198 0.618 -0.653 0.437 90 76 65
-3097.0054 5654.5435 938.4186 -0.126 -0.721 0.681 40 27 11
-3058.1223 5599.8096 919.5955 0.188 -0.800 -0.570 40 27 11
-3032.1633 5624.7065 888.0509 0.213 -0.817 -0.535 83 67 52
-2943.9675 5604.8149 813.1509 -0.169 -0.880 0.443 52 34 24
-2935.4780 5607.1909 804.6157 -0.132 -0.877 0.463 55 37 27
-2923.6848 5603.0503 795.0577 -0.110 -0.830 0.547 55 37 27
-2843.1133 5576.9619 729.0778 -0.075 -0.904 0.420 31 17 6
-2820.3689 5550.3062 716.4114 0.020 -0.912 0.409 31 17 6
-2803.7615 5535.9443 705.5868 0.043 -0.930 0.365 30 17 6
-2792.3552 5532.0923 696.2952 0.038 -0.933 0.359 25 16 6
-2766.0996 5517.1968 676.7697 -0.179 -0.872 0.455 23 17 5
-2754.4800 5571.8867 649.1991 -0.253 -0.918 -0.307 21 15 3
-2764.4475 5863.5132 568.2778 -0.334 -0.833 -0.442 130 87 65
-2658.6382 5653.4790 535.9255 -0.035 -0.694 -0.719 132 89 70
-2673.1458 6114.5439 406.8384 0.867 -0.494 0.064 118 72 52
-2642.7942 6115.4653 378.6634 0.830 -0.555 -0.057 112 72 52
-2587.7188 6081.2095 338.6350 0.778 -0.462 0.426 108 69 50
-2440.1082 6014.9312 223.4664 0.302 -0.661 0.687 88 62 45
-2428.3931 6010.5083 214.0674 0.302 -0.661 0.687 88 62 45
-2316.7561 5750.3237 191.8508 0.430 -0.413 0.803 90 64 47
-2283.4773 5689.3188 180.1142 0.128 -0.738 0.663 78 53 33
-2212.4746 5554.2119 156.6021 -0.064 -0.650 0.757 42 17 3
-1886.1654 5125.5806 -10.8481 0.760 -0.411 0.504 249 214 210
-1826.0320 5026.0488 -35.3613 0.392 -0.352 -0.850 249 220 216
-1827.0732 5198.9521 -87.8125 0.369 -0.806 -0.463 255 247 246
-1624.4232 5370.1104 -326.8996 0.644 -0.720 0.258 251 238 234
-1621.3352 5389.1450 -335.6167 0.659 -0.706 0.259 219 193 192
-1709.0092 5722.6035 -358.0539 0.872 -0.489 -0.012 210 173 173
-1557.4111 5438.5991 -409.6335 -0.572 -0.783 -0.244 245 186 180
-1535.2065 5420.8081 -424.5421 -0.577 -0.780 -0.242 234 175 169
-1489.4099 5378.5703 -453.5784 -0.527 -0.820 -0.222 235 170 166
-1479.7532 5374.4087 -461.1667 -0.527 -0.820 -0.222 235 170 166
-1500.6895 5519.2915 -486.6808 0.029 -0.948 -0.317 247 182 178
-646.5065 4569.8130 -978.3173 0.075 -0.951 0.299 249 57 80
-528.0002 4156.6621 -959.5963 -0.013 -0.844 -0.536 249 32 73
-529.0399 4219.1782 -977.9516 0.239 -0.816 -0.526 247 53 82
-108.5214 3127.2153 -1027.0754 0.648 -0.505 -0.570 217 6 26
-104.6637 3156.5149 -1039.6707 -0.545 -0.839 -0.001 219 14 33
-80.8209 3688.8796 -1226.0225 0.477 -0.639 -0.603 254 100 94
-68.0336 3201.5940 -1087.2550 -0.070 -0.993 0.096 248 109 98
-4050.7017 5640.1924 1801.1693 0.492 -0.630 0.600 143 99 67
-4009.8281 5611.3091 1772.6331 0.226 -0.623 0.749 123 85 58
-3979.5903 5582.6006 1753.8098 -0.019 -0.611 0.791 115 79 53
-3806.6689 5463.5283 1632.1091 0.713 -0.338 0.615 79 45 20
-3744.2583 5385.9243 1598.9771 0.083 -0.889 -0.451 83 49 24
-3755.9363 5417.9204 1599.7303 0.267 -0.935 -0.234 83 49 24
-3749.6223 5423.2891 1592.2584 0.272 -0.947 -0.169 84 52 27
-3742.1042 5426.8804 1584.2347 0.272 -0.947 -0.169 90 53 29
-3734.5808 5430.4731 1576.2054 0.272 -0.947 -0.169 95 53 31
-3731.0217 5440.0269 1569.9595 0.290 -0.943 -0.161 118 71 51
-3734.0342 5459.5127 1566.6533 0.299 -0.940 -0.168 134 87 67
-3718.7336 5466.5059 1550.4220 0.713 -0.701 -0.008 142 96 73
-3708.2766 5465.7588 1541.0510 0.615 -0.772 0.160 117 71 48
-3666.4919 5447.5112 1508.3632 0.278 -0.420 0.864 172 121 95
-3463.6721 5438.1465 1325.0134 0.084 -0.979 -0.184 158 108 81
-3450.5750 5432.7578 1314.6646 0.019 -0.983 -0.185 168 118 91
-3415.4343 5455.1157 1275.4238 0.059 -0.948 -0.313 169 122 92
-3427.5994 5491.2949 1275.3207 0.193 -0.933 -0.305 140 93 63
-3430.9182 5513.0400 1271.5917 -0.159 -0.978 -0.137 115 68 38
-3430.7927 5545.6270 1261.3207 0.522 -0.853 -0.022 103 57 26
-3401.7864 5596.9785 1218.6779 0.238 -0.599 0.765 157 118 85
-3395.1499 5619.5859 1205.5372 -0.005 -0.610 0.792 154 115 84
-3346.7256 5709.3779 1133.0809 0.069 -0.375 0.925 77 59 44
-3238.5850 5624.0386 1060.3612 0.350 -0.867 0.355 41 23 11
-3224.6560 5616.8135 1049.8209 0.283 -0.617 0.734 35 19 8
-3199.3503 5733.7500 990.1370 0.588 -0.637 0.498 51 38 22
-3035.2686 5668.0669 859.9156 -0.044 -0.919 0.391 46 30 15
-3011.2886 5640.7964 846.3915 -0.050 -0.924 0.379 48 32 19
-2988.5176 5615.6748 833.3078 -0.026 -0.926 0.377 60 44 31
-2929.2761 5575.8486 791.3128 0.393 -0.516 0.761 51 33 23
-2918.6162 5612.0459 770.2418 -0.259 -0.785 0.563 48 31 21
-2941.2639 5735.2866 752.6330 -0.005 -0.845 0.535 28 14 3
-2811.4519 5532.1177 696.7326 0.043 -0.930 0.365 29 16 5
-2800.4126 5529.0298 687.5566 0.043 -0.930 0.365 25 16 6
-2777.4810 5521.0083 668.9962 -0.189 -0.867 0.462 24 18 6
-2751.1323 5486.3418 655.6016 -0.005 -0.918 0.397 23 17 5
-2744.3853 5590.6919 616.8845 -0.159 -0.877 -0.453 17 18 2
-2649.2939 6106.7598 368.7196 0.830 -0.555 -0.057 122 75 52
-2432.4839 5752.5596 279.9898 0.364 -0.475 0.801 114 69 53
-2445.1748 5830.9556 267.2130 0.306 -0.681 -0.665 114 69 54
-2242.1130 5489.5059 187.1358 -0.317 -0.833 -0.453 93 67 50
-2417.4771 5957.7891 202.2477 0.346 -0.580 0.738 93 67 50
-2289.2046 5680.1162 170.9804 0.128 -0.738 0.663 76 54 33
-2267.6384 5648.9224 160.8958 0.263 -0.707 0.656 57 34 16
-2217.7329 5544.3198 147.6623 -0.064 -0.650 0.757 43 18 4
-1936.6378 5125.5615 20.0134 -0.758 -0.573 0.311 207 173 163
-1827.1270 5150.0122 -88.1808 0.510 -0.799 -0.319 246 235 235
-1814.0256 5161.0386 -103.6492 0.508 -0.805 -0.306 237 227 226
-1800.7148 5171.5938 -119.1633 0.510 -0.807 -0.299 255 247 246
-1661.0146 5377.9307 -311.7683 0.714 -0.696 -0.069 255 247 247
-1609.2942 5660.0684 -447.1967 0.323 -0.499 -0.804 234 175 169
-1580.6320 5687.5244 -482.0766 0.286 -0.569 -0.771 240 175 171
-1509.8428 5521.9561 -495.4891 0.029 -0.948 -0.317 247 182 178
-652.0005 4562.0776 -984.1779 0.211 -0.760 0.615 249 57 80
-522.3485 4778.9922 -1170.8512 -0.433 -0.756 -0.491 249 165 138
-446.9923 4168.0073 -1049.6432 -0.635 -0.685 0.359 255 150 142
-431.7855 4077.2727 -1035.3315 -0.595 -0.698 0.398 246 116 122
-414.4772 3962.0884 -1015.3299 -0.634 -0.564 0.529 232 78 97
-116.2098 3087.6372 -1016.7324 0.609 -0.496 -0.619 220 3 24
-101.3958 3659.8262 -1208.6611 0.396 -0.729 -0.558 248 59 66
-3721.3181 4982.4766 1687.5754 0.035 -0.880 -0.473 165 119 86
-3809.2798 5452.0796 1620.6627 0.730 -0.321 0.604 91 57 32
-3772.9048 5413.1260 1599.5227 0.267 -0.935 -0.234 107 73 48
-3765.6990 5417.1543 1591.6420 0.267 -0.935 -0.234 117 82 57
-3751.5486 5425.6382 1575.9865 0.272 -0.947 -0.169 133 96 73
-3744.0254 5429.2319 1567.9512 0.272 -0.947 -0.169 75 34 15
-3736.4973 5432.8286 1559.9105 0.272 -0.947 -0.169 85 38 20
-3734.6858 5445.0151 1554.4161 0.294 -0.939 -0.177 107 60 40
-3444.9438 5552.2715 1254.7473 0.227 -0.974 0.008 109 63 33
-3436.2034 5554.2402 1246.1057 0.227 -0.974 0.008 107 64 32
-3427.4624 5556.2095 1237.4633 0.227 -0.974 0.008 79 39 7
-3462.7244 5665.6250 1235.4275 0.278 -0.961 -0.004 167 128 95
-3454.1238 5668.1421 1226.7418 0.278 -0.961 -0.004 164 125 92
-3380.3035 5697.2324 1149.8378 0.594 -0.698 -0.400 120 82 61
-3127.5645 5637.5029 936.6357 0.034 -0.752 0.659 62 46 31
-3008.6697 5770.5024 785.6887 0.403 -0.513 0.758 49 32 22
-2784.1230 5715.0864 597.0073 0.761 -0.593 0.263 33 18 7
-2791.6282 5793.6724 579.1875 0.656 -0.698 -0.287 111 80 72
-2713.0815 5794.3701 506.8723 0.103 -0.757 -0.645 141 88 72
-2505.8281 5789.7690 318.0869 0.370 -0.438 0.819 130 79 53
-2310.9045 5687.5762 171.3031 0.148 -0.717 0.681 91 66 46
-2299.0732 5681.5161 162.3489 0.148 -0.717 0.681 78 53 33
-2231.2363 5555.6733 139.6503 0.018 -0.692 0.722 42 18 3
-2009.1676 5253.4556 30.8415 -0.248 -0.411 0.877 196 162 152
-1882.8782 5024.0498 -12.9475 0.744 -0.600 -0.293 247 215 209
-1805.3236 5160.7842 -127.1238 0.528 -0.775 -0.347 254 241 240
-1638.0332 5330.4619 -334.0242 0.729 -0.682 -0.053 255 247 240
-1643.5880 5437.5576 -362.5981 0.799 -0.576 0.173 219 186 185
-1622.5226 5776.2852 -488.4344 0.457 -0.662 -0.594 247 182 178
-438.2496 4084.5588 -1043.5406 -0.579 -0.700 0.417 247 117 123
-193.3013 3554.6130 -1101.7489 -0.101 -0.497 0.862 254 79 98
-117.2589 3134.1213 -1039.3372 0.719 -0.395 -0.572 217 8 27
-3809.5903 5013.1387 1742.7484 -0.356 -0.631 -0.689 167 123 88
-3852.0728 5426.3784 1650.6486 0.027 -0.676 0.736 150 113 87
-3811.9570 5382.5894 1627.7372 -0.317 -0.749 0.582 153 117 90
-3795.6116 5373.2095 1615.7179 0.185 -0.694 0.696 115 79 52
-3772.1997 5367.8711 1595.9342 0.704 -0.313 0.638 104 69 43
-3764.6338 5429.7905 1569.3541 0.290 -0.943 -0.161 143 106 81
-3753.4773 5427.9897 1559.6908 0.272 -0.947 -0.169 91 50 27
-3745.9497 5431.5879 1551.6443 0.272 -0.947 -0.169 66 20 2
-3490.0212 5401.2412 1326.4935 0.134 -0.971 -0.197 95 46 19
-3457.8738 5443.7612 1283.5167 0.052 -0.974 -0.221 182 135 107
-3475.4951 5504.3853 1280.4529 0.067 -0.958 -0.280 189 144 114
-3469.8040 5511.2314 1273.0607 0.036 -0.962 -0.272 167 123 93
-3477.5793 5540.1899 1271.0084 0.108 -0.988 0.113 145 100 70
-3467.6794 5540.2383 1261.9115 0.108 -0.988 0.113 126 80 50
-3457.7847 5540.2856 1252.8196 0.108 -0.988 0.113 111 65 35
-3450.1777 5544.1074 1244.6290 0.228 -0.973 -0.035 114 68 39
-3438.0107 5540.3770 1234.6508 0.225 -0.974 -0.017 95 52 22
-3383.9155 5565.9829 1176.9048 0.441 -0.305 0.844 141 102 73
-3378.1313 5658.3374 1142.3058 0.621 -0.687 -0.378 117 79 58
-3386.3394 5689.8726 1139.8331 0.595 -0.696 -0.403 134 96 75
-3120.3767 5623.9233 916.7701 0.521 -0.448 0.727 65 46 30
-3087.8088 5655.1289 876.9962 0.698 -0.641 -0.320 61 45 30
-2942.9294 5621.3887 754.7930 -0.182 -0.864 0.470 48 32 22
-2780.3162 5686.4390 584.9871 0.762 -0.612 0.210 33 18 7
-2784.7283 5737.0488 572.9821 0.693 -0.657 0.297 65 38 31
-2792.2241 5773.8677 568.1802 0.653 -0.720 -0.235 112 80 73
-2781.1792 5792.4297 552.1608 0.554 -0.832 0.044 135 83 68
-2616.3474 5519.6987 487.4570 -0.124 -0.702 -0.701 144 86 73
-2718.4360 5763.0977 503.9069 -0.633 -0.757 -0.163 144 87 72
-2533.5999 5696.4136 355.4984 0.796 -0.313 0.518 144 84 67
-2562.0020 5784.7969 353.5195 0.766 -0.383 0.517 143 84 66
-2439.7629 5700.9351 267.9828 -0.432 -0.884 0.181 133 79 58
-2274.6492 5572.2886 157.3200 0.604 -0.789 -0.110 95 66 46
-2257.4539 5575.7236 140.4562 0.584 -0.796 -0.159 62 33 16
-2244.5679 5566.4663 131.5714 0.584 -0.805 -0.108 45 16 3
-2012.7079 5239.9858 22.4280 -0.245 -0.410 0.879 213 177 166
-1892.4146 5005.1406 -13.4349 0.749 -0.596 -0.290 232 196 186
-1881.2133 5019.8486 -28.3756 0.635 -0.719 -0.284 241 205 198
-1816.1548 5143.5879 -127.3046 0.524 -0.777 -0.350 221 204 204
-1651.1722 5404.9326 -361.5445 0.801 -0.582 0.141 255 243 238
-1644.0951 5440.1997 -379.2226 0.731 -0.682 0.019 229 187 190
-1638.9270 5452.4795 -387.8585 0.736 -0.674 0.056 232 186 188
-1638.6301 5702.8442 -467.5414 0.342 -0.490 -0.802 234 175 169
-874.3564 5475.2427 -1096.4569 -0.061 -0.830 -0.554 229 120 100
-864.0181 5462.1353 -1101.7834 -0.110 -0.817 -0.567 231 119 99
-664.1580 4555.4028 -997.5277 0.198 -0.764 0.615 249 56 81
-533.1942 3956.6028 -927.7401 -0.335 -0.920 -0.203 255 20 80
-182.8789 3689.4048 -1164.3519 0.391 -0.417 0.821 245 29 53
-195.3052 4267.7725 -1336.3992 0.137 -0.361 0.922 242 14 42
-121.9106 3145.8225 -1047.8679 0.701 -0.389 -0.597 217 8 27
-94.8471 3185.5342 -1085.2904 0.109 -0.991 0.084 254 75 78
-4150.3257 5170.3545 1988.6251 0.604 -0.665 -0.439 172 132 97
-4149.7725 5182.2817 1984.3020 0.602 -0.663 -0.446 171 131 96
-3435.9932 4611.1519 1512.6204 0.163 -0.768 -0.620 171 133 97
-3853.7556 5413.7959 1638.8335 0.033 -0.673 0.739 156 114 83
-3782.3899 5339.0664 1597.3129 -0.171 -0.753 0.636 155 115 83
-3634.1509 5426.7969 1433.3344 0.195 -0.658 0.727 193 147 114
-3479.1619 5430.3193 1290.1091 0.596 -0.560 0.575 165 120 87
-3462.4185 5547.5269 1237.2583 0.234 -0.972 -0.015 132 90 63
-3447.8601 5539.8770 1226.3583 0.223 -0.974 -0.036 92 54 28
-3429.9343 5543.0317 1208.9142 0.053 -0.649 0.759 91 56 32
-3311.7891 5509.9155 1111.1908 0.284 -0.373 0.883 154 114 90
-3341.4653 5611.9595 1105.7501 0.443 -0.778 -0.446 166 127 105
-3213.3306 5578.0171 999.1325 0.274 -0.487 0.829 91 56 39
-3133.0132 5628.8477 909.2323 0.484 -0.423 0.766 86 52 33
-3131.3345 5644.0137 902.8409 0.148 -0.837 0.528 84 50 31
-3110.5984 5623.7925 890.2992 0.442 -0.860 0.254 75 46 26
-2970.0825 5655.3823 751.3632 0.646 -0.523 0.556 50 35 24
-2851.0122 5459.0176 705.0226 0.291 -0.293 0.911 35 26 18
-2832.4861 5441.0449 693.7874 0.256 -0.329 0.909 29 20 12
-2817.6401 5430.2539 683.6289 0.246 -0.333 0.910 26 16 7
-2785.0540 5716.9712 562.0189 0.724 -0.655 0.218 67 36 33
-2777.7629 5722.2358 553.6498 0.724 -0.655 0.218 111 74 71
-2841.3889 5965.0923 534.2831 -0.711 -0.696 -0.103 145 86 69
-2517.9648 5551.6631 370.0341 -0.407 -0.908 0.104 156 93 69
-2528.5239 5684.7671 337.1288 -0.238 -0.895 -0.377 154 91 67
-2526.2412 5701.7402 329.6054 -0.255 -0.898 -0.358 149 86 59
-2495.1284 5696.2744 302.8291 -0.256 -0.907 -0.334 148 83 57
-2484.2747 5693.2578 293.8433 -0.393 -0.900 0.188 150 86 59
-2471.5447 5685.7554 284.5725 -0.393 -0.900 0.188 147 83 56
-2405.6108 5641.6284 238.2408 -0.382 -0.903 0.195 144 85 60
-2289.4148 5494.0337 178.9313 0.525 -0.847 -0.087 122 74 46
-2491.9282 6020.5317 196.1501 0.691 -0.711 0.130 116 72 47
-2440.5364 5941.9473 174.1756 0.377 -0.594 0.711 116 72 47
-2338.1975 5709.1846 154.8200 -0.046 -0.966 0.255 105 61 34
-2326.5525 5703.7744 145.8746 -0.068 -0.966 0.250 113 69 44
-2279.5151 5778.8862 78.7177 0.011 -0.993 -0.120 47 28 22
-2145.1443 5475.1001 52.7179 0.092 -0.768 0.634 55 30 23
-1898.9351 5000.7505 -21.2471 0.749 -0.596 -0.290 158 114 102
-1894.1743 5010.3491 -28.6828 0.749 -0.596 -0.290 240 200 192
