ply
format ascii 1.0
element vertex 800
property float x
property float y
property float z
property float nx
property float ny
property float nz
property uchar diffuse_red
property uchar diffuse_green
property uchar diffuse_blue
end_header
-1197.3026 2518.4717 -836.4765 0.570 -0.588 0.574 41 22 8
-1191.6774 2515.9624 -836.8016 0.196 -0.797 0.572 47 24 9
-1189.0872 2519.4485 -839.2484 0.891 -0.117 -0.439 67 40 21
-1190.7405 2540.1348 -849.0248 0.897 -0.107 -0.428 68 40 18
-1137.4636 2536.3801 -862.0073 0.555 -0.522 0.648 61 30 10
-1134.5884 2593.3533 -891.0024 -0.121 -0.867 0.483 67 34 14
-1126.7195 2585.4756 -889.2960 0.799 0.034 0.600 76 42 23
-1126.2362 2593.6001 -893.4510 0.798 0.079 0.598 82 47 27
-1124.7201 2599.5061 -896.7961 0.786 0.289 0.546 88 53 33
-1124.3607 2607.9758 -901.0878 0.787 0.289 0.545 90 55 35
-1124.6660 2617.9551 -905.9411 0.787 0.289 0.545 94 59 39
-1117.7598 2640.2268 -918.8865 0.614 0.038 0.788 102 65 46
-1114.9387 2643.3838 -921.2346 0.614 0.038 0.788 106 66 45
-1111.3121 2644.7224 -922.9072 0.615 0.035 0.787 109 66 44
-1108.1183 2647.0283 -924.9381 0.619 0.037 0.785 111 65 42
-1102.6509 2644.1511 -925.0371 0.764 0.122 0.633 111 65 42
-1098.7816 2644.8796 -926.4755 0.786 0.159 0.597 109 63 40
-1097.3759 2651.2456 -930.0173 0.786 0.159 0.597 106 61 38
-1085.7616 2634.1052 -924.7703 0.699 0.005 0.715 106 61 38
-1079.3413 2667.4329 -943.0516 0.241 -0.822 0.516 110 64 38
-1078.9130 2676.2109 -947.5149 0.168 -0.899 0.404 112 66 40
-1072.8702 2671.7161 -946.9738 0.165 -0.897 0.410 113 67 41
-1063.5565 2659.3667 -943.4567 0.563 -0.543 0.624 113 67 41
-1060.1155 2660.9380 -945.1929 0.563 -0.543 0.624 112 66 40
-1056.2134 2661.3904 -946.5037 0.937 -0.212 0.277 117 70 42
-1054.0597 2666.0386 -949.4038 0.973 -0.199 -0.115 119 72 42
-1053.3925 2674.3010 -953.6786 0.961 -0.185 -0.206 119 72 42
-1053.4839 2684.4531 -958.6770 0.914 -0.060 -0.402 118 71 41
-1055.9961 2700.5771 -965.9567 0.897 -0.047 -0.439 121 74 44
-1053.8069 2705.2798 -968.8936 0.791 -0.280 -0.544 121 74 44
-1015.2713 2669.9031 -962.1208 0.781 0.176 0.599 140 86 58
-1021.1078 2694.7085 -972.7707 0.768 0.264 0.583 141 87 59
-1021.7912 2706.6274 -978.4786 0.939 0.229 0.257 141 87 59
-1024.9373 2724.8960 -986.6429 0.917 0.264 0.298 141 87 59
-1028.4443 2744.2183 -995.2280 0.913 0.239 0.332 141 87 59
-1033.6819 2821.6304 -1032.0781 0.550 0.076 0.832 146 90 67
-1034.6705 2835.1350 -1038.4858 0.994 0.016 -0.104 145 88 65
-1036.3547 2850.5713 -1045.6555 0.996 0.015 -0.091 138 89 70
-1041.5111 2875.3467 -1056.4799 0.995 0.053 -0.083 113 76 65
-1037.8300 2876.7078 -1058.1788 0.958 -0.285 -0.012 97 67 62
-1038.1836 2888.8757 -1064.1018 0.702 0.247 0.668 82 54 47
-1037.7802 2899.0820 -1069.2650 0.673 0.205 0.711 70 43 36
-1037.5988 2909.9507 -1074.6942 0.669 0.229 0.707 42 11 10
-1036.0956 2917.2944 -1078.7472 0.617 0.147 0.773 34 7 3
-2278.2236 1234.6918 94.7453 0.360 -0.880 -0.309 45 35 26
-2279.5303 1239.2988 92.8199 0.309 -0.951 0.025 48 35 26
-2290.0701 1247.8834 91.4763 0.705 -0.707 0.059 46 32 21
-2289.4871 1251.7228 89.4088 0.814 -0.489 0.312 63 47 34
-2291.1768 1256.5540 87.4783 0.774 0.153 0.614 86 68 56
-2295.4890 1262.5416 85.6996 0.712 0.096 0.695 100 84 69
-2277.5874 1364.7294 30.0117 0.574 -0.386 0.722 195 166 150
-2291.4077 1380.2452 26.1353 0.945 0.196 -0.263 193 168 154
-2295.3442 1386.6028 24.0690 0.961 0.186 -0.204 188 167 154
-2299.0776 1392.8875 21.9827 0.961 0.174 -0.214 168 149 138
-2299.4966 1397.5594 19.7793 0.938 0.189 -0.291 122 104 92
-2301.9377 1403.2488 17.6307 0.929 0.214 -0.301 76 58 44
-2305.1885 1409.3633 15.4952 0.904 -0.076 -0.420 49 30 16
-2305.8174 1414.1901 13.2730 0.904 -0.076 -0.420 51 31 20
-2309.3850 1420.5082 11.1242 0.960 0.137 -0.243 48 30 20
-2106.4243 1893.5920 -279.9352 0.700 -0.280 0.657 19 17 18
-2398.7734 2558.1675 -528.9200 -0.109 -0.986 -0.126 204 146 132
-2081.4927 2312.7661 -494.9384 0.589 -0.738 -0.329 198 146 125
-2108.5591 2347.1462 -504.5123 0.212 -0.861 -0.462 198 146 125
-2154.6409 2400.9595 -518.4690 0.427 -0.817 -0.388 199 147 126
-2230.3889 2485.2126 -539.3235 0.950 -0.272 -0.153 194 143 122
-2270.9653 2542.1423 -556.3517 0.714 0.042 -0.699 183 134 115
-2276.0454 2555.2798 -561.4672 0.687 -0.130 -0.715 151 115 96
-2278.7849 2566.0742 -566.0677 0.687 -0.130 -0.715 119 83 67
-2281.5413 2576.9338 -570.6958 0.687 -0.130 -0.715 76 40 26
-2285.1953 2588.7712 -575.5608 0.700 -0.112 -0.706 48 13 1
-2288.0730 2599.8567 -580.2674 0.763 -0.510 0.398 47 14 0
-2286.3262 2606.1675 -583.8840 0.740 -0.529 0.415 52 19 2
-2278.5281 2606.1592 -586.0391 0.742 -0.534 0.404 58 25 10
-2160.9001 2601.7441 -616.4160 0.845 -0.363 -0.392 46 21 16
-1903.2961 2450.0085 -612.4117 0.055 -0.546 -0.836 94 41 9
-1921.4437 2479.0510 -621.8052 0.986 0.144 0.084 93 43 9
-1903.9768 2466.0940 -620.2089 0.889 0.275 -0.366 93 43 10
-1717.0040 2293.5117 -586.2990 0.431 -0.745 0.509 106 49 12
-1486.1515 2283.4790 -645.2365 0.399 -0.654 0.643 107 45 4
-1482.7653 2285.8638 -647.3579 0.773 -0.504 0.385 106 44 3
-1487.4915 2306.9497 -656.5175 0.839 -0.521 0.159 113 51 10
-1493.3868 2337.2705 -669.9381 0.943 -0.330 0.042 120 56 17
-1491.5873 2342.0542 -672.8113 0.943 -0.330 0.042 120 58 20
-1500.2312 2361.9524 -680.2965 0.949 -0.241 0.202 117 59 23
-1506.3575 2378.3184 -686.7250 0.975 -0.196 -0.108 114 61 29
-1508.0006 2388.2493 -691.2004 0.972 -0.213 -0.100 93 46 19
-1511.6393 2401.1467 -696.5958 0.895 -0.444 -0.044 81 39 17
-1301.9520 2273.4910 -691.2790 0.330 -0.250 -0.910 28 17 14
-1343.0127 2369.8330 -727.7394 0.536 -0.107 -0.837 50 32 28
-1339.9922 2372.5601 -729.9296 0.594 0.012 -0.804 54 36 32
-1362.6948 2417.5532 -745.9806 0.599 0.016 -0.801 59 41 37
-1231.6676 2520.5432 -833.3890 0.000 -0.999 -0.035 20 10 2
-1212.3687 2491.9673 -824.5458 0.842 -0.449 0.298 32 17 6
-1209.7242 2495.3296 -826.9473 0.842 -0.449 0.298 36 18 4
-1207.7091 2499.9153 -829.7819 0.670 0.061 0.740 37 18 4
-1203.2120 2499.6804 -830.9104 0.690 -0.263 0.675 39 17 3
-1200.7777 2512.0081 -837.7045 0.193 -0.796 0.573 49 27 14
-1196.9983 2513.1611 -839.3234 0.147 -0.924 0.352 56 34 21
-1192.1647 2512.2146 -840.1919 0.143 -0.923 0.358 61 38 23
-1191.4069 2519.3298 -843.9340 0.599 -0.343 -0.724 75 49 30
-1192.7749 2530.7139 -849.2069 0.874 -0.173 -0.455 78 48 25
-1194.0348 2541.9470 -854.4347 0.859 -0.189 -0.475 78 48 24
-1194.0438 2550.7314 -858.7933 0.674 -0.347 -0.653 78 48 24
-1193.8062 2559.0637 -862.9957 0.708 -0.586 -0.394 68 38 14
-1192.1018 2564.4683 -866.1507 0.724 -0.572 -0.386 68 38 14
-1145.3955 2584.1558 -888.8566 0.390 -0.739 -0.549 51 25 2
-1126.7277 2589.6440 -896.7501 0.812 0.048 0.582 64 33 12
-1114.4146 2571.9717 -891.3858 0.789 0.250 0.561 72 40 19
-1114.0435 2580.2998 -895.6231 0.789 0.250 0.561 79 44 22
-1114.1722 2589.7710 -900.2894 0.788 0.247 0.563 87 51 29
-1116.5081 2604.1692 -906.7906 0.790 0.256 0.557 91 55 33
-1116.6650 2613.8274 -911.5421 0.725 0.189 0.662 92 57 37
-1112.7843 2614.5483 -912.9745 0.709 0.162 0.686 98 63 41
-1110.9597 2619.8481 -916.1107 0.709 0.162 0.686 105 69 47
-1109.3234 2625.5884 -919.4136 0.708 0.159 0.688 110 69 48
-1081.3730 2618.7959 -923.7803 0.009 -0.999 -0.032 100 54 31
-1086.6849 2669.5693 -947.5162 0.916 -0.354 0.191 104 59 30
-1086.2230 2678.2603 -951.9587 0.895 -0.404 0.188 106 59 31
-1084.4033 2683.7971 -955.2113 0.904 -0.386 0.187 107 60 32
-1079.9426 2683.1028 -956.1016 0.194 -0.926 0.323 107 61 35
-1064.0448 2655.1919 -946.6470 0.563 -0.543 0.624 107 60 34
-1060.6071 2656.7639 -948.3793 0.563 -0.543 0.624 107 60 32
-1057.6359 2659.4426 -950.5319 0.639 -0.443 0.629 109 62 33
-1056.6853 2666.9817 -954.5378 0.990 -0.141 0.025 113 64 34
-1057.4777 2678.7708 -960.1711 0.956 -0.048 -0.289 112 63 31
-1058.4102 2700.9795 -970.9385 0.897 -0.047 -0.439 108 62 29
-1052.6689 2696.9951 -970.5500 0.719 -0.258 -0.646 107 61 28
-1021.5540 2680.1963 -970.8254 0.609 -0.543 -0.579 137 81 54
-1025.7269 2700.8098 -979.9036 0.405 -0.454 -0.794 138 82 55
-1023.9495 2706.5129 -983.2271 0.468 -0.422 -0.776 137 83 55
-1027.2300 2745.8381 -1001.8419 0.592 0.130 0.795 138 82 57
-1029.5031 2794.0129 -1025.1290 0.715 0.312 0.626 148 94 72
-1027.8586 2800.4553 -1028.7826 0.699 0.290 0.653 149 93 70
-1027.9509 2811.4941 -1034.2374 0.698 0.289 0.655 150 93 69
-1029.8751 2827.4407 -1041.6213 0.703 0.288 0.651 146 94 76
-1032.1846 2844.5205 -1049.4612 0.722 0.272 0.636 125 84 75
-1032.6104 2856.7021 -1055.3909 0.718 0.269 0.642 116 80 77
-1031.7874 2865.6208 -1060.0465 0.718 0.269 0.642 111 74 71
-1031.1410 2875.0645 -1064.9138 0.709 0.259 0.656 105 70 65
-1031.9852 2888.5867 -1071.3932 0.699 0.247 0.671 64 26 27
-1032.5286 2901.3833 -1077.5956 0.630 0.154 0.761 48 14 12
-1037.1305 2925.3154 -1088.2025 0.670 0.221 0.709 36 3 3
-2281.7886 1233.9637 90.9108 0.363 -0.876 -0.318 45 35 26
-2284.5786 1239.2030 89.0694 0.308 -0.951 0.026 45 34 25
-2289.3206 1249.3821 85.3049 0.814 -0.489 0.312 48 31 21
-2283.6077 1251.0088 82.9225 0.777 0.153 0.610 56 40 27
-2290.0300 1257.8876 81.2641 0.708 0.094 0.700 63 47 34
-2288.3584 1261.2751 79.1170 0.708 0.094 0.700 80 66 53
-2018.1338 1202.6061 33.9687 0.518 -0.243 0.820 194 163 143
-2281.7612 1364.3273 25.9779 0.888 0.456 0.064 190 161 145
-2299.4263 1386.1425 19.9747 0.963 0.175 -0.205 154 133 119
-2299.6172 1390.6840 17.7654 0.961 0.174 -0.214 115 96 85
-2301.0366 1395.8439 15.5862 0.946 0.178 -0.270 70 52 40
-2302.8372 1401.2100 13.4093 0.929 0.214 -0.301 48 30 18
-2305.9255 1407.2356 11.2583 0.893 -0.146 -0.425 51 32 18
-2306.0769 1411.8182 9.0176 0.898 -0.167 -0.406 49 30 19
-2305.1223 1415.8586 6.7427 0.680 -0.635 -0.366 48 31 21
-2103.8796 1882.6936 -281.1403 0.855 0.505 -0.115 19 17 18
-2162.0403 2012.3060 -329.6855 -0.103 -0.985 -0.135 40 24 12
-2124.2881 2344.4768 -505.5075 0.629 -0.392 -0.672 198 146 125
-2129.4250 2364.1389 -513.8861 0.307 -0.773 -0.555 198 146 125
-2256.9539 2507.8550 -550.3650 0.687 0.019 -0.726 187 136 115
-2265.2449 2524.0881 -556.1678 0.693 0.023 -0.720 174 126 106
-2277.5588 2544.5081 -562.9489 0.714 0.042 -0.699 165 119 99
-2281.6035 2556.5852 -567.8506 0.720 0.043 -0.693 139 103 84
-2290.6184 2573.8210 -573.9537 0.632 -0.329 0.702 82 46 30
-2284.4846 2575.5447 -576.5001 0.788 -0.485 0.379 54 18 5
-2275.7581 2598.7881 -590.4777 0.714 -0.531 0.457 63 30 15
-2224.9783 2577.6689 -593.9346 0.333 -0.828 -0.452 61 28 21
-2225.1082 2585.8613 -597.9789 0.201 -0.870 -0.450 56 23 16
-2220.3689 2588.8872 -600.7902 0.198 -0.877 -0.439 49 16 9
-2233.3867 2693.9678 -649.5413 0.781 0.449 -0.435 39 15 10
-1762.2521 2301.4326 -583.7045 0.960 -0.169 0.223 88 39 6
-1762.3827 2308.6912 -587.2835 0.972 -0.123 0.200 86 37 4
-1763.7861 2317.4980 -591.2834 0.949 -0.043 0.313 86 36 3
-1500.0078 2313.4473 -661.8594 0.897 -0.422 0.130 112 50 9
-1496.1698 2315.2803 -663.8286 0.866 -0.461 0.195 115 53 12
-1496.3030 2322.7532 -667.5137 0.929 -0.371 0.011 114 52 12
-1492.6608 2324.8677 -669.5691 0.935 -0.353 -0.006 113 52 15
-1497.3627 2338.9307 -675.2790 0.926 -0.377 0.018 112 52 18
-1494.1326 2341.6665 -677.5305 0.903 -0.349 0.253 110 53 21
-1502.6843 2361.4033 -685.0066 0.955 -0.209 0.210 107 54 24
-1512.6615 2383.3252 -693.1786 0.799 -0.522 0.298 103 57 29
-1514.3076 2393.2717 -697.6794 0.918 -0.396 -0.008 83 42 20
-1513.6949 2399.9719 -701.1849 0.912 -0.409 -0.034 71 35 17
-1547.8247 2457.5693 -720.4776 0.970 0.138 -0.199 61 29 16
-1580.9164 2514.0356 -739.4927 0.475 -0.584 -0.658 51 24 13
-1581.9531 2523.6099 -743.9756 0.742 -0.510 -0.436 38 17 7
-1335.0576 2345.1199 -723.0287 0.332 -0.248 -0.910 55 37 33
-1355.3450 2385.7151 -737.6633 0.536 -0.107 -0.837 63 45 41
-1315.3522 2381.4644 -746.5526 0.730 0.112 -0.675 37 20 13
-1203.2010 2495.0059 -833.9648 0.606 -0.420 0.676 36 17 3
-1200.2845 2497.8245 -836.1711 0.612 -0.425 0.667 52 31 18
-1200.3628 2506.5061 -840.4733 0.446 -0.894 0.036 56 38 24
-1195.8267 2506.1604 -841.5496 0.485 -0.859 0.163 64 45 31
-1192.7089 2508.5881 -843.6167 0.480 -0.834 0.273 69 48 33
-1195.6260 2531.6335 -854.2913 0.853 -0.217 -0.475 80 51 29
-1196.3103 2541.7102 -859.1215 0.847 -0.223 -0.483 80 52 30
-1198.0221 2553.9011 -864.7219 0.687 -0.369 -0.626 78 50 28
-1194.1771 2554.9822 -866.3185 0.629 -0.762 -0.153 67 39 17
-1195.5166 2566.5212 -871.6967 0.734 -0.564 -0.378 66 39 17
-1198.1162 2580.6821 -878.0339 0.805 -0.306 -0.509 66 38 16
-1123.1077 2576.7808 -896.7336 -0.173 -0.922 0.347 53 27 6
-1110.8101 2559.1426 -891.3336 0.613 -0.392 0.687 58 28 7
-1106.9849 2559.8623 -892.7448 0.555 -0.405 0.727 65 32 12
-1106.1262 2567.0762 -896.5739 0.547 -0.454 0.704 73 37 16
-1104.3406 2572.2812 -899.6575 0.434 -0.427 0.793 77 42 22
-1103.7721 2580.1980 -903.7567 0.265 -0.678 0.685 79 44 24
-1099.7871 2580.5635 -905.0355 0.237 -0.701 0.672 86 51 31
-1096.7255 2582.9678 -907.0756 0.238 -0.691 0.682 92 57 35
-1101.2006 2602.2483 -915.4464 0.557 -0.830 -0.018 100 62 39
-1095.0872 2607.1934 -919.5916 0.370 -0.929 0.009 106 63 39
-1090.3655 2605.8850 -920.2393 0.468 -0.875 -0.121 107 63 39
-1085.8605 2614.4500 -925.7448 0.200 -0.980 0.002 104 60 37
-1081.5177 2613.9512 -926.6916 0.143 -0.989 0.036 104 59 36
-1077.8434 2614.9644 -928.2073 0.160 -0.987 0.026 106 61 37
-1077.0371 2622.5977 -932.2308 0.859 -0.246 -0.448 105 59 35
-1058.7670 2637.3530 -944.6076 0.405 -0.726 -0.555 106 60 34
-1055.9335 2640.3008 -946.8555 0.498 -0.718 -0.487 107 60 33
-1054.8457 2647.4226 -950.7018 0.647 -0.638 -0.417 105 58 30
-1054.2122 2655.6697 -954.9835 0.926 -0.305 -0.223 104 57 27
-1033.0751 2683.3584 -974.5905 0.073 -0.732 0.678 110 59 30
-1028.0624 2742.2754 -1005.3127 0.599 0.129 0.790 125 69 46
-1026.1235 2747.7368 -1008.5662 0.541 0.129 0.831 131 75 52
-1023.9182 2752.5312 -1011.5609 0.548 0.137 0.825 138 81 58
-1022.3594 2769.5845 -1020.4830 0.720 0.324 0.614 142 87 66
-1023.2495 2782.5432 -1026.6919 0.716 0.312 0.625 143 87 64
-1023.2341 2793.2114 -1032.0093 0.716 0.307 0.627 144 87 63
-1022.5870 2802.2805 -1036.7041 0.719 0.323 0.616 141 88 69
-1025.3510 2820.4287 -1044.9819 0.720 0.320 0.615 134 88 80
-1025.6486 2832.1519 -1050.7385 0.720 0.320 0.615 127 85 82
-1026.5889 2845.6655 -1057.2100 0.688 0.286 0.667 123 78 76
-1025.4329 2853.6487 -1061.5040 0.719 0.270 0.640 116 73 70
-1026.7640 2868.3721 -1068.4703 0.700 0.252 0.668 85 42 43
-1028.7947 2885.0876 -1076.2366 0.693 0.266 0.670 71 31 28
-1030.6709 2901.5029 -1083.8955 0.675 0.242 0.697 60 18 17
-1359.4709 609.5139 145.4288 0.307 -0.651 -0.694 62 53 44
-2279.9375 1239.0300 82.6903 0.770 -0.528 0.359 49 35 26
-2278.5027 1246.5439 78.5438 0.780 0.158 0.606 43 27 14
-2280.5718 1251.5176 76.6248 0.765 0.117 0.633 38 24 11
-2280.6060 1255.6249 74.5821 0.769 0.119 0.628 52 38 25
-2291.4998 1375.3981 17.7213 0.903 0.391 0.177 150 128 114
-2297.2019 1382.5969 15.6844 0.943 0.185 -0.277 108 88 77
-2301.2209 1389.0045 13.5824 0.930 0.212 -0.302 68 52 42
-2303.1614 1394.4164 11.4093 0.930 0.212 -0.302 44 28 18
-2303.7361 1399.1724 9.1904 0.929 0.214 -0.301 43 27 14
-2188.4473 1721.1686 -183.2191 0.721 -0.665 0.193 40 39 44
-2083.6438 1852.4933 -277.4982 0.868 0.493 -0.060 22 20 21
-2382.4094 2557.3613 -547.9390 0.102 -0.993 -0.054 203 145 131
-2303.4453 2526.8071 -554.2729 -0.305 -0.935 0.181 198 146 125
-2265.7314 2512.4321 -557.4070 0.694 0.023 -0.720 176 125 106
-2271.6904 2526.3013 -562.7062 0.694 0.023 -0.720 157 109 89
-2284.1794 2546.8835 -569.5732 0.714 0.042 -0.699 143 96 77
-2288.7964 2559.5457 -574.6365 0.717 0.040 -0.695 99 64 46
-2288.7380 2567.4785 -578.6159 0.632 -0.329 0.702 57 24 9
-2287.0671 2573.7810 -582.2217 0.555 -0.416 0.720 43 9 0
-2249.2144 2566.6465 -589.0112 0.761 -0.068 0.645 70 37 22
-2191.8884 2530.3657 -586.5652 0.665 -0.663 -0.344 65 36 28
-2233.0388 2581.7725 -600.9929 0.775 -0.528 -0.345 59 29 21
-2231.8794 2588.6106 -604.7265 0.750 -0.507 -0.426 54 24 16
-2229.8604 2594.5532 -608.2477 0.750 -0.507 -0.426 47 17 9
-1829.6670 2340.9045 -590.9869 -0.155 -0.988 0.024 74 30 7
-1781.1106 2291.4600 -579.5653 0.719 -0.257 -0.646 77 30 4
-1774.4290 2297.7549 -584.5380 0.134 -0.532 0.836 81 32 2
-1770.8129 2300.5752 -586.9363 0.199 -0.445 0.873 82 33 2
-1763.0490 2298.4814 -588.0138 0.151 -0.501 0.852 81 32 2
-1751.1549 2291.4419 -587.7501 0.981 0.110 0.158 82 33 1
-1513.4944 2335.8027 -674.9214 0.234 -0.632 0.739 114 53 9
-1478.4130 2300.5569 -666.9080 0.948 -0.315 0.048 111 53 16
-1494.4640 2338.0957 -681.2725 0.903 -0.349 0.253 100 48 22
-1499.9196 2353.3337 -687.3932 0.954 -0.221 0.202 96 48 24
-1512.1819 2378.4988 -696.6120 0.789 -0.552 0.268 93 50 29
-1515.9672 2391.5247 -702.0845 0.923 -0.385 -0.012 73 36 20
-1531.1024 2428.8452 -716.5905 0.924 0.222 -0.311 50 23 15
-1572.6434 2497.5007 -739.5290 0.977 -0.053 -0.206 40 18 11
-1582.0255 2519.2937 -747.8508 0.715 -0.553 -0.427 35 19 10
-1586.0458 2533.2993 -753.7486 0.735 -0.516 -0.439 29 19 10
-1398.7827 2468.0322 -772.3626 0.589 0.005 -0.808 75 57 53
-1323.8644 2391.4673 -754.6022 0.729 0.112 -0.676 33 15 11
-1196.7715 2469.5037 -828.3544 0.360 -0.922 0.146 35 18 6
-1196.3942 2477.1665 -832.2860 0.430 -0.598 -0.676 35 17 6
-1194.1449 2481.2214 -834.9272 0.372 -0.597 -0.711 40 22 11
-1201.6506 2504.3474 -844.4282 0.456 -0.888 0.056 45 28 17
-1197.3699 2504.5081 -845.6795 0.485 -0.859 0.163 51 34 23
-1192.6304 2503.7434 -846.5939 0.376 -0.468 -0.800 58 40 26
-1196.9377 2520.8347 -853.9547 0.865 -0.178 -0.468 60 37 20
-1196.8293 2546.7073 -866.9107 0.580 -0.799 -0.158 62 37 16
-1195.4701 2552.7625 -870.3077 0.623 -0.769 -0.144 65 39 19
-1194.8156 2560.2617 -874.2335 0.599 -0.702 -0.384 64 39 18
-1190.8638 2561.1233 -875.7449 0.614 -0.692 -0.380 65 39 18
-1108.5631 2549.3120 -892.3557 -0.260 -0.923 0.282 45 16 0
-1101.8477 2552.7256 -895.8981 0.183 -0.792 0.583 60 27 8
-1102.1046 2562.3667 -900.6447 0.028 -0.941 0.338 63 30 11
-1101.3984 2569.9351 -904.6191 0.251 -0.695 0.674 64 33 13
-1097.3782 2570.1936 -905.8480 0.251 -0.695 0.674 71 39 20
-1096.2845 2576.9446 -909.5200 0.271 -0.674 0.687 78 45 26
-1053.2402 2647.9980 -956.7933 0.936 -0.256 -0.242 97 51 23
-1036.5116 2696.4648 -985.5839 0.249 -0.782 -0.572 105 54 27
-1030.9325 2702.7881 -990.2693 0.631 -0.365 -0.685 109 59 32
-1015.7881 2715.5530 -1000.7893 0.081 -0.872 0.483 117 63 39
-1015.4880 2725.1160 -1005.6492 0.514 0.099 0.852 124 69 48
-1018.2167 2742.5627 -1013.6194 0.605 0.192 0.772 130 74 51
-1016.5304 2748.6741 -1017.1340 0.716 0.318 0.622 134 81 59
-1017.5489 2761.8621 -1023.4443 0.694 0.247 0.677 136 82 58
-1017.2524 2771.6953 -1028.4382 0.710 0.301 0.637 138 81 57
-1016.7239 2780.9766 -1033.2200 0.712 0.302 0.634 135 82 63
-1018.7413 2797.0339 -1040.6907 0.718 0.318 0.619 140 94 83
-1020.1385 2811.5591 -1047.5654 0.718 0.322 0.617 136 90 86
-1021.4819 2826.0398 -1054.4327 0.691 0.288 0.663 132 82 79
-1021.2214 2836.3293 -1059.6448 0.681 0.277 0.678 127 77 73
-1022.5005 2850.8176 -1066.5334 0.699 0.251 0.670 106 57 56
-1027.2725 2874.8289 -1077.2246 0.725 0.260 0.638 94 48 42
-1029.4031 2891.8647 -1085.1532 0.690 0.239 0.683 81 35 30
-2272.2258 1253.8031 68.0014 0.670 0.003 0.743 49 35 25
-2301.0720 1386.4677 9.3524 0.947 0.191 -0.259 48 34 24
-2295.0410 1387.9551 6.9673 0.493 -0.316 0.811 45 32 21
-2175.5264 1622.5675 -143.1108 0.282 -0.487 0.827 55 47 37
-2165.3977 1676.8606 -173.0759 0.989 0.147 0.015 28 25 24
-2051.4836 1813.5521 -272.5538 0.845 0.503 -0.182 19 15 15
-2074.9053 1837.0677 -277.9724 0.874 0.487 -0.012 18 15 15
-2074.2344 1842.1283 -280.6911 0.812 0.137 0.567 18 15 15
-2221.3542 2092.1968 -366.0289 0.429 -0.886 0.175 204 154 143
-2410.6506 2509.0730 -523.5040 0.948 0.316 0.021 184 126 112
-2417.8848 2539.5781 -536.8264 0.967 0.151 0.207 211 153 138
-2434.1118 2563.0901 -544.1991 0.011 -0.986 0.165 211 153 139
-2393.2458 2555.5640 -551.5368 0.067 -0.995 0.079 173 115 100
-2398.6250 2568.8079 -556.7122 -0.172 -0.960 -0.221 202 144 130
-2289.7136 2516.5972 -560.1529 -0.240 -0.970 -0.033 194 144 126
-2303.9373 2538.7322 -567.3801 -0.189 -0.975 -0.119 181 132 114
-2285.1787 2527.7407 -566.9709 0.790 0.157 -0.593 167 121 101
-2294.9761 2545.5366 -573.2266 0.795 0.147 -0.589 143 98 78
-2302.6370 2561.2600 -579.0244 0.959 -0.111 -0.262 117 75 58
-2301.6028 2568.2058 -582.7869 0.954 -0.161 -0.252 59 26 11
-2194.1213 2528.3843 -592.0483 0.677 -0.657 -0.332 62 36 28
-1869.8387 2354.3010 -592.9573 0.374 -0.590 -0.716 43 18 9
-1878.4899 2371.5164 -599.2337 0.602 -0.270 -0.751 51 23 12
-1881.2833 2389.4546 -607.4648 -0.046 -0.852 0.521 65 27 10
-1764.9562 2261.8115 -575.1151 0.547 -0.155 -0.823 67 25 6
-1786.6578 2294.0500 -585.3732 0.725 -0.241 -0.645 69 25 3
-1525.1423 2348.2229 -683.6196 0.197 -0.706 0.681 109 48 6
-1543.4247 2381.5269 -695.3413 0.898 0.427 0.110 110 51 12
-1551.6636 2400.7656 -702.7439 0.898 0.427 0.110 110 53 19
-1523.4473 2375.5725 -697.7880 0.415 -0.898 0.145 95 44 26
-1529.2859 2391.4785 -704.1729 0.395 -0.909 0.129 89 43 26
-1519.2059 2384.5105 -703.4208 0.862 -0.507 0.001 83 43 29
-1515.3872 2386.5347 -705.4734 0.904 -0.424 -0.055 63 27 16
-1577.0687 2499.6111 -745.3782 0.956 0.156 -0.249 35 16 10
-1588.9943 2525.1182 -754.9203 0.959 0.063 -0.275 31 18 10
-1380.2927 2417.7253 -757.8328 0.564 -0.102 -0.819 79 64 59
-1407.9780 2478.6562 -780.8446 0.667 0.048 -0.743 71 56 51
-1470.3351 2588.9543 -819.1733 0.867 0.335 -0.368 59 44 39
-1509.4354 2661.7803 -845.0437 0.867 0.335 -0.368 48 34 27
-1492.3162 2642.2776 -839.9230 0.626 0.056 -0.778 36 22 16
-1578.5303 2793.8875 -892.4714 0.868 0.334 -0.367 32 18 14
-1334.7581 2405.3997 -764.0341 0.729 0.112 -0.676 28 13 9
-1189.9814 2443.5566 -822.5170 0.536 -0.516 -0.668 27 13 3
-1200.5851 2472.2756 -834.0282 0.278 -0.689 -0.669 25 13 4
-1202.6180 2501.5662 -848.1559 0.459 -0.387 -0.800 31 17 9
-1198.1093 2501.2822 -849.2393 0.416 -0.453 -0.789 34 21 12
-1199.6942 2512.9478 -854.6552 0.380 -0.468 -0.798 38 22 12
-1201.0675 2524.2632 -859.9531 0.885 -0.133 -0.446 43 24 9
-1197.5562 2543.3679 -870.4830 0.636 -0.470 0.612 47 25 8
-1195.0922 2547.1968 -873.0718 0.513 -0.396 0.762 60 37 21
-1192.7827 2551.3425 -875.7775 0.536 -0.408 0.740 59 37 20
-1187.2258 2548.9395 -876.0837 0.710 -0.684 0.169 59 37 21
-1117.2158 2554.1116 -897.7089 -0.260 -0.922 0.288 40 19 3
-1106.4354 2548.7676 -897.9612 -0.213 -0.921 0.326 46 16 3
-1105.6440 2556.0789 -901.8407 0.159 -0.790 0.592 49 20 3
-1098.9554 2568.6797 -909.9745 0.243 -0.689 0.683 54 26 10
-1096.9075 2573.3032 -912.8486 0.271 -0.674 0.687 58 30 12
-1079.3695 2608.1379 -935.0756 0.461 -0.854 0.242 107 69 49
-1074.1361 2614.9973 -939.9362 0.295 -0.925 0.241 100 59 37
-1076.5735 2630.1702 -946.8782 0.141 -0.916 0.375 105 64 40
-1074.1631 2634.1387 -949.5224 -0.290 -0.896 0.335 108 67 43
-1060.7002 2680.2083 -976.2725 0.982 0.189 -0.019 101 56 30
-1038.3394 2705.6064 -995.0809 0.269 -0.735 -0.622 100 51 25
-1033.8556 2704.5605 -995.7756 0.641 -0.399 -0.656 106 58 32
-1024.4484 2711.4661 -1001.7941 0.602 -0.390 -0.697 117 68 43
-1021.8490 2715.1208 -1004.3326 -0.369 -0.924 -0.102 109 59 34
-1015.8476 2730.7510 -1013.7979 0.598 0.184 0.780 116 60 40
-1014.1748 2736.8469 -1017.3079 0.688 0.229 0.688 128 75 53
-1013.3875 2745.2722 -1021.7446 0.690 0.245 0.681 131 77 53
-1012.2873 2752.9265 -1025.8800 0.716 0.311 0.625 132 77 51
-1008.6028 2764.4453 -1032.6548 0.720 0.345 0.602 140 91 79
-1011.1345 2781.8113 -1040.6704 0.671 0.309 0.674 139 90 84
-1011.6697 2793.9966 -1046.6322 0.667 0.306 0.679 139 86 80
-1019.7363 2826.3589 -1060.6591 0.642 0.142 0.753 137 84 78
-1021.4730 2842.0105 -1068.0314 0.642 0.131 0.756 123 72 66
-1023.5152 2858.5938 -1075.7877 0.729 0.228 0.645 108 60 49
-1024.4987 2872.4321 -1082.4562 0.677 0.223 0.701 91 41 31
-2268.0293 1241.5896 67.8094 0.654 -0.021 0.756 41 33 23
-2292.8997 1380.0182 4.9301 0.491 -0.307 0.815 42 33 25
-2164.0315 1617.5416 -149.3098 0.281 -0.492 0.824 47 42 34
-2074.7205 1833.8538 -282.1974 0.872 0.489 -0.007 23 17 12
-2359.2825 2441.0332 -510.5898 0.919 0.239 0.315 191 136 116
-2373.4258 2461.9417 -517.2807 0.960 -0.226 -0.165 198 142 123
-2405.6204 2523.5098 -539.5374 0.984 0.104 0.143 207 152 133
-2397.6785 2555.4802 -557.7572 0.172 -0.984 0.039 204 149 130
-2395.9114 2569.7593 -565.4138 -0.104 -0.951 -0.290 186 131 112
-2377.7566 2559.9741 -565.3993 -0.105 -0.994 0.020 179 124 105
-2367.1218 2557.4995 -567.0284 0.801 -0.311 -0.512 177 121 105
-2310.3152 2540.7766 -573.9688 -0.189 -0.975 -0.119 145 108 91
-2293.0081 2531.2903 -573.8754 0.795 0.154 -0.587 148 116 98
-2306.5115 2560.7932 -585.0605 0.975 -0.060 -0.214 47 23 7
-2193.1667 2499.6350 -584.9355 0.867 -0.109 0.486 66 39 28
-1772.9246 2267.2302 -581.6306 0.285 -0.379 -0.881 48 17 12
-1781.6665 2284.3689 -587.8856 0.576 -0.312 -0.756 49 18 11
-1763.6078 2270.3320 -585.7072 0.489 -0.551 0.676 47 16 7
-1528.1714 2341.0752 -684.8868 0.898 0.216 0.384 104 40 4
-1529.8812 2350.8513 -689.3401 0.886 0.443 0.140 98 39 3
-1530.5637 2381.6345 -704.6328 0.233 -0.437 0.869 88 40 37
-1537.5620 2399.2078 -711.5774 0.207 -0.523 0.827 77 35 33
-1390.3046 2429.6401 -766.6649 0.558 -0.109 -0.823 66 53 47
-1402.8977 2457.9707 -777.5065 0.588 -0.058 -0.807 66 53 45
-1502.3004 2645.2729 -844.8209 0.866 0.329 -0.376 31 20 15
-1540.5426 2717.0039 -870.5532 0.869 0.329 -0.371 25 14 11
-1194.5720 2447.8359 -828.6974 0.432 -0.580 -0.691 16 10 5
-1196.4583 2459.7554 -834.1807 0.421 -0.604 -0.677 15 10 6
-1196.3715 2467.9346 -838.3165 0.519 -0.358 -0.776 16 10 5
-1195.4459 2474.5283 -841.8817 0.496 -0.418 -0.761 23 17 12
-1199.5970 2491.0283 -849.0560 0.434 -0.465 -0.772 23 17 12
-1206.7144 2522.0205 -862.7151 0.398 -0.463 -0.792 26 17 10
-1104.5922 2548.8369 -903.7897 -0.043 -0.999 -0.020 40 20 6
-1102.1223 2552.4761 -906.2867 -0.036 -0.994 -0.100 41 20 8
-1098.7882 2554.2207 -908.0647 -0.045 -0.996 -0.078 41 20 8
-1094.7550 2554.4126 -909.2509 0.080 -0.899 0.431 41 20 8
-1095.1178 2564.3242 -914.1362 -0.117 -0.960 0.256 43 20 7
-1088.4148 2576.9216 -922.2811 0.951 -0.196 0.237 59 31 16
-1085.4775 2579.5581 -924.4002 0.932 -0.153 0.328 59 32 14
-1086.1108 2590.2659 -929.6127 0.926 -0.166 0.339 68 41 25
-1072.2175 2605.3909 -940.9709 0.321 -0.807 -0.495 94 58 38
-1071.7953 2613.8777 -945.3520 0.084 -0.979 -0.186 103 65 43
-1072.3962 2624.7905 -950.6764 -0.327 -0.890 0.318 108 72 49
-1073.8154 2637.6802 -956.7736 -0.301 -0.851 0.430 106 70 48
-1061.6564 2618.7979 -950.5651 -0.061 -0.827 0.559 103 67 45
-1058.4373 2669.3596 -976.8563 0.984 0.176 -0.020 104 62 38
-1061.8407 2687.4600 -985.0373 0.984 0.176 -0.020 100 57 33
-1051.4076 2702.0847 -995.2091 0.214 -0.570 0.793 91 46 22
-1041.4725 2697.7449 -995.7114 0.191 -0.955 -0.225 95 48 25
-1042.0741 2709.3572 -1001.3874 0.258 -0.757 -0.600 95 48 25
-1033.1775 2707.4739 -1002.8442 0.662 -0.405 -0.631 111 66 42
-1019.9802 2715.0217 -1010.2048 -0.369 -0.924 -0.102 109 59 36
-1014.7709 2711.9922 -1010.0891 0.028 -0.937 0.348 109 59 34
-1009.7073 2709.2861 -1010.0967 0.324 -0.629 0.707 110 58 36
-1010.9877 2722.9194 -1016.6052 0.312 -0.575 0.756 123 71 47
-1008.1412 2725.9370 -1018.8915 0.670 0.212 0.711 124 73 48
-1009.1321 2738.9534 -1025.1681 0.687 0.240 0.686 123 72 49
-1004.9352 2759.5979 -1036.6816 0.705 0.301 0.642 140 86 68
-1008.6292 2780.0461 -1045.9646 0.678 0.227 0.699 142 86 71
-1007.5553 2787.9524 -1050.2297 0.667 0.217 0.713 142 85 70
-1009.3109 2803.4661 -1057.5553 0.646 0.208 0.735 133 79 61
-1021.6232 2847.4365 -1076.3362 0.696 0.265 0.668 120 66 51
-1021.0698 2857.0635 -1081.3259 0.700 0.314 0.641 101 46 30
-2289.0793 1366.9165 5.0791 0.890 0.457 0.008 42 33 20
-2296.7893 1379.4644 0.8207 0.526 -0.397 0.753 42 33 24
-2302.7637 1386.8147 -1.2824 0.412 -0.512 0.754 41 34 26
-1886.3381 1641.7834 -241.6934 0.825 0.258 -0.503 53 51 49
-2227.5012 2090.2444 -376.2731 0.417 -0.889 0.188 207 155 137
-2294.5613 2332.5693 -480.4856 0.918 0.338 0.207 208 150 130
-2401.7266 2507.6384 -540.0085 0.984 0.157 0.080 207 152 132
-2319.7522 2545.8657 -581.2999 -0.174 -0.985 -0.012 151 116 99
-2293.9153 2527.8652 -579.1586 0.799 0.150 -0.582 104 75 59
-2295.7812 2537.6299 -583.5825 0.994 0.027 -0.103 61 37 19
-2296.8257 2546.6040 -587.8282 0.527 -0.439 0.728 42 21 4
-2292.0046 2549.6594 -590.6638 0.209 -0.532 0.820 41 14 3
-1786.5078 2279.1138 -589.9429 0.281 -0.379 -0.882 39 14 10
-1764.0703 2267.0388 -589.8776 0.476 -0.555 0.682 39 14 7
-1750.4431 2300.1443 -610.2336 -0.176 -0.513 0.840 90 34 16
-1748.5608 2304.9907 -613.1835 0.100 -0.486 0.868 92 35 16
-1534.9944 2368.8499 -702.7365 0.894 0.431 0.123 96 47 27
-1400.6335 2442.0115 -775.7137 0.603 -0.091 -0.792 53 43 34
-1409.3846 2464.1169 -784.5129 0.830 0.158 -0.536 47 34 26
-1421.8218 2492.3582 -795.4172 0.818 0.152 -0.555 42 29 20
-1501.0210 2638.4204 -847.8193 0.868 0.328 -0.372 27 16 12
-1193.9762 2458.7441 -839.6428 0.627 -0.339 -0.702 15 10 6
-1199.0457 2476.8970 -847.4371 0.500 -0.440 -0.746 22 17 13
-1213.3959 2591.9565 -901.6154 0.352 -0.393 -0.850 41 27 18
-1100.6527 2553.3567 -912.4200 -0.043 -0.996 -0.083 40 20 9
-1086.4402 2567.4639 -923.3513 0.932 -0.200 0.303 52 26 11
-1085.5750 2574.7256 -927.2462 0.928 -0.179 0.328 50 26 11
-1085.9646 2584.8538 -932.2498 0.928 -0.166 0.333 56 33 17
-1073.6852 2613.0671 -949.7767 0.078 -0.979 -0.186 96 60 38
-1068.9045 2611.4722 -950.2559 -0.309 -0.888 0.342 102 65 43
-1071.8618 2627.8772 -957.7359 -0.309 -0.864 0.397 104 67 46
-1060.1398 2610.0332 -951.8836 0.033 -0.844 0.536 104 67 45
-1056.7246 2611.5417 -953.5614 0.619 -0.713 -0.328 104 66 45
-1052.6377 2611.4526 -954.6138 0.800 -0.332 -0.501 105 66 45
-1052.5428 2620.7988 -959.3531 0.796 -0.335 -0.505 104 64 43
-1053.3223 2632.2781 -964.9336 0.805 -0.328 -0.495 104 62 40
-1052.6443 2640.3459 -969.1846 0.805 -0.328 -0.495 105 61 40
-1049.6726 2642.9524 -971.2972 0.812 -0.340 -0.473 104 62 40
-1048.9359 2650.9404 -975.5239 0.334 -0.836 0.436 99 57 35
-1048.0001 2658.4888 -979.5823 0.293 -0.811 0.506 93 51 29
-1040.9375 2690.9194 -997.8354 0.402 -0.766 0.502 93 48 25
-1045.9227 2713.3657 -1007.8177 0.364 -0.693 0.622 94 49 26
-1028.2274 2720.0908 -1015.9611 0.117 -0.863 0.492 113 67 44
-1010.0701 2704.6021 -1013.0246 0.296 -0.804 0.516 116 66 43
-999.3307 2739.0471 -1033.2810 0.692 0.295 0.659 134 78 61
-1004.8574 2764.2195 -1044.4929 0.678 0.227 0.699 135 79 62
-1015.4181 2802.9539 -1061.1932 0.093 -0.917 -0.387 135 79 62
-1012.8160 2806.8865 -1063.8754 0.097 -0.924 -0.370 137 83 63
-1015.4766 2824.9253 -1072.2592 0.695 0.320 0.644 130 73 58
-1015.2221 2835.2510 -1077.5353 0.695 0.345 0.631 117 61 44
-2287.4309 1363.6938 0.8634 0.890 0.455 0.038 35 26 13
-2151.1143 1589.2000 -149.6039 0.910 0.026 0.413 49 45 36
-2165.8008 1992.3871 -349.6742 0.776 0.314 -0.547 57 42 23
-2283.3308 2311.1741 -479.6004 0.889 0.401 0.222 208 150 130
-2302.5503 2365.0020 -501.7058 0.920 0.288 0.265 201 144 124
-2279.7598 2517.1646 -584.7725 0.450 -0.388 0.804 39 15 0
-2287.9734 2533.3022 -590.7455 0.238 -0.527 0.816 43 22 5
-1526.5135 2316.1396 -684.0599 0.971 0.149 -0.184 120 52 10
-1501.1359 2353.6318 -709.8005 0.863 0.249 0.440 35 15 8
-1499.3832 2358.5396 -712.7512 0.868 0.253 0.426 32 18 7
-1403.5499 2387.9055 -753.1806 0.811 0.001 0.585 23 15 12
-1401.5297 2392.4009 -755.9940 0.811 0.001 0.585 22 17 14
-1403.9792 2403.9780 -761.1979 0.794 0.018 0.607 22 17 13
-1387.0918 2384.9124 -756.0579 0.753 -0.045 -0.657 29 20 15
-1386.0525 2390.9417 -759.3857 0.824 0.118 -0.554 46 35 29
-1465.0121 2566.3938 -827.0848 0.838 0.289 -0.463 26 13 5
-1081.9954 2552.5242 -922.2709 0.771 -0.344 0.536 46 20 7
-1083.6237 2565.3135 -928.3071 0.885 -0.248 0.394 45 21 7
-1083.2239 2573.6169 -932.6147 0.862 -0.343 0.372 47 24 10
-1083.2803 2582.9951 -937.3445 0.771 -0.534 0.346 51 28 14
-1060.0604 2604.6575 -954.5004 0.041 -0.834 0.550 104 66 47
-1058.4724 2610.4385 -957.8489 0.649 -0.702 -0.293 104 66 47
-1053.4124 2608.0674 -957.9995 0.522 -0.385 -0.761 106 65 45
-1053.4160 2617.6245 -962.8339 0.522 -0.385 -0.761 105 62 43
-1054.5706 2629.9692 -968.7715 0.465 -0.448 -0.764 104 62 40
-1052.5956 2634.9307 -971.8087 0.450 -0.456 -0.767 105 62 40
-1049.5262 2637.2886 -973.8207 0.184 -0.846 -0.501 104 62 40
-1048.5094 2644.5754 -977.7787 0.311 -0.876 0.370 98 57 35
-1045.6674 2647.4922 -980.0129 0.297 -0.854 0.428 92 51 29
-1045.2758 2656.3484 -984.5981 0.290 -0.833 0.471 86 45 23
-1043.3121 2691.2893 -1002.8001 0.418 -0.557 0.717 93 48 25
-1011.1599 2712.0671 -1021.8918 0.022 -0.945 0.325 112 62 39
-1008.8585 2716.4602 -1024.7286 0.005 -0.974 0.226 109 61 38
-1005.6718 2728.9709 -1031.9087 0.157 -0.951 0.266 111 60 39
-1013.4644 2759.8186 -1045.4364 0.309 -0.948 0.073 126 73 55
-1012.9183 2801.2275 -1066.5326 0.852 -0.255 -0.457 139 86 65
-1008.2665 2799.6702 -1066.9860 0.703 0.332 0.629 138 80 66
-1010.9043 2817.6399 -1075.3738 0.702 0.353 0.619 132 76 59
-2208.0247 2067.0330 -382.5520 0.011 -0.984 -0.175 207 154 137
-2379.5630 2455.0569 -533.9974 0.917 0.298 0.264 213 158 138
-2410.1240 2491.3992 -544.3384 0.943 -0.143 0.300 217 162 142
-2359.6450 2521.2620 -572.8796 0.416 0.041 0.909 203 148 128
-2315.7334 2509.5842 -578.5966 0.352 -0.926 -0.135 159 107 99
-2306.6528 2508.4189 -580.4131 0.327 -0.936 -0.132 134 86 76
-2304.1829 2513.7842 -583.7910 0.326 -0.941 -0.091 106 65 55
-2309.7917 2527.2129 -589.1191 0.907 -0.387 0.166 54 19 9
-2307.5825 2532.8862 -592.5843 0.890 -0.207 -0.407 46 18 6
-2287.1387 2528.1213 -595.5869 0.310 -0.534 0.787 44 22 8
-2194.6904 2465.3564 -588.2462 0.793 -0.296 -0.533 69 41 30
-2205.8208 2484.4307 -594.9754 0.898 -0.125 -0.421 78 50 39
-1735.7465 2288.9363 -620.4041 0.654 -0.149 0.742 92 42 19
-1533.6862 2209.4353 -633.6345 0.653 -0.671 0.351 105 49 12
-1536.4681 2219.9224 -638.2192 0.610 -0.736 0.294 105 49 12
-1535.6179 2225.6748 -641.3643 0.851 -0.467 -0.240 108 52 15
-1485.6825 2327.3618 -706.2138 0.086 -0.515 0.853 30 16 7
-1405.6631 2387.0193 -757.7095 0.746 -0.224 0.628 26 18 15
-1399.7485 2385.3884 -758.4503 0.811 0.001 0.585 26 21 18
-1400.0546 2393.5449 -762.5087 0.803 0.001 0.595 29 24 20
-1397.9879 2397.9788 -765.3069 0.803 0.001 0.595 36 27 21
-1406.7395 2451.1023 -789.9478 0.935 0.345 0.079 21 8 1
-1081.9579 2547.4639 -924.9738 0.288 -0.857 0.426 44 17 2
-1082.1305 2556.9607 -929.7479 0.262 -0.860 0.438 43 17 2
-1082.4963 2566.9448 -934.7181 0.374 -0.823 0.427 45 19 4
-1080.0389 2570.6187 -937.2343 0.381 -0.850 0.363 48 22 9
-1076.4824 2571.8093 -938.7816 0.353 -0.850 0.391 52 26 11
-1072.1746 2571.2776 -939.6540 0.898 -0.350 -0.268 55 27 11
-1069.6381 2612.2874 -961.1400 -0.206 -0.774 0.599 92 56 34
-1059.4285 2598.0105 -956.6015 0.077 -0.853 0.516 96 61 39
-1058.0992 2604.3704 -960.1817 0.595 -0.796 -0.105 96 61 39
-1055.7897 2608.4551 -962.8671 0.794 -0.452 -0.405 96 60 38
-1058.5890 2634.2251 -975.2038 0.624 -0.400 -0.671 96 55 33
-1057.5510 2641.4353 -979.1384 0.446 -0.461 -0.767 96 55 33
-1053.2189 2640.8125 -979.9710 0.372 -0.530 -0.762 97 55 33
-1051.1433 2645.5718 -982.9368 0.234 -0.838 -0.492 100 58 36
-1047.8488 2647.4102 -984.7434 0.117 -0.889 -0.442 98 56 34
-1044.5356 2649.1941 -986.5273 0.024 -0.981 -0.191 89 47 25
-1010.8765 2747.2930 -1045.2399 0.278 -0.955 0.103 120 68 47
-1014.2510 2798.8533 -1070.5132 0.750 -0.191 -0.634 131 78 58
-1010.8391 2800.6101 -1072.3096 0.716 0.302 0.630 133 75 61
-2136.8435 1565.3132 -152.2577 -0.122 -0.655 0.746 60 54 41
-2184.6060 1994.7467 -358.2996 0.771 0.079 -0.632 76 52 37
-2188.5132 2004.0096 -361.9859 0.772 0.079 -0.631 78 50 34
-2194.2302 2014.7798 -365.9627 0.828 0.054 -0.558 109 76 61
-2200.3008 2032.1029 -373.1824 0.806 0.041 -0.590 197 150 140
-2224.2732 2070.6233 -386.4769 0.868 -0.210 -0.449 206 146 139
-2211.9768 2066.8115 -387.7762 0.025 -0.951 -0.307 203 149 132
-2286.9268 2292.3708 -482.8611 0.902 0.348 0.254 204 146 126
-2243.4995 2309.5066 -503.0277 0.644 -0.200 -0.738 206 150 130
-2306.5791 2504.0513 -585.4506 0.775 -0.300 0.557 129 83 75
-2220.1360 2479.3892 -595.6718 0.874 -0.473 -0.112 73 45 34
-2216.0085 2490.6140 -602.4739 0.922 -0.120 -0.368 65 37 26
-2199.4929 2481.4011 -602.1353 0.964 -0.208 -0.169 60 32 21
-2198.4551 2488.0481 -605.7928 0.908 -0.193 -0.371 52 25 14
-1735.3965 2291.6929 -627.8386 0.777 -0.087 0.624 89 39 12
-1524.8090 2263.0930 -668.7657 0.990 -0.042 0.136 118 56 15
-1525.7167 2271.3782 -672.7447 0.803 -0.592 0.073 120 58 17
-1530.3301 2291.8892 -681.9714 0.989 -0.086 -0.118 119 57 18
-1519.8387 2298.9622 -688.3365 0.959 0.283 0.030 110 53 21
-1515.5712 2307.4480 -693.7812 0.884 0.360 -0.298 90 44 20
-1407.9598 2378.7815 -758.4520 0.701 -0.173 0.692 21 14 8
-1403.5376 2379.4993 -759.9826 0.702 -0.181 0.689 28 20 17
-1394.9614 2381.3054 -763.1619 0.819 0.035 0.572 40 32 29
-1393.1315 2386.0723 -766.0708 0.819 0.035 0.572 46 37 31
-1395.3075 2397.2102 -771.1679 0.832 0.051 0.552 47 35 28
-1074.0508 2533.9343 -925.4226 0.415 -0.821 0.392 44 17 0
-1073.6454 2551.1958 -934.3174 0.930 -0.244 -0.276 48 22 7
-1072.8796 2558.6245 -938.3011 0.930 -0.244 -0.276 50 22 8
-1073.8881 2570.1145 -943.8851 0.898 -0.350 -0.268 50 21 5
-1064.1892 2622.9502 -973.3395 0.538 -0.283 -0.794 89 52 28
-1063.2467 2630.3259 -977.3429 0.533 -0.324 -0.782 88 49 26
-1063.2032 2639.8628 -982.2096 0.495 -0.384 -0.779 88 47 22
-1062.7477 2648.4761 -986.7147 0.432 -0.453 -0.780 89 47 23
-1059.3169 2650.0454 -988.4176 0.413 -0.501 -0.761 91 46 23
-1055.0004 2649.4832 -989.2687 0.163 -0.851 -0.500 99 54 31
-1051.3619 2650.5208 -990.7557 0.137 -0.866 -0.480 98 56 32
-1047.9023 2651.9739 -992.4071 0.143 -0.862 -0.486 93 48 25
-1039.1498 2690.1226 -1014.1349 0.400 -0.783 0.477 94 48 24
-1038.8247 2699.3967 -1018.9421 0.246 -0.665 0.705 95 49 26
-1020.2521 2724.1130 -1036.4191 -0.124 -0.740 -0.661 117 65 41
-2140.8132 1555.4879 -151.6665 0.311 -0.092 0.946 49 43 29
-2284.2454 1906.0555 -293.1442 0.549 -0.835 0.034 51 45 47
-1920.5179 1651.2091 -258.2269 0.814 0.160 -0.559 39 34 36
-1963.7493 1703.2406 -273.4801 0.945 -0.298 -0.132 20 19 17
-2188.8176 1994.7629 -363.4303 0.771 0.079 -0.632 84 54 41
-2192.7278 2004.0238 -367.1360 0.772 0.079 -0.631 107 73 59
-2196.7893 2013.4487 -370.8857 0.817 0.018 -0.577 149 109 97
-2201.6904 2023.5970 -374.7852 0.801 0.039 -0.597 188 141 131
-2246.4114 2085.3376 -394.6067 0.856 -0.140 -0.497 209 144 139
-2284.3169 2279.0750 -483.6215 0.899 0.319 0.301 204 149 129
-2207.7424 2470.2361 -601.2934 0.817 -0.155 -0.556 73 45 34
-2192.9187 2470.4246 -605.2708 0.860 -0.176 -0.479 60 32 21
-1703.9823 2250.2061 -620.8193 0.032 -0.647 0.762 84 34 8
-1706.5388 2260.2039 -625.2557 -0.022 -0.664 0.747 84 34 7
-1709.3619 2270.5713 -629.8110 -0.472 -0.881 0.026 85 35 9
-1524.2810 2258.5183 -672.1129 0.972 -0.233 -0.023 110 51 12
-1525.6956 2267.4702 -676.3142 0.790 -0.612 0.025 113 52 11
-1527.7102 2277.2812 -680.7970 0.748 -0.650 0.131 113 52 12
-1524.6990 2280.2769 -683.1152 0.748 -0.650 0.131 112 52 15
-1520.7036 2281.9231 -685.0020 0.978 -0.097 0.187 106 50 16
-1501.1028 2262.0955 -680.0081 0.875 0.008 0.483 102 49 18
-1511.3824 2297.6626 -695.4804 0.882 0.385 -0.270 80 39 20
-1397.2737 2342.9714 -748.4945 0.549 -0.572 -0.610 20 12 9
-1391.6901 2341.8091 -749.3629 0.512 -0.562 -0.650 20 13 7
-1405.2419 2370.3796 -760.4053 0.698 -0.200 0.688 22 13 8
-1402.2029 2373.2371 -762.6602 0.698 -0.200 0.688 29 21 18
-1392.5912 2365.7947 -761.3759 0.776 -0.258 0.575 34 26 23
-1387.6051 2365.5491 -762.5560 0.444 -0.666 0.599 40 32 29
-1388.8491 2375.1125 -767.1143 0.819 0.011 0.574 45 35 29
-1386.9192 2379.6960 -769.9603 0.819 0.011 0.574 41 29 22
-1375.1727 2368.6829 -767.4113 0.487 -0.578 0.655 37 23 15
-1152.5397 2485.0085 -885.1063 0.870 -0.231 0.436 38 20 8
-1069.0811 2535.9595 -932.9769 0.873 -0.281 -0.399 48 23 8
-1071.8875 2551.3760 -940.1152 0.879 -0.298 -0.371 48 22 7
-1069.0592 2554.1394 -942.2669 0.804 -0.582 -0.120 49 21 7
-1072.9419 2609.5769 -969.5616 -0.091 -0.736 0.671 77 41 20
-1057.8865 2584.1389 -960.5125 0.023 -0.803 0.596 83 45 25
-1051.7686 2579.2854 -959.6356 0.248 -0.889 -0.385 82 45 24
-1059.9408 2607.7910 -972.0535 0.868 -0.173 -0.466 84 45 25
-1060.6809 2619.0530 -977.6110 0.868 -0.173 -0.466 83 42 20
-1057.5309 2650.2021 -994.3431 0.161 -0.860 -0.484 89 47 25
-1054.7124 2653.2200 -996.6223 0.143 -0.862 -0.486 92 51 29
-1051.0981 2654.3223 -998.1315 0.097 -0.913 -0.396 93 51 29
-1048.9095 2658.8555 -1001.0195 0.141 -0.911 -0.388 94 52 30
-1043.5374 2705.5635 -1026.2793 0.236 -0.971 0.037 94 50 27
-1028.6300 2719.2031 -1037.1478 0.358 -0.850 0.386 113 63 40
-1022.6149 2724.5078 -1041.4318 -0.132 -0.748 -0.650 109 60 37
-1014.9446 2746.4023 -1054.6212 0.081 -0.995 0.056 110 55 35
-1016.2318 2760.2881 -1061.3755 0.100 -0.995 0.018 115 59 40
-1011.8431 2802.2839 -1083.9711 0.458 -0.448 0.768 123 69 52
-1013.7245 2818.2083 -1091.6110 0.293 -0.580 0.760 121 71 54
-1908.0923 1649.2190 -265.6796 0.947 0.133 -0.291 20 19 17
-2115.0415 1885.8522 -333.0633 0.664 -0.237 -0.710 45 29 22
-2116.0132 1892.3568 -336.1426 0.664 -0.237 -0.710 46 29 22
-2117.1670 1904.8143 -342.2241 0.652 -0.207 -0.730 47 28 22
-2150.0464 1942.4904 -352.9710 0.774 0.297 -0.559 72 53 46
-2189.0388 1985.4922 -364.8560 0.771 0.079 -0.632 80 58 49
-2193.0388 1994.7791 -368.5728 0.771 0.079 -0.632 122 88 76
-2202.3247 2014.5156 -376.2676 0.808 0.014 -0.589 191 145 134
-2232.5784 2070.4468 -397.0492 0.765 0.361 -0.533 212 143 139
-2285.6438 2269.3684 -485.1459 0.708 -0.364 -0.606 204 149 129
-2278.8000 2270.2642 -487.3851 0.904 0.349 0.249 204 149 129
-2290.3113 2294.6948 -496.9056 0.813 -0.538 -0.221 193 135 115
-2303.3977 2484.6167 -590.7924 0.502 -0.120 0.857 110 61 52
-2298.1797 2487.2190 -593.4828 0.502 -0.120 0.857 62 17 11
-2225.8022 2468.9880 -602.9721 -0.164 -0.971 0.173 73 45 34
-2209.7070 2475.6863 -610.5905 0.825 -0.149 -0.546 65 37 26
-1533.2084 2259.6699 -675.9175 0.826 -0.331 -0.457 98 43 5
-1529.7018 2261.9756 -678.0109 0.785 -0.618 0.050 102 45 8
-1529.1078 2268.2170 -681.3626 0.808 -0.588 0.017 104 46 8
-1530.5424 2277.2356 -685.6094 0.790 -0.601 0.121 104 46 8
-1525.9208 2278.0430 -687.2253 0.748 -0.650 0.131 102 47 12
-1515.7832 2271.2891 -686.4027 0.950 -0.206 0.236 96 45 14
-1396.6749 2352.9250 -759.2073 0.560 -0.520 -0.645 22 13 8
-1401.2592 2367.6021 -765.5333 0.740 -0.189 0.646 30 20 18
-1391.7405 2360.3118 -764.2750 0.430 -0.665 0.610 34 26 23
-1388.0249 2362.0532 -766.1335 0.444 -0.666 0.599 41 33 30
-1380.4303 2357.6746 -765.8663 0.390 -0.520 0.760 44 34 29
-1151.3118 2494.9832 -895.8083 0.960 -0.120 0.254 37 22 12
-1092.8098 2602.7803 -966.2483 0.417 -0.792 -0.445 47 22 11
-1088.1514 2601.5962 -966.8536 0.425 -0.794 -0.434 43 15 3
-1079.0710 2609.0776 -973.0482 -0.088 -0.731 0.677 58 25 5
-1050.2107 2570.5522 -960.8207 0.197 -0.883 -0.426 75 41 22
-1061.3583 2605.9146 -976.0358 0.863 -0.188 -0.469 77 41 22
-1052.0497 2593.6104 -972.1543 0.521 -0.311 -0.795 75 37 18
-1058.0999 2655.9878 -1002.5343 0.143 -0.862 -0.486 85 47 26
-1052.5314 2652.4187 -1002.1546 0.124 -0.980 -0.152 93 54 34
-1049.0670 2653.8704 -1003.7995 0.617 -0.686 0.385 99 60 40
-1041.6122 2685.2346 -1021.8057 0.858 -0.452 -0.245 90 49 29
-1043.5471 2700.0632 -1028.8986 0.852 -0.439 -0.284 92 50 30
-1042.2712 2707.0171 -1032.7927 0.860 -0.428 -0.277 92 50 30
-1044.7069 2723.2610 -1040.4803 0.504 -0.847 0.167 92 49 29
-1047.5206 2740.5635 -1048.6118 0.370 -0.821 0.434 93 48 27
-1038.9438 2729.3362 -1045.0917 0.306 -0.868 0.392 98 52 31
-1030.9309 2719.4124 -1042.0925 0.359 -0.849 0.388 106 59 37
-1032.9994 2755.7661 -1060.1774 -0.002 -0.568 -0.823 100 53 31
-1026.6469 2760.4421 -1064.2252 -0.070 -0.573 -0.816 101 53 32
-1026.4602 2770.5173 -1069.4351 -0.107 -0.598 -0.794 101 51 32
-1012.9874 2746.0776 -1060.4202 0.006 -0.959 -0.283 107 54 37
-1011.9581 2753.9231 -1064.7069 -0.024 -0.970 -0.240 115 60 45
-1005.1556 2767.8750 -1073.6237 0.338 -0.657 0.674 124 71 57
-1004.8596 2777.7959 -1078.7828 0.214 -0.803 0.557 123 70 54
-1005.8008 2791.0803 -1085.3431 0.153 -0.821 0.550 121 71 55
-2110.5188 1879.1764 -336.7387 0.782 0.263 -0.565 48 29 21
-2121.8845 1893.7578 -341.2937 0.687 -0.233 -0.688 49 29 22
-2124.1926 1901.3362 -344.5913 0.751 -0.273 -0.601 49 29 22
-2193.5081 1979.6356 -366.9097 0.816 0.228 -0.532 102 75 69
-2195.0850 1986.9586 -370.2650 0.793 0.088 -0.603 120 91 84
-2199.4224 1996.5156 -374.0549 0.850 0.045 -0.524 168 129 117
-2200.2927 2003.3356 -377.3343 0.832 0.041 -0.554 196 153 140
-2206.8418 2027.1328 -387.8699 0.910 -0.102 0.401 207 146 137
-2294.0955 2259.0325 -484.4794 0.887 -0.124 -0.445 204 148 128
-2273.4768 2275.6536 -498.3495 -0.088 -0.877 -0.472 191 133 113
-2253.9199 2272.0374 -501.5461 0.920 -0.381 -0.088 204 146 126
-2292.9895 2454.8816 -585.4025 0.833 0.199 0.517 166 115 97
-2306.8049 2475.9919 -592.6792 0.993 -0.047 -0.107 122 72 60
-2307.3691 2484.2529 -596.7783 0.993 -0.042 -0.111 78 32 23
-2305.5012 2490.1555 -600.2941 0.993 -0.040 -0.112 48 7 1
-2288.9353 2481.5830 -600.1708 0.966 0.046 0.254 44 7 0
-2192.0791 2476.4619 -622.5736 0.748 -0.203 -0.632 46 21 10
-1689.8339 2288.2302 -655.6647 -0.201 -0.919 -0.338 92 39 10
-1609.0220 2264.1194 -664.1626 0.944 0.082 -0.320 98 46 13
-1538.9874 2270.6135 -685.6013 0.365 -0.671 -0.646 89 37 3
-1483.0999 2236.6504 -682.5944 0.967 0.037 0.253 77 36 18
-1484.9965 2246.2390 -687.0313 0.964 0.046 0.261 69 32 16
-1391.8396 2326.4324 -752.3168 0.946 0.041 -0.322 20 11 8
-1395.0338 2338.7878 -757.8400 0.639 -0.564 -0.522 23 14 9
-1400.2213 2354.2996 -764.4699 0.633 -0.565 -0.530 27 18 13
-1399.2794 2360.3721 -767.8338 0.625 -0.614 -0.483 37 28 23
-1390.7365 2362.1541 -770.9575 0.458 -0.679 0.574 39 31 27
-1383.5479 2358.4353 -770.9046 0.659 -0.200 0.725 39 28 23
-1376.2893 2354.5566 -770.7877 0.394 -0.524 0.755 28 16 9
-1055.7390 2568.9631 -963.8125 0.072 -0.996 -0.053 57 32 15
-1058.4174 2584.4934 -971.1005 0.255 -0.839 -0.480 57 32 14
-1062.0220 2602.2842 -979.3105 0.858 -0.216 -0.466 60 31 14
-1058.8595 2604.3755 -981.2026 0.518 -0.316 -0.795 64 33 16
-1056.8387 2647.6406 -1003.9567 0.188 -0.981 -0.055 77 42 24
-1051.2511 2644.0132 -1003.5369 0.169 -0.796 0.582 86 50 32
-1039.3969 2654.5244 -1012.0021 0.255 -0.950 0.179 82 45 26
-1038.4806 2662.1548 -1016.1598 0.227 -0.960 -0.164 83 45 27
-1042.8698 2682.8606 -1025.6650 0.343 -0.772 0.535 83 46 27
-1039.8228 2685.3660 -1027.7400 0.914 -0.346 -0.212 84 46 28
-1037.8291 2700.5676 -1036.0667 0.994 0.087 0.072 84 46 27
-1031.4935 2705.0288 -1039.9966 0.490 -0.639 0.593 95 52 33
-1028.5123 2707.7195 -1042.1498 0.494 -0.643 0.585 97 54 34
-1029.4573 2720.3435 -1048.3925 0.533 -0.776 0.337 98 57 36
-1037.0491 2760.3909 -1067.0085 -0.096 -0.687 -0.721 92 50 29
-1036.3187 2769.0303 -1071.6367 -0.085 -0.709 -0.700 92 49 29
-993.1349 2668.4338 -1031.1067 0.737 -0.186 -0.650 93 48 31
-1031.7206 2778.3411 -1077.6094 -0.088 -0.633 -0.769 96 49 32
-1002.8907 2724.5229 -1057.4066 0.898 -0.258 -0.357 109 57 43
-1004.5132 2760.3572 -1075.4006 0.532 -0.343 -0.774 119 66 53
-2105.1265 1511.9823 -154.7785 0.706 0.315 0.635 54 50 40
-1750.4821 1457.9399 -217.9935 0.826 0.238 -0.510 34 32 32
-1807.8258 1528.9572 -239.8726 0.502 0.205 -0.840 51 47 47
-1970.8033 1684.7428 -278.3181 0.869 -0.152 -0.472 24 18 12
-2124.7615 1875.6078 -337.1608 0.766 -0.360 -0.533 51 35 27
-2153.4734 1938.6658 -362.2898 0.773 0.291 -0.564 105 60 51
-2197.1545 1979.1833 -371.9569 0.809 0.234 -0.539 144 95 87
-2201.8545 1988.9862 -375.8027 0.812 0.235 -0.535 172 121 113
-2303.5566 2460.9370 -592.9451 0.990 -0.065 -0.126 132 90 69
-2307.5317 2472.4641 -597.8658 0.993 -0.047 -0.107 86 51 37
-2308.3713 2480.9817 -602.0403 0.994 -0.043 -0.099 61 27 16
-2307.3562 2487.7124 -605.7704 0.991 -0.039 -0.127 46 13 3
-2262.1328 2458.5884 -602.3719 0.926 -0.226 0.304 55 25 14
-2189.4971 2446.7156 -614.9047 0.879 0.401 -0.258 49 22 11
-1596.0095 2209.3574 -644.9662 0.763 -0.477 0.437 97 49 19
-1596.4131 2216.6716 -648.6325 0.650 -0.510 0.563 98 50 19
-1592.8778 2219.0366 -650.7594 0.921 -0.287 -0.262 97 49 18
-1590.7687 2223.2056 -653.4498 0.868 -0.470 0.162 95 47 16
-1539.7185 2267.7217 -689.5043 0.376 -0.611 -0.697 71 28 4
-1543.5208 2279.9092 -694.8097 0.311 -0.710 -0.632 70 31 3
-1542.1248 2285.1301 -697.8592 0.296 -0.696 -0.654 80 37 11
-1566.5457 2332.6919 -716.1030 0.766 -0.434 -0.474 80 44 30
-1479.7844 2242.1924 -691.7363 0.958 -0.228 0.175 39 10 5
-1381.9149 2299.8196 -746.5714 0.719 0.042 -0.694 18 7 3
-1398.4836 2340.0146 -763.0347 0.988 0.072 -0.136 31 19 13
-1399.3877 2348.8896 -767.3769 0.987 0.075 -0.144 36 25 21
