ply
format ascii 1.0
element vertex 772
property float x
property float y
property float z
property float nx
property float ny
property float nz
property uchar diffuse_red
property uchar diffuse_green
property uchar diffuse_blue
end_header
-455.5084 4533.9756 -1092.3901 0.101 -0.464 -0.880 254 158 165
-4114.2295 4651.7979 1909.6534 -0.708 -0.705 -0.047 122 113 106
-3901.6902 4669.1558 1726.5537 0.820 -0.549 0.165 169 159 159
-3899.0437 4677.1465 1721.6732 0.798 -0.575 0.180 175 165 166
-3811.3179 4590.0439 1677.6300 0.139 -0.617 0.775 180 170 170
-3780.9932 4566.8247 1660.1007 0.138 -0.611 0.779 182 172 172
-3375.6733 4180.3179 1451.2787 -0.155 -0.977 -0.147 169 150 140
-3384.4053 4200.1411 1451.9318 0.102 -0.876 0.471 163 145 135
-3377.6265 4202.2661 1445.5663 0.104 -0.885 0.454 157 137 128
-3769.6714 4696.4155 1607.3092 0.596 -0.694 -0.404 150 124 102
-3765.6990 4703.0474 1601.7773 0.596 -0.694 -0.404 150 123 102
-3630.1536 4589.3369 1526.7445 0.257 -0.952 0.168 143 118 96
-3628.0520 4597.9092 1522.1243 0.320 -0.930 0.179 144 122 100
-3293.0571 4337.6416 1329.7390 0.838 -0.373 -0.399 156 123 108
-3697.2273 5129.4521 1402.0311 0.610 -0.579 0.541 178 165 156
-3685.1367 5126.8657 1392.8107 0.631 -0.568 0.528 179 166 157
-3687.4736 5143.0903 1389.3333 0.615 -0.609 0.501 178 163 156
-3705.8625 5180.4082 1392.1901 0.789 -0.604 0.113 176 161 154
-3713.8105 5258.3511 1372.7487 0.463 -0.805 -0.371 182 167 161
-3711.0024 5268.2964 1367.0795 0.458 -0.811 -0.365 179 164 157
-3705.3765 5274.5190 1360.3052 0.458 -0.811 -0.365 181 164 156
-3598.9712 5241.1416 1282.7096 0.051 -0.989 0.141 180 163 153
-3591.9304 5245.3604 1275.4254 0.052 -0.985 0.166 181 166 157
-3662.3032 5355.8828 1297.1592 0.300 -0.769 -0.565 182 168 159
-3431.8428 5245.9194 1141.6978 0.720 -0.520 0.459 196 177 170
-3458.3918 5298.3633 1146.3024 0.545 -0.708 0.449 195 176 169
-3497.9587 5384.5522 1150.4781 -0.153 -0.936 0.317 193 174 167
-3415.3723 5279.5439 1116.7114 -0.046 -0.749 0.660 185 167 157
-3398.1265 5268.9375 1105.8735 -0.046 -0.749 0.660 169 151 141
-3381.9866 5259.8647 1095.4448 0.154 -0.828 0.539 159 140 133
-3376.8562 5266.8286 1088.8358 -0.007 -1.000 0.006 165 148 140
-3367.1313 5267.0747 1080.6412 0.233 -0.957 0.172 166 149 141
-3367.0593 5355.2666 1051.0817 0.254 -0.651 0.715 137 120 112
-3344.1987 5381.0010 1023.4040 0.930 -0.030 0.367 140 121 114
-3239.9541 5297.5415 964.3629 0.312 -0.692 0.650 195 176 169
-3228.2622 5294.5864 955.5983 0.312 -0.692 0.650 196 176 169
-3220.7539 5313.1528 943.1248 0.346 -0.643 0.683 196 176 169
-3198.2021 5293.2988 930.9539 0.313 -0.696 0.646 192 172 165
-3216.1323 5336.3735 931.5024 0.972 -0.182 0.150 192 172 165
-2912.3169 4990.2563 793.8420 0.831 -0.547 -0.101 183 158 153
-3033.0986 5484.2886 729.3447 0.743 -0.354 0.568 142 119 108
-2876.7429 5330.7471 650.2759 0.398 -0.888 -0.229 36 27 22
-2865.9446 5328.3047 642.0853 0.433 -0.889 -0.151 34 26 23
-2850.7278 5318.0874 632.8094 0.441 -0.883 -0.161 33 28 25
-2843.5974 5321.9961 625.5540 0.466 -0.869 -0.165 33 25 22
-2845.4832 5511.9292 563.5959 0.945 -0.323 -0.055 28 22 18
-2785.8860 5472.5513 527.0535 -0.255 -0.884 0.392 34 18 18
-2644.9690 5436.6265 421.5212 -0.229 -0.899 0.372 107 68 62
-2635.4829 5436.2109 413.7470 -0.031 -0.999 -0.027 124 86 77
-2630.5259 5462.6958 400.7532 0.356 -0.790 -0.500 163 123 115
-2545.8726 5671.1060 260.4262 0.853 -0.333 -0.403 170 121 107
-2404.4004 5527.9546 190.2973 0.151 -0.873 0.464 110 57 41
-2169.1902 5441.1304 23.1341 0.399 -0.259 0.880 166 137 123
-1963.7802 5130.2280 -44.2184 -0.448 -0.893 0.044 190 161 163
-1943.9601 5223.6392 -91.9970 -0.205 -0.959 0.193 215 188 197
-1845.1611 5014.1636 -104.3441 0.874 -0.344 0.342 174 149 158
-1851.8834 5051.4639 -111.2133 0.872 -0.362 0.329 240 227 234
-1835.4974 5029.7549 -117.6205 0.880 -0.328 0.344 235 224 230
-1847.1967 5080.2319 -124.7456 0.522 -0.503 0.688 242 231 237
-1806.3635 5015.4268 -137.1304 0.876 0.028 0.481 253 245 250
-1796.7362 5031.2485 -150.4536 0.217 -0.722 0.657 255 244 250
-1798.7679 5057.2656 -157.4613 0.140 -0.751 0.646 254 245 250
-1933.9005 5550.4741 -209.7122 0.330 -0.791 0.515 245 243 244
-1918.9949 5628.6274 -248.2878 0.552 -0.619 -0.559 238 233 237
-1828.4226 5617.9521 -320.2696 -0.002 -0.993 0.119 255 247 252
-1731.5967 5409.1577 -331.1989 -0.334 -0.745 0.578 227 218 223
-1714.9926 5384.4819 -336.7957 -0.089 -0.958 -0.273 245 239 243
-1710.8772 5421.1499 -352.4936 0.047 -0.914 -0.403 255 251 255
-1759.7324 5592.3779 -369.0146 0.217 -0.854 -0.472 255 253 255
-1036.2941 6317.5400 -1215.0465 0.713 -0.442 -0.545 222 144 146
-962.2104 6081.2339 -1197.8022 0.686 -0.662 -0.302 218 127 124
-945.6208 6031.1445 -1194.8864 0.720 -0.652 -0.240 219 128 125
-619.1890 4568.2559 -977.8610 0.540 -0.834 0.111 253 39 94
-517.1967 4205.9727 -941.7590 0.993 -0.005 -0.122 255 30 85
-357.2686 3902.4189 -973.6298 0.144 -0.659 -0.738 255 75 130
-19.5200 3141.9858 -1001.0106 0.225 -0.503 -0.835 247 87 105
2.2327 3142.9597 -1019.4818 0.084 -0.573 -0.815 221 126 122
-4632.3262 4922.0718 2236.2886 -0.160 -0.683 0.712 185 182 177
-4031.7258 4596.2183 1845.5946 -0.667 -0.744 0.031 166 159 151
-3874.3342 4638.6748 1700.1367 0.879 -0.382 0.284 181 172 175
-3791.3364 4556.9878 1658.4965 0.130 -0.605 0.786 185 176 179
-3778.9714 4553.8408 1649.2529 0.139 -0.611 0.779 189 180 182
-3764.0361 4547.7842 1638.8479 0.394 -0.499 0.772 188 181 181
-3369.3411 4163.3105 1439.4840 0.273 -0.809 0.521 170 150 141
-3636.9199 4586.3115 1519.9420 0.257 -0.952 0.168 145 119 97
-3639.0090 4599.7910 1517.1415 0.350 -0.925 0.149 143 122 99
-3687.5071 4667.9404 1534.5944 0.509 -0.624 0.593 146 127 103
-3688.7708 4680.7017 1531.3479 0.766 -0.392 0.509 151 135 110
-3296.4680 4341.9233 1318.5823 0.838 -0.373 -0.399 168 135 123
-3611.1687 4917.0620 1387.0494 0.599 -0.334 0.728 187 168 161
-3797.8870 5314.9595 1408.5842 0.931 -0.359 0.067 183 168 163
-3627.8831 5239.5029 1292.3430 0.145 -0.988 -0.058 197 178 171
-3623.0886 5246.7866 1285.8939 0.140 -0.989 -0.054 198 181 173
-3615.5735 5250.3906 1278.4174 0.061 -0.986 0.152 194 180 171
-3604.0037 5248.4614 1269.4260 0.051 -0.988 0.144 192 177 170
-3586.5005 5238.3804 1258.2372 0.041 -0.987 0.155 192 177 170
-3647.5874 5350.3306 1271.4233 0.973 -0.013 0.230 189 176 168
-3367.0676 5098.2168 1122.6077 0.463 -0.764 -0.450 193 175 165
-3503.7649 5335.0835 1156.7134 0.023 -0.827 0.562 195 176 169
-3529.3132 5386.2285 1160.7714 0.326 -0.881 0.343 195 176 169
-3478.5588 5327.9502 1138.1125 -0.212 -0.833 0.511 195 176 169
-3433.7527 5277.8926 1117.6410 -0.058 -0.761 0.646 192 173 166
-3418.8694 5270.7974 1107.6292 -0.040 -0.759 0.650 193 174 167
-3402.2800 5261.1699 1097.0490 -0.106 -0.903 0.416 198 179 172
-3390.7429 5258.8184 1088.2274 -0.030 -0.977 0.210 201 182 175
-3386.9456 5267.7271 1082.0616 -0.010 -0.972 0.234 188 169 162
-3378.8315 5270.3555 1074.4146 0.244 -0.955 0.172 185 168 160
-3361.8784 5260.0112 1063.7728 0.969 -0.243 0.052 185 168 160
-3340.9277 5361.7271 1012.0452 0.437 -0.649 0.622 190 171 164
-3267.5498 5310.5308 968.1484 0.321 -0.662 0.677 211 192 185
-3243.9841 5304.5015 950.5424 0.328 -0.711 0.622 196 176 169
-2888.0681 4923.7056 782.2542 0.798 -0.518 -0.308 185 157 153
-2867.3384 4904.8374 771.3370 0.815 -0.515 -0.266 184 158 153
-3063.2744 5389.0942 771.4573 0.382 -0.162 0.910 188 153 147
-3058.0925 5445.1816 748.2427 0.527 -0.447 0.723 172 139 132
-2891.4390 5341.0693 644.4478 0.041 -0.999 -0.008 30 20 16
-2875.9019 5346.8647 629.5482 0.612 -0.651 -0.450 29 21 19
-2714.3103 5159.4419 558.0397 0.538 -0.700 -0.469 27 22 18
-2693.0278 5153.5708 542.2831 0.052 -0.899 -0.435 27 22 18
-2718.0706 5231.1812 537.0031 0.403 -0.912 -0.080 27 22 18
-2781.3123 5379.1958 539.8340 -0.112 -0.991 0.079 28 22 18
-2770.1001 5375.8125 531.6310 0.363 -0.930 0.060 31 20 18
-2644.2017 5436.6831 406.2122 -0.031 -0.999 -0.027 177 139 130
-2647.3367 5685.7144 324.9227 0.938 -0.263 0.224 179 131 121
-2523.1033 5605.5166 248.4191 0.834 -0.442 -0.330 170 121 107
-2410.1611 5522.6572 182.2214 0.151 -0.873 0.464 159 105 89
-2259.1045 5508.3896 61.1533 0.314 -0.448 0.837 158 118 102
-2225.0398 5491.5205 38.4508 0.330 -0.280 0.902 150 118 103
-2198.3706 5470.6582 23.2561 0.305 -0.282 0.910 150 121 107
-2091.5229 5320.5542 -15.2074 0.303 -0.347 0.888 205 176 178
-2001.1016 5163.5439 -37.6566 0.317 -0.644 0.696 204 175 177
-1978.9459 5149.6338 -51.4323 -0.430 -0.892 0.139 223 194 196
-1953.4518 5229.2163 -99.4889 -0.169 -0.969 0.180 220 193 202
-1942.1055 5221.4375 -106.3230 -0.071 -0.448 0.891 212 185 194
-1840.8960 5025.8154 -124.7527 0.879 -0.343 0.331 246 235 241
-1869.2129 5118.7861 -132.4794 0.555 -0.476 0.682 250 242 247
-1852.1772 5095.5732 -138.8545 0.664 -0.592 -0.457 255 248 253
-1791.0787 4978.1592 -150.2094 0.897 0.034 0.440 255 244 250
-1924.5901 5623.0635 -256.2314 0.549 -0.641 -0.536 249 244 248
-1830.5947 5602.6328 -327.6741 -0.053 -0.988 0.146 255 248 253
-1737.3843 5405.1758 -338.8202 -0.342 -0.745 0.573 226 217 222
-1720.5756 5380.0146 -344.3497 -0.027 -0.971 -0.237 246 240 244
-1711.6903 5378.0181 -351.0810 -0.027 -0.972 -0.233 251 245 249
-1681.9884 5387.1826 -378.9192 -0.083 -0.315 0.946 255 251 255
-1023.3346 6010.4004 -1137.7432 -0.257 -0.863 -0.435 227 151 155
-1044.2251 6272.4272 -1208.6156 0.445 -0.636 -0.630 224 145 148
-628.1200 4596.1528 -990.5956 0.558 -0.829 0.050 253 38 94
-533.6675 4339.5625 -982.8540 0.603 -0.737 0.305 254 31 85
-536.2988 4448.0972 -1017.2280 -0.165 -0.875 -0.455 252 71 112
-542.1498 4684.3535 -1091.9502 -0.066 -0.921 -0.385 255 157 160
-356.6682 3857.2075 -967.8351 0.071 -0.558 -0.827 255 75 130
-22.3242 3153.6892 -1009.4183 0.221 -0.505 -0.834 247 88 105
-4487.4922 4788.8135 2145.7886 -0.154 -0.673 0.724 163 162 157
-3870.7415 4623.8037 1688.3857 0.895 -0.382 0.229 187 178 181
-3448.9924 4494.6992 1381.1227 -0.255 -0.620 0.742 174 145 131
-3325.0002 4366.1245 1321.5389 -0.265 -0.795 0.545 173 147 132
-3509.8669 4800.6509 1327.9755 0.732 -0.627 -0.268 191 177 168
-3600.6904 4928.8447 1360.0782 0.721 -0.253 0.645 188 178 168
-3744.6592 5313.8843 1349.2629 0.478 -0.244 0.844 194 177 168
-3715.1206 5302.1421 1328.6589 0.735 -0.343 0.585 195 177 167
-3637.5769 5322.8730 1257.0752 0.977 -0.070 0.203 186 171 164
-3298.6870 4909.1250 1115.3755 0.797 -0.279 0.536 193 176 168
-3292.6211 4913.7393 1108.7604 0.797 -0.279 0.536 199 180 173
-3430.5547 5259.5215 1106.2429 0.265 -0.953 0.146 193 174 167
-3419.8413 5258.4292 1097.6956 0.252 -0.950 0.185 193 174 167
-3410.5244 5259.3335 1089.6329 0.252 -0.950 0.185 195 176 169
-3397.3328 5254.6064 1080.2562 0.271 -0.946 0.178 198 179 172
-3395.4065 5266.2231 1074.7108 0.275 -0.947 0.165 199 180 173
-3391.9380 5275.6411 1068.6277 0.229 -0.959 0.169 199 182 174
-3386.5066 5282.2251 1061.8723 0.802 -0.567 0.191 199 182 174
-3365.6562 5266.2007 1049.9536 0.930 -0.362 0.060 198 181 173
-3348.1301 5269.5068 1034.2424 0.788 -0.611 0.081 190 173 165
-3340.5022 5272.8301 1026.7650 0.781 -0.619 0.085 195 178 170
-3382.2432 5349.4761 1035.5024 0.248 -0.665 0.704 201 184 176
-3026.2898 5409.2075 718.9301 0.266 -0.691 -0.672 164 139 129
-3014.1565 5405.0630 710.2365 0.758 -0.616 0.215 160 136 126
-2918.9299 5357.0176 647.2715 0.142 -0.758 0.637 27 13 8
-2905.8489 5350.8032 638.4911 0.070 -0.996 0.048 32 22 17
-2781.4104 5296.7114 553.2612 0.337 -0.938 0.081 29 24 20
-2795.4602 5338.5220 550.7689 0.436 -0.856 -0.277 27 22 18
-2776.3660 5371.5186 523.6774 0.359 -0.930 0.079 33 23 21
-2802.2266 5523.2637 493.7117 0.950 -0.292 -0.113 119 105 104
-2662.9570 5438.5332 406.5329 -0.224 -0.902 0.369 196 157 151
-2659.6636 5450.1182 399.8601 0.356 -0.790 -0.500 183 145 136
-2695.4573 5668.3008 355.6183 0.970 -0.242 0.002 187 140 130
-2419.0012 5523.9834 174.4624 0.162 -0.871 0.465 159 107 90
-2376.1890 5490.4507 150.2034 0.126 -0.643 0.756 154 105 91
-2170.7488 5387.8096 14.0202 0.109 -0.406 0.907 148 119 105
-1984.2146 5144.7969 -58.7916 -0.426 -0.900 0.093 225 196 198
-1970.2322 5170.8374 -79.2674 -0.164 -0.840 -0.517 227 200 209
-1956.0717 5156.1304 -86.0644 0.875 -0.191 -0.444 231 204 213
-1949.0972 5220.7339 -113.7923 -0.056 -0.481 0.875 220 194 203
-1914.3522 5153.8276 -120.0112 0.481 -0.836 0.263 221 198 206
-1891.9210 5138.0938 -133.3444 0.599 -0.456 0.659 241 230 236
-1869.0725 5100.3325 -139.5501 0.566 -0.472 0.676 250 240 246
-1657.7919 5317.5815 -389.1452 -0.256 -0.893 -0.371 255 249 253
-1615.0049 5285.0786 -413.7325 -0.317 -0.901 -0.295 233 206 213
-1610.8783 5321.8506 -429.6455 -0.179 -0.701 -0.690 239 197 209
-1039.9371 6064.9038 -1157.0542 -0.212 -0.862 -0.460 231 155 159
-1030.4065 6105.8081 -1178.8680 -0.026 -0.934 -0.356 230 156 157
-1023.3443 6113.6440 -1187.4058 -0.047 -0.923 -0.381 230 151 154
-1016.6851 6123.8730 -1196.4200 -0.049 -0.946 -0.320 226 150 154
-536.4082 4326.0332 -986.1411 -0.168 -0.865 0.474 254 36 88
-534.4764 4354.4404 -997.3887 -0.208 -0.959 0.194 247 43 92
-538.4916 4429.2188 -1019.4214 -0.335 -0.942 -0.029 254 87 129
-535.4725 4450.8394 -1029.2712 -0.099 -0.891 -0.444 255 121 153
-506.2281 4355.8511 -1021.3818 -0.195 -0.980 -0.028 255 159 162
-137.7552 3907.8018 -1176.0674 0.635 -0.769 0.073 253 44 75
-124.2285 3928.4224 -1194.3247 0.852 0.046 0.521 238 31 61
-107.8699 3854.5520 -1182.8750 0.481 -0.480 0.733 222 13 44
-54.9069 3180.1079 -998.0994 0.802 -0.544 -0.248 192 22 40
-17.1783 2998.3777 -967.8378 0.693 -0.571 0.441 234 93 105
-4390.6416 4885.6855 2017.4250 0.882 -0.458 -0.108 164 157 149
-4329.8125 4866.6411 1973.3517 -0.664 -0.747 -0.027 117 110 102
-4268.1919 4813.0308 1940.4333 -0.664 -0.747 -0.027 93 89 80
-3874.2576 4616.8516 1679.9050 0.866 -0.437 0.244 189 180 181
-3781.8921 4535.7456 1630.8177 0.322 -0.493 0.808 184 175 174
-3295.8906 4330.8975 1296.6945 -0.096 -0.871 0.482 165 146 129
-3628.4036 5227.3091 1266.8353 0.635 -0.448 0.629 195 177 167
-3359.4338 5214.5054 1047.5505 -0.104 -0.838 0.536 198 181 173
-3383.6401 5264.1631 1050.7079 0.816 -0.544 0.195 198 181 173
-3394.6035 5338.7910 1034.3195 0.319 -0.541 0.778 198 181 173
-3392.8462 5351.0210 1028.6787 0.277 -0.670 0.689 198 181 173
-3050.4939 4952.9487 880.0427 0.091 -0.801 0.592 200 181 174
-2967.6611 5023.0166 787.2169 0.890 -0.389 -0.235 189 166 160
-2902.4922 5079.9692 713.5617 0.644 -0.716 -0.270 187 157 151
-3003.6626 5372.2544 697.7977 0.785 -0.502 0.363 160 136 126
-3010.6812 5400.2827 694.0551 0.481 -0.283 0.830 153 131 120
-2990.7065 5399.1201 677.8426 0.122 -0.664 0.738 141 121 110
-2930.6155 5361.9043 640.5930 0.046 -0.915 0.400 36 22 15
-2919.3179 5358.8252 632.2507 0.046 -0.915 0.400 38 28 24
-2916.7129 5370.7466 626.0103 0.217 -0.972 -0.085 36 28 25
-2897.0664 5353.1479 615.6879 0.568 -0.717 -0.403 36 28 26
-2878.9021 5354.4619 600.1344 0.802 -0.446 -0.397 37 27 25
-2882.0737 5376.5776 595.2135 0.785 -0.519 -0.337 37 29 26
-2876.7678 5383.9106 588.2951 0.601 -0.687 -0.408 35 30 27
-2824.1479 5307.7856 570.5559 0.395 -0.859 -0.325 39 34 30
-2819.4910 5316.0503 563.8588 0.387 -0.857 -0.341 43 38 34
-2811.3647 5351.5161 544.9807 0.468 -0.840 -0.272 44 39 35
-2798.6143 5345.4424 536.4539 0.395 -0.904 0.165 44 39 35
-2784.4766 5336.8115 527.6475 0.213 -0.942 0.258 44 39 35
-2765.8394 5336.7856 512.1586 0.213 -0.942 0.258 47 37 35
-2800.7466 5521.9409 477.9066 -0.316 -0.918 0.240 168 152 151
-2684.5684 5463.5879 401.2419 0.206 -0.964 -0.167 193 155 148
-2677.7681 5468.5117 393.9042 0.223 -0.962 -0.159 189 151 142
-2675.2480 5481.7041 387.3001 0.288 -0.953 -0.098 191 151 143
-2638.1440 5464.1484 362.4465 0.935 -0.296 0.197 187 147 139
-2456.9744 5548.2119 183.0657 0.107 -0.658 0.746 164 111 95
-2217.3677 5437.2031 21.7602 0.285 -0.432 0.856 154 125 111
-2011.1565 5152.5771 -52.4396 0.440 -0.554 0.706 214 185 187
-2002.2367 5150.9307 -59.2942 0.440 -0.554 0.706 219 190 192
-1993.3325 5149.2871 -66.1367 0.440 -0.554 0.706 226 197 199
-1982.8022 5143.6523 -72.9673 0.435 -0.565 0.700 230 201 205
-1989.1184 5199.3384 -86.7465 0.334 -0.757 0.562 225 199 208
-1848.6318 4970.4219 -125.3327 0.263 -0.927 0.266 218 195 203
-1821.9814 5002.3789 -158.4154 0.183 -0.963 0.197 255 246 252
-1864.5903 5132.6411 -167.5027 0.008 -0.935 -0.354 255 245 251
-1768.9641 4905.5664 -169.4151 0.541 -0.841 -0.005 255 245 251
-1906.7479 5439.8101 -237.4253 0.691 -0.448 0.568 242 240 241
-1876.9380 5427.9209 -258.1504 0.796 -0.518 0.313 251 246 250
-1815.8143 5306.3579 -267.4319 -0.057 -0.916 0.396 251 246 250
-1821.3359 5344.2969 -275.8065 0.043 -0.959 0.282 255 250 254
-1737.2416 5339.3779 -344.0539 -0.221 -0.706 0.673 244 235 240
-1737.3156 5363.3672 -352.1909 -0.194 -0.642 0.742 239 230 235
-1736.5905 5458.3638 -385.2600 0.190 -0.651 0.735 251 245 249
-1039.8655 6073.1523 -1174.7299 0.087 -0.822 -0.562 235 160 162
-1030.5874 6068.3032 -1180.7878 0.090 -0.821 -0.564 235 161 162
-525.2715 4208.9834 -965.5375 0.999 -0.040 0.018 254 41 91
-510.6632 4310.3491 -1012.3279 0.426 -0.867 -0.257 249 149 159
-131.9925 3910.3721 -1190.5132 0.621 -0.773 0.130 244 35 67
-120.0805 3834.8386 -1174.6041 0.906 0.081 0.415 228 20 52
-115.9865 3852.1006 -1183.9080 0.902 0.078 0.425 221 13 45
-60.8996 3150.9990 -990.1058 0.869 -0.474 -0.139 188 14 31
-57.6875 3177.7529 -1001.9203 0.802 -0.544 -0.248 201 32 49
-54.4427 3206.5671 -1014.4659 0.089 -0.945 -0.315 205 38 56
-50.6896 3206.6804 -1017.6256 -0.129 -0.659 -0.741 212 44 61
-47.3432 3235.8125 -1030.3646 0.090 -0.475 -0.876 220 53 70
-23.1618 2986.2510 -965.1819 0.642 -0.588 0.492 248 94 112
-19.7547 2993.2605 -970.4108 0.693 -0.571 0.441 245 106 117
-4257.2812 4812.3740 1916.9944 -0.661 -0.739 -0.132 109 102 92
-3759.0281 4489.2627 1614.3221 0.667 -0.743 0.052 188 180 178
-3665.5742 4511.0903 1529.1802 -0.308 -0.812 0.496 150 127 111
-3884.3066 4829.3784 1601.3231 0.200 -0.591 0.781 144 122 99
-3719.0215 4648.9805 1526.1168 -0.260 -0.955 0.145 145 123 100
-3709.9829 4649.6143 1518.3907 -0.247 -0.960 0.133 142 121 100
-3356.4055 4492.0161 1278.9282 0.636 -0.208 0.743 190 157 150
-3346.5723 4524.5332 1259.5680 0.615 -0.231 0.754 204 164 162
-3362.7605 4556.1836 1262.1212 0.357 -0.250 0.900 204 164 160
-3360.7734 4565.0771 1257.4095 0.638 -0.463 0.615 203 165 162
-3024.4663 5084.3926 799.3068 0.600 -0.661 -0.451 195 170 165
-3102.8362 5222.7280 816.7926 0.572 -0.675 -0.466 190 165 160
-3006.3049 5361.6196 688.8022 0.785 -0.502 0.363 178 154 144
-3012.2307 5387.7173 684.7419 0.467 -0.287 0.836 171 149 138
-2995.0378 5391.2329 669.2502 0.183 -0.652 0.736 161 139 128
-2930.8821 5363.4937 625.5057 0.081 -0.901 0.427 67 57 53
-2928.5232 5375.8438 619.2955 0.176 -0.982 -0.075 67 59 56
-2885.2241 5350.1748 592.1630 0.802 -0.446 -0.397 74 66 63
-2888.3918 5372.2275 587.2042 0.785 -0.519 -0.337 74 66 63
-2882.7380 5378.9395 580.1975 0.604 -0.681 -0.415 72 67 64
-2876.1238 5383.9873 572.9658 0.555 -0.776 -0.300 78 73 69
-2842.5518 5341.4702 559.7125 0.249 -0.872 -0.420 85 80 76
-2835.2554 5345.1816 552.3742 0.257 -0.867 -0.427 84 79 75
-2820.6760 5352.6460 537.6943 0.498 -0.807 -0.316 89 84 80
-2809.0862 5348.6963 529.4266 0.407 -0.894 0.186 95 90 86
-2796.2668 5342.4941 520.9125 0.244 -0.931 0.271 94 89 85
-2787.0188 5342.6626 513.1725 0.244 -0.931 0.271 95 89 85
-2782.0916 5350.6201 506.3409 0.368 -0.902 0.227 89 79 77
-2753.2803 5315.3140 494.5602 -0.027 -0.991 0.130 94 83 81
-2714.2151 5277.7959 475.0233 0.267 -0.955 0.130 143 129 128
-2701.0999 5270.5693 466.6161 0.914 -0.343 0.218 147 133 132
-2778.8479 5518.1943 445.9691 -0.335 -0.913 0.232 179 145 143
-2734.2114 5487.8853 419.3230 -0.440 -0.882 0.169 203 169 167
-2693.8066 5464.8345 393.6937 0.223 -0.962 -0.159 196 157 151
-2686.0168 5467.8794 386.1751 0.223 -0.962 -0.159 197 159 150
-2623.1868 5436.5708 344.7600 0.003 -0.814 -0.580 195 155 147
-2626.2266 5478.9009 332.7156 0.303 -0.743 -0.596 194 148 140
-2610.8618 5485.3652 317.7277 0.290 -0.750 -0.595 194 147 137
-2603.7456 5508.2681 303.9336 0.520 -0.839 -0.161 189 141 131
-1085.9543 2524.7615 70.0411 -0.049 -0.591 0.806 184 135 121
-2348.6206 5227.1968 188.7504 0.742 -0.641 -0.195 171 119 105
-2246.6040 5425.4150 35.7840 0.442 -0.491 0.751 157 119 104
-2237.4026 5424.5903 28.4246 0.586 -0.415 0.696 155 122 109
-2218.0325 5400.4482 20.6437 0.305 -0.457 0.836 153 124 110
-2106.0830 5281.0117 -31.2406 0.047 -0.919 -0.391 205 176 174
-2031.7897 5144.9644 -46.1277 0.448 -0.579 0.681 204 175 177
-1919.4788 5130.6831 -134.5056 0.331 -0.772 0.543 218 194 202
-1874.0641 5159.6470 -182.1993 0.788 -0.572 0.228 255 245 251
-1907.4268 5288.7935 -198.9368 0.392 -0.920 -0.026 243 240 241
-1911.2144 5431.8770 -245.0382 0.070 -0.848 0.526 249 247 248
-1811.9827 5253.9019 -266.2099 0.549 -0.751 0.368 251 246 250
-1818.1500 5293.1040 -274.5797 0.032 -0.945 0.326 251 246 250
-1820.1808 5344.0562 -290.4301 0.246 -0.693 0.678 255 250 254
-1748.3052 5350.7920 -352.4533 0.373 -0.883 -0.286 244 235 240
-1751.5322 5383.8921 -361.1654 0.429 -0.881 -0.202 240 231 236
-1741.5262 5378.8145 -367.7295 0.430 -0.881 -0.198 235 229 233
-1728.9883 5366.2681 -373.8260 0.253 -0.963 -0.090 240 234 238
-1729.5009 5391.8760 -382.2143 -0.304 -0.810 0.502 247 241 245
-1630.1046 5193.0210 -396.3358 -0.148 -0.988 -0.035 254 248 252
-1618.7085 5182.4756 -402.1728 -0.112 -0.994 -0.011 255 247 251
-1047.8229 6126.0933 -1201.1731 -0.008 -0.813 -0.582 235 161 160
-1046.1134 6164.1328 -1215.6858 -0.086 -0.877 -0.473 238 159 162
-533.9990 4325.0557 -1008.0933 0.998 -0.062 -0.019 255 107 145
-545.2692 5009.7319 -1234.3896 0.924 -0.382 -0.023 249 159 161
-540.7277 5027.4536 -1244.2617 0.999 -0.027 0.025 252 158 164
-390.2286 3925.3699 -989.9514 0.740 -0.659 -0.132 244 92 115
-43.4661 3303.5259 -1063.9645 0.096 -0.458 -0.884 239 72 89
-22.3970 3000.5764 -977.1941 -0.108 -0.905 -0.412 246 105 116
-4506.1953 5016.5972 2038.1495 -0.614 -0.783 0.103 158 151 143
-3607.7859 4291.8618 1543.8634 0.986 -0.024 0.166 189 180 181
-3598.4880 4291.5723 1536.2484 0.972 -0.040 0.231 189 180 181
-3427.5166 4180.2192 1432.9746 -0.243 -0.966 -0.090 164 144 133
-3346.1228 4117.5171 1387.1686 0.253 -0.762 0.596 153 133 125
-3660.2461 4483.7529 1520.8812 -0.283 -0.856 0.432 155 133 120
-3705.5303 4633.3472 1506.6056 -0.181 -0.984 -0.002 148 126 103
-3578.8555 4529.4233 1437.5137 0.135 -0.391 0.911 161 145 122
-3311.5474 4436.5361 1247.9000 0.912 -0.360 -0.198 176 133 130
-3286.0310 4448.8096 1222.4725 0.883 -0.451 -0.128 207 162 162
-3284.1531 4457.5459 1217.8861 0.883 -0.455 -0.120 205 163 161
-3014.1333 5039.9438 791.9554 0.400 -0.661 -0.635 197 169 165
-3007.0034 5347.7705 679.3405 0.742 -0.555 0.376 196 172 163
-3027.2551 5397.7769 678.8120 0.070 -0.591 0.804 190 166 157
-3008.3135 5398.4473 662.8619 0.316 -0.632 0.708 187 165 154
-2990.3875 5384.4526 652.8379 0.310 -0.669 0.676 189 167 157
-2978.8896 5381.2598 644.4037 0.310 -0.669 0.676 176 154 143
-2938.4834 5361.3105 617.7898 0.137 -0.989 -0.059 138 127 123
-2936.8721 5374.9263 611.7331 0.176 -0.982 -0.075 135 126 124
-2896.7676 5354.9507 585.3787 0.791 -0.489 -0.368 149 140 137
-2894.7119 5367.8765 579.1927 0.785 -0.519 -0.337 148 139 136
-2890.3740 5376.8789 572.4725 0.604 -0.681 -0.415 148 140 138
-2883.8755 5382.1333 565.2589 0.518 -0.763 -0.386 147 139 136
-2856.5820 5350.8130 553.4671 0.306 -0.853 -0.423 143 136 132
-2841.0120 5356.6011 538.5411 0.298 -0.861 -0.412 144 137 133
-2819.9658 5352.6265 522.4549 0.408 -0.900 0.155 143 136 132
-2810.6794 5352.8032 514.6879 0.240 -0.913 0.330 144 136 133
-2793.4370 5338.6802 505.2755 0.244 -0.931 0.271 144 136 132
-2788.2249 5346.1118 498.3746 0.368 -0.902 0.227 149 136 134
-2751.5557 5296.7246 485.0652 0.161 -0.946 0.282 156 141 140
-2738.4536 5289.7202 476.6212 0.165 -0.973 0.158 170 153 152
-2722.3350 5277.1602 467.5995 0.244 -0.967 0.074 179 162 162
-2712.6257 5276.1978 459.8765 0.264 -0.953 0.146 181 165 164
-2773.3169 5421.4438 459.8925 0.947 0.175 0.271 124 107 107
-2809.0491 5540.2114 448.3757 -0.335 -0.910 0.246 194 163 161
-2775.7378 5549.7183 417.4389 0.987 -0.133 -0.088 195 161 159
-2684.4434 5466.3853 370.5684 -0.246 -0.890 0.384 203 163 155
-2676.9102 5469.9268 363.0897 -0.244 -0.894 0.376 204 164 156
-2358.7605 5195.8037 194.1079 0.543 -0.654 0.526 179 127 114
-2354.6492 5259.8491 168.4969 0.926 -0.285 -0.247 174 118 103
-2485.7324 5593.4712 161.6290 0.991 -0.133 -0.033 176 123 107
-2248.0486 5410.7808 27.7248 0.366 -0.528 0.767 117 77 61
-2242.5430 5418.3311 20.5393 0.577 -0.426 0.696 136 103 88
-2251.1931 5478.5938 6.8289 0.062 -0.470 0.880 138 106 91
-2119.1262 5273.8677 -31.7972 0.017 -0.921 -0.389 201 170 158
-2114.8325 5283.7749 -38.7942 0.047 -0.919 -0.391 205 176 174
-2003.0565 5059.6113 -53.8456 0.450 -0.695 0.561 204 175 177
-2001.0667 5074.1729 -60.5441 0.454 -0.700 0.551 204 175 177
-2015.5002 5128.0112 -67.2287 0.101 -0.434 0.895 214 185 187
-1996.9331 5103.2246 -74.0439 0.075 -0.444 0.893 219 190 192
-1981.6515 5086.1143 -80.7938 0.082 -0.706 0.703 226 197 199
-1923.8427 5123.6860 -141.7861 0.331 -0.772 0.543 219 193 202
-1927.0757 5152.1465 -148.9684 0.258 -0.719 0.646 217 201 209
-1841.9146 5058.5728 -187.2000 0.158 -0.865 -0.477 255 245 251
-1824.2894 5290.2856 -282.1413 0.032 -0.945 0.326 252 247 251
-1818.7852 5320.3472 -297.1286 0.010 -0.669 0.743 255 250 254
-1750.4813 5313.1514 -351.3125 0.064 -0.877 -0.476 249 242 246
-1755.0042 5349.5576 -360.1785 0.369 -0.883 -0.289 243 235 239
-1758.1899 5382.4302 -368.9294 0.429 -0.881 -0.202 239 229 235
-1751.5958 5387.2778 -376.0812 0.429 -0.881 -0.202 236 229 233
-1735.7443 5365.2178 -381.5884 0.253 -0.963 -0.090 241 234 238
-1730.8585 5399.1411 -397.4010 0.175 -0.589 0.789 253 245 250
-1669.6653 5339.0449 -427.3483 0.089 -0.996 0.020 255 236 241
-428.1339 3136.0195 -693.9504 -0.407 -0.913 0.019 254 38 92
-538.3356 4240.2046 -985.2377 0.487 -0.815 0.316 247 46 88
-537.7403 4277.0674 -998.5092 0.806 -0.589 -0.057 241 57 97
-550.6298 4415.8662 -1035.9238 0.973 -0.063 -0.222 255 109 145
-495.9682 4126.8726 -981.1107 0.277 -0.786 -0.553 247 151 155
-548.8047 4995.3618 -1238.3025 0.921 -0.388 -0.024 249 159 161
-543.9119 5009.7500 -1247.3499 0.911 -0.413 -0.015 249 158 164
-61.4011 3274.4045 -1046.2295 0.431 -0.614 -0.662 204 39 56
-18.7151 3152.9556 -1039.5533 0.579 -0.331 -0.745 236 124 126
-3626.7495 4373.2290 1518.3992 -0.372 -0.893 0.254 176 156 148
-3609.9502 4364.6851 1507.4562 -0.365 -0.900 0.240 172 150 137
-3623.5798 4410.8428 1502.6427 0.537 -0.826 -0.171 155 132 124
-3629.2688 4427.6538 1501.4904 0.692 -0.714 -0.107 155 133 122
-3615.0400 4464.0000 1477.0093 -0.156 -0.878 0.452 150 124 101
-3597.4885 4454.4771 1465.7845 -0.152 -0.889 0.431 148 122 99
-3552.8411 4488.1475 1417.0228 0.098 -0.402 0.910 162 144 122
-3580.5261 4531.4438 1424.8588 0.037 -0.404 0.914 161 143 121
-3258.6060 4317.5469 1232.6755 0.911 -0.403 -0.087 179 148 137
-3324.7090 4420.1636 1251.6508 0.901 -0.342 -0.268 186 144 137
-3325.6409 4432.2261 1248.2128 0.902 -0.342 -0.264 196 132 132
-3331.8506 4450.8706 1246.8523 0.418 -0.395 0.818 190 119 122
-3324.7280 4453.0605 1240.1838 0.443 -0.404 0.800 196 119 124
-3278.8486 4428.9629 1210.5651 0.931 -0.348 -0.106 208 163 159
-3264.1150 4421.5186 1200.9506 0.919 -0.385 -0.085 203 166 158
-3114.5691 5212.8008 800.7914 0.412 -0.774 -0.480 194 168 166
-3034.8545 5284.0566 709.8430 0.611 -0.784 -0.109 203 174 172
-2972.9236 5307.7744 650.2288 0.272 -0.528 0.805 197 172 167
-3010.6011 5387.1118 653.7673 0.316 -0.632 0.708 202 177 171
-2998.8005 5383.4805 645.2532 0.316 -0.632 0.708 207 182 177
-2981.7649 5370.9478 635.5067 0.310 -0.669 0.676 204 179 173
-2924.4604 5354.7153 593.6722 0.525 -0.825 -0.210 189 171 169
-2899.6538 5377.6650 565.0991 0.601 -0.687 -0.408 194 175 173
-2893.7993 5384.0571 558.0149 0.524 -0.759 -0.387 187 169 166
-2865.5823 5351.2446 546.0787 0.306 -0.853 -0.423 181 163 160
-2856.8899 5352.5591 538.4146 0.295 -0.855 -0.427 183 165 161
-2848.6143 5354.5996 530.8425 0.302 -0.859 -0.413 182 164 161
-2826.2847 5348.3936 514.4996 0.408 -0.900 0.155 181 163 160
-2816.8430 5348.3042 506.7044 0.240 -0.913 0.330 182 164 160
-2807.2886 5347.9937 498.8930 0.240 -0.913 0.330 182 163 160
-2764.4709 5287.9360 484.3640 0.161 -0.901 0.403 182 160 158
-2758.1875 5293.2754 477.2919 0.161 -0.946 0.282 199 175 174
-2745.6140 5287.2617 468.9688 0.165 -0.973 0.158 193 168 167
-2729.5012 5274.7686 459.9733 0.244 -0.967 0.074 188 163 162
-2719.4146 5273.1396 452.1810 0.264 -0.953 0.146 206 182 180
-2713.7954 5635.2471 321.1289 0.443 -0.734 0.515 202 157 150
-1083.4980 2505.4133 62.2259 -0.062 -0.581 0.812 194 145 131
-2370.9880 5259.1079 168.2629 0.919 -0.275 -0.284 176 120 105
-2378.3657 5367.6323 136.4979 0.720 -0.592 -0.362 184 130 114
-2250.1521 5397.7017 19.7239 0.366 -0.528 0.767 136 96 79
-2243.8596 5403.4204 12.5119 0.577 -0.426 0.696 109 76 62
-2275.5818 5495.6099 6.6279 -0.253 -0.675 0.693 106 74 61
-2130.9868 5283.8188 -39.3029 0.019 -0.921 -0.390 202 173 160
-2127.3777 5295.3604 -46.3231 0.065 -0.912 -0.404 203 175 172
-1855.5228 5075.5342 -194.9368 0.070 -0.891 -0.449 238 220 228
-1872.3600 5202.6411 -225.3471 0.490 -0.866 0.094 254 249 253
-1886.1185 5370.3706 -272.4887 0.749 -0.370 0.550 215 210 214
-1830.9469 5288.8594 -289.7696 0.023 -0.941 0.339 233 228 232
-1846.6548 5354.1470 -299.5380 -0.065 -0.944 0.323 255 250 254
-1827.7600 5325.2017 -305.0965 0.103 -0.673 0.732 255 250 254
-1756.3629 5309.6865 -358.8630 0.054 -0.884 -0.464 253 249 253
-1752.9912 5323.4126 -366.4492 0.173 -0.884 -0.433 252 247 251
-1751.9349 5343.8887 -374.4718 0.542 -0.779 -0.315 250 244 248
-1749.1593 5359.5762 -382.2483 0.537 -0.784 -0.312 240 229 237
-1741.9454 5362.5308 -389.2593 0.353 -0.868 -0.348 242 230 238
-763.1140 4970.5454 -1063.8036 0.429 -0.638 0.639 228 124 128
-473.1899 3298.9670 -720.6585 -0.486 -0.778 0.398 246 78 107
-432.0309 3140.3174 -699.3989 -0.411 -0.911 0.029 254 36 91
-542.8504 4366.1357 -1035.4130 0.999 0.045 0.009 255 141 162
-551.4492 4918.6426 -1221.1387 0.916 -0.300 -0.267 255 161 161
-166.1160 4122.9585 -1262.8120 0.903 -0.106 0.416 239 40 72
-162.0679 4147.6440 -1274.7841 0.889 -0.455 0.050 243 37 67
-75.5403 4102.9927 -1330.9225 0.967 -0.243 -0.072 209 45 62
-71.0577 4130.1440 -1344.1155 0.981 -0.189 -0.051 219 53 70
-49.7644 3333.6755 -1083.7571 0.124 -0.538 -0.834 238 73 89
-4268.9839 4835.2529 1874.7875 -0.632 -0.766 -0.121 152 143 134
-3960.1152 4592.7114 1704.2833 0.222 -0.915 0.336 190 186 183
-3948.4229 4590.7007 1695.3083 0.224 -0.920 0.323 185 181 178
-3652.6919 4320.9927 1545.2313 0.148 -0.985 -0.093 182 170 170
-3657.8462 4336.6465 1543.9974 0.221 -0.975 0.036 181 171 170
-3676.3159 4377.1382 1545.0586 -0.015 -0.986 0.163 176 167 166
-3669.4495 4379.7441 1538.4569 -0.005 -0.986 0.168 171 161 162
-3658.9192 4378.2959 1530.2463 -0.005 -0.986 0.168 167 154 153
-3610.9937 4365.8135 1494.9500 -0.352 -0.906 0.236 162 138 126
-3605.0222 4369.3569 1488.7598 -0.033 -0.931 0.363 155 133 120
-3718.1050 4581.9019 1507.6897 0.557 0.080 0.827 152 126 103
-3589.4971 4466.5195 1441.7531 0.318 -0.890 -0.328 163 139 115
-3597.8225 4486.8022 1441.5179 0.230 -0.926 -0.300 166 146 122
-3409.6028 4330.8672 1340.4742 0.341 -0.513 0.788 162 145 119
-3321.0359 4426.7031 1233.4528 0.385 -0.421 0.821 223 79 103
-3314.8281 4429.9727 1227.1632 0.439 -0.434 0.787 225 78 103
-3298.9116 4421.2007 1217.0670 0.430 -0.405 0.807 211 98 113
-3264.1262 4399.7920 1195.7883 0.418 -0.414 0.809 202 162 153
-3168.1152 5502.7974 728.5965 0.334 -0.549 -0.767 203 176 178
-2974.8958 5233.3281 663.3188 0.681 -0.181 -0.709 202 176 177
-3042.0664 5392.2422 663.0823 0.265 -0.473 0.840 203 178 175
-2966.5918 5395.2739 599.5209 0.388 -0.534 0.751 200 177 175
-2911.1055 5349.2227 569.7628 0.785 -0.519 -0.337 195 170 169
-2907.3574 5359.1704 563.1628 0.785 -0.519 -0.337 196 172 170
-2871.4236 5362.6890 532.1714 0.335 -0.834 -0.439 192 164 164
-2847.3328 5336.9409 521.2736 0.308 -0.838 -0.451 192 164 163
-2832.4333 5327.2373 512.3470 0.307 -0.839 -0.448 194 167 166
-2823.1379 5344.0356 498.7457 0.353 -0.892 0.282 197 170 169
-2768.7144 5313.5117 464.4096 -0.095 -0.826 0.556 189 160 159
-2754.1179 5303.9141 455.6970 -0.077 -0.944 0.321 182 153 153
-2737.7197 5290.9629 446.6707 -0.119 -0.934 0.337 137 108 107
-2827.2292 5541.0684 432.8790 -0.338 -0.906 0.254 199 165 163
-1081.1403 2493.5452 58.2188 0.173 -0.735 0.655 196 147 133
-2389.3306 5509.2563 81.4649 0.063 -0.860 -0.506 178 127 110
-2256.1819 5393.5073 11.8975 -0.064 -0.988 -0.138 163 122 105
-2247.5645 5393.9707 4.5991 -0.064 -0.988 -0.138 147 114 100
-2235.4233 5386.4312 -2.8041 -0.031 -0.992 -0.121 145 113 100
-1872.2316 5183.6689 -232.2717 0.493 -0.866 0.081 254 248 252
-1897.6049 5381.4121 -280.7657 0.842 -0.527 0.112 210 205 209
-1888.9399 5380.7627 -287.7122 0.673 -0.658 0.337 227 222 226
-1870.9340 5354.9341 -293.5435 -0.038 -0.893 0.449 215 210 214
-1844.3983 5305.7808 -298.2393 -0.202 -0.927 0.315 234 229 233
-1837.2271 5331.3232 -313.1551 0.122 -0.651 0.749 255 250 254
-1782.0895 5339.0498 -361.5267 0.103 -0.895 -0.434 254 252 255
-1750.2195 5272.1655 -364.4073 0.022 -0.896 -0.444 254 252 255
-1721.3275 5236.0259 -375.6284 0.220 -0.969 -0.115 255 250 254
-1721.7970 5283.8091 -392.0348 0.159 -0.928 -0.338 245 234 242
-1668.9799 5295.1191 -439.7445 -0.295 -0.890 0.347 254 224 236
-1680.8922 5355.0303 -450.9386 -0.236 -0.722 0.651 253 219 233
-465.9215 3257.9602 -719.8855 -0.189 -0.767 0.614 250 60 96
-462.4486 3262.7954 -724.4608 -0.166 -0.787 0.594 254 47 89
-676.9559 5385.4785 -1292.9354 0.252 -0.743 -0.620 254 148 162
-400.8351 3959.6802 -1020.4244 0.875 -0.284 -0.392 252 73 125
-166.4223 4158.5444 -1284.4246 0.075 -0.735 -0.674 246 33 66
-161.8612 4171.9175 -1292.9019 0.073 -0.735 -0.674 237 27 59
-66.8146 2781.4973 -882.8899 0.826 -0.521 -0.215 196 19 37
-27.7896 3137.8508 -1040.4574 0.808 -0.584 -0.078 229 127 125
-4245.6040 4821.4595 1845.6174 -0.614 -0.772 -0.165 170 163 155
-4217.2466 4802.4697 1828.8824 -0.614 -0.772 -0.165 167 160 154
-4180.3975 4774.3428 1808.3573 -0.402 -0.891 -0.209 161 156 153
-4176.5020 4781.1885 1802.7120 -0.408 -0.890 -0.203 160 155 154
-4147.6006 4761.3340 1785.8331 -0.394 -0.902 -0.177 170 166 166
-4085.6926 4706.0098 1754.2064 -0.181 -0.954 -0.241 180 176 176
-3971.8564 4594.6304 1699.4659 0.034 -0.991 -0.133 187 183 183
-3574.8733 4187.4331 1515.2158 0.972 -0.209 0.110 186 182 182
-3649.8179 4297.8784 1538.1174 -0.063 -0.991 0.116 181 171 172
-3656.9343 4345.6309 1527.1030 -0.054 -0.986 0.159 178 168 167
-3651.7507 4370.3052 1514.0826 -0.002 -0.963 0.268 170 153 147
-3624.1143 4380.4434 1487.6350 0.526 -0.762 0.378 156 133 119
-3629.8496 4397.1494 1486.4663 0.719 -0.690 0.079 154 132 119
-3510.8960 4365.5425 1399.2596 0.237 -0.931 -0.279 168 147 120
-3413.9624 4325.6548 1333.1975 -0.136 -0.988 0.069 167 149 125
-3355.5054 4425.5732 1249.4811 0.375 -0.273 0.886 195 125 121
-3337.7534 4414.7290 1238.6355 0.375 -0.273 0.886 208 110 115
-3288.9597 4441.9854 1188.6287 0.930 -0.342 -0.135 201 175 162
-3034.9500 5381.4272 646.0328 0.834 -0.234 0.499 203 177 176
-3026.7756 5383.9395 638.3820 0.799 -0.236 0.554 203 177 176
-3020.1968 5389.1255 631.1049 0.799 -0.236 0.554 202 176 175
-3029.6062 5470.6978 610.0178 0.214 -0.292 0.932 203 175 174
-3035.6929 5497.7383 605.4820 0.241 -0.306 0.921 202 175 174
-2898.2759 5279.6060 569.0189 0.777 -0.499 -0.384 203 176 175
-2897.2712 5293.9990 563.0938 0.782 -0.510 -0.359 201 174 173
-2922.1809 5353.0605 562.7947 0.779 -0.530 -0.334 198 171 170
-2916.9490 5360.4541 555.8503 0.549 -0.758 -0.351 199 171 170
-2948.8518 5432.1973 556.8474 0.191 -0.948 -0.256 199 170 170
-2915.3645 5424.1660 531.9906 -0.264 -0.955 -0.135 194 163 161
-2771.1196 5187.8525 496.3147 0.492 -0.734 0.468 194 163 161
-2840.2224 5325.6245 504.7126 0.309 -0.828 -0.469 197 167 165
-2800.4641 5321.5747 473.2596 -0.092 -0.825 0.557 194 163 161
-2787.0818 5314.3340 464.7530 -0.092 -0.825 0.557 190 159 157
-2773.7534 5307.1226 456.2806 -0.092 -0.825 0.557 207 176 174
-2757.6245 5294.7959 447.3022 -0.009 -0.938 0.346 156 125 123
-2720.7654 5278.1899 422.6913 0.002 -0.941 0.338 208 177 175
-2734.6162 5679.3335 292.1737 -0.050 -0.902 0.430 202 157 151
-1136.4657 2556.9363 75.3448 0.106 -0.541 0.834 198 153 147
-2351.2893 5149.8071 162.5148 0.201 -0.398 0.895 188 132 119
-2384.9629 5255.1089 153.0993 0.026 -0.925 -0.378 186 130 115
-2377.2122 5312.5552 126.3566 0.875 -0.369 -0.314 187 131 116
-2398.5386 5414.1841 108.0282 -0.030 -0.902 -0.432 181 130 113
-2371.8489 5493.0293 58.0463 -0.001 -0.970 -0.242 172 128 109
-2380.1870 5571.4302 37.1954 -0.044 -0.964 -0.264 171 128 109
-2267.5684 5401.3086 4.2521 -0.084 -0.988 -0.133 169 129 110
-2259.9060 5403.9785 -3.0306 -0.086 -0.988 -0.126 163 129 116
-1976.1395 5199.6211 -165.4227 -0.322 -0.937 0.133 223 195 204
-1879.3409 5100.3242 -210.3468 0.287 -0.856 -0.431 253 236 244
-1875.6626 5111.4941 -217.3426 0.058 -0.956 0.289 255 246 253
-1907.9900 5257.7051 -242.3503 0.392 -0.819 -0.419 250 244 248
-1903.1482 5266.6450 -249.5193 -0.044 -0.983 0.176 249 243 247
-1899.6130 5279.0527 -256.8347 -0.029 -0.989 0.143 237 232 236
-1896.1193 5357.8525 -287.6139 0.673 -0.656 0.340 223 218 222
-1887.1171 5356.2314 -294.4863 0.566 -0.741 0.360 240 235 239
-1869.4829 5331.4233 -300.2923 -0.036 -0.929 0.367 230 225 229
-1859.9838 5328.2822 -307.0378 -0.097 -0.935 0.341 247 242 246
-1839.8241 5296.2422 -312.3732 -0.175 -0.956 0.236 255 250 254
-1791.5798 5209.5767 -321.6058 -0.247 -0.873 0.421 255 250 254
-1784.2754 5348.2642 -376.7325 -0.023 -0.864 -0.503 254 252 255
-1692.2925 5224.9131 -409.1599 0.340 -0.904 -0.260 251 240 248
-1683.6877 5342.3296 -457.8338 -0.213 -0.713 0.668 254 218 232
-439.2962 3949.5134 -994.1887 -0.301 -0.952 -0.049 253 151 154
-147.3470 3175.2957 -961.6621 0.926 -0.072 0.371 246 71 100
-63.9824 3354.8384 -1094.1620 0.314 -0.506 -0.804 237 68 87
-45.3911 3152.6646 -1037.9858 0.130 -0.517 -0.846 238 97 108
-4195.6699 4790.4341 1800.7417 -0.408 -0.890 -0.203 193 189 188
-3686.3218 4367.6899 1530.5305 -0.043 -0.987 0.157 178 166 166
-3684.3232 4375.6411 1526.0458 -0.034 -0.987 0.158 173 161 160
-3674.4136 4374.9087 1518.1187 -0.032 -0.987 0.157 168 154 151
-3659.5330 4378.8594 1504.4150 0.752 -0.401 0.524 172 151 139
-3634.0164 4370.9697 1486.1429 0.771 -0.377 0.513 163 140 124
-3628.1174 4374.6250 1479.9664 0.771 -0.377 0.513 157 134 120
-3630.5920 4387.6465 1477.3707 0.803 -0.364 0.471 155 132 118
-3483.9099 4303.8237 1386.0422 0.345 -0.838 -0.423 164 140 114
-3479.1750 4308.6030 1380.4268 0.345 -0.838 -0.423 171 147 121
-3603.7126 4472.2793 1425.0009 -0.414 -0.909 -0.040 177 157 132
-3459.3472 4399.9463 1331.4922 0.226 -0.620 -0.751 167 151 136
-3407.0891 4434.0562 1276.1572 0.255 -0.186 0.949 165 154 132
-3370.2844 4422.0039 1250.0413 0.374 -0.282 0.884 186 130 123
-3352.7783 4411.5386 1239.3059 0.374 -0.282 0.884 198 114 115
-3344.4558 4412.2183 1232.1870 0.264 -0.302 0.916 208 102 109
-3222.9041 4327.2285 1162.0392 0.744 -0.343 0.573 208 157 145
-3250.7957 4372.6582 1168.8958 0.432 -0.400 0.808 203 171 154
-3285.6885 4427.0537 1178.3423 0.923 -0.353 -0.152 201 175 161
-2806.4661 5316.8545 465.2809 -0.092 -0.825 0.557 198 167 165
-2793.0708 5309.6226 456.7898 -0.092 -0.825 0.557 200 169 167
-2339.7241 5092.6445 159.5236 0.276 -0.346 0.897 190 138 125
-2356.1372 5251.6992 116.4044 0.892 -0.358 -0.276 187 131 116
-2299.3740 5356.2427 32.2468 -0.094 -0.993 0.069 173 128 109
-2285.4329 5345.0107 24.7304 -0.142 -0.986 0.086 171 128 109
-1997.6758 5214.1045 -166.3860 -0.003 -0.990 -0.139 224 194 204
-1945.1692 5186.6504 -199.9873 0.188 -0.977 0.097 226 200 209
-1916.5844 5197.5894 -227.5044 0.390 -0.809 -0.441 255 244 250
-1910.9773 5246.6318 -249.6143 0.372 -0.833 -0.410 247 241 245
-1911.6543 5269.8135 -257.3160 -0.085 -0.977 0.198 242 236 240
-1821.1927 5226.5620 -316.6490 0.734 -0.014 0.679 255 250 254
-1763.1096 5112.9111 -324.1406 0.498 -0.612 0.614 255 250 254
-1714.5035 5023.1011 -332.2976 0.596 -0.521 0.611 255 253 255
-1666.5652 5270.4810 -460.0648 -0.277 -0.871 0.405 255 219 233
-654.6849 5085.0439 -1230.0731 -0.020 -0.999 0.036 254 151 162
-525.3573 4578.8940 -1156.5602 0.051 -0.651 0.757 255 158 158
-426.5879 4025.9978 -1041.1392 0.069 -0.492 -0.868 254 84 135
-119.2242 2502.0723 -752.0353 0.968 -0.182 -0.172 248 90 113
-148.1814 3133.6155 -953.1674 0.885 -0.168 0.435 246 72 100
-170.8831 4325.0674 -1358.9988 0.057 -0.730 -0.681 233 22 54
-3630.9961 4357.3730 1475.4810 0.804 -0.385 0.454 164 138 123
-3613.6541 4348.2739 1464.4315 0.747 -0.522 0.413 158 135 119
-3576.2417 4347.1924 1433.9397 0.440 -0.175 0.881 155 131 109
-3631.8640 4493.9468 1427.1938 -0.295 -0.955 0.006 180 162 136
-3539.6445 4527.2466 1339.1283 0.680 -0.485 -0.550 169 151 139
-3308.8279 4294.8174 1232.0105 0.852 0.136 0.506 167 154 132
-3338.1072 4383.0459 1224.5208 0.371 -0.287 0.883 196 101 107
-3246.0947 4356.1729 1158.2163 0.432 -0.400 0.808 205 171 155
-3284.5042 4414.7744 1168.8928 0.935 -0.318 -0.158 199 174 160
-2693.4324 5022.6846 462.9050 0.382 -0.820 -0.425 198 170 167
-2714.4907 5090.7388 455.8682 0.321 -0.841 -0.436 202 174 171
-2812.4685 5312.1328 457.3011 -0.092 -0.825 0.557 202 171 169
-2767.7654 5282.2397 431.1292 -0.020 -0.947 0.320 142 111 109
-2579.2197 4991.2803 379.9026 -0.138 -0.954 0.267 202 171 169
-2558.8960 4970.1523 370.7084 -0.136 -0.906 0.402 209 175 174
-2207.9976 5252.6157 -20.2701 -0.075 -0.985 0.154 171 137 124
-2222.4705 5403.4722 -62.4524 0.211 -0.197 0.957 200 171 157
-1985.5972 5207.2451 -187.5588 0.026 -0.998 0.050 221 197 205
-1962.3409 5190.7354 -200.8305 0.196 -0.965 0.176 223 200 208
-1920.7628 5253.0713 -257.5152 0.492 -0.544 -0.680 236 230 234
-1919.0972 5291.7290 -272.7605 -0.381 -0.773 0.508 241 235 239
-1827.3459 5223.9326 -324.1657 0.811 0.023 0.584 241 236 240
-1806.8148 5190.5679 -329.1405 0.650 -0.628 0.427 238 233 237
-1795.4865 5181.8086 -335.3481 0.650 -0.640 0.411 243 238 242
-1772.4663 5141.1299 -339.7530 0.436 -0.764 0.476 253 248 252
-1776.7594 5196.8115 -356.1884 0.438 0.021 0.899 255 253 255
-1835.4891 5723.9175 -496.8413 0.325 -0.088 0.942 255 223 236
-1724.2898 5495.5176 -506.6736 0.255 -0.154 0.955 239 198 212
-1312.0111 5421.8433 -820.5311 -0.512 -0.819 0.259 246 203 213
-467.4587 3256.3965 -740.6461 0.499 -0.791 -0.353 254 35 86
-643.6408 4965.2617 -1208.3757 -0.246 -0.946 -0.211 255 152 164
-532.6611 4599.3979 -1168.7039 -0.075 -0.456 0.887 255 158 158
-448.9378 4092.6216 -1055.9747 -0.123 -0.756 0.642 252 112 140
-440.9056 4069.0762 -1054.1562 -0.003 -0.937 0.349 249 92 133
-167.7996 3822.0698 -1190.9491 -0.066 -0.980 -0.186 246 40 71
-163.3217 3826.4338 -1196.2109 -0.076 -0.982 -0.172 244 34 64
-158.3026 4046.9863 -1279.4890 0.531 -0.335 -0.779 224 13 45
-3744.7898 4300.9395 1576.6667 0.638 -0.756 -0.145 181 177 178
-3579.6831 4173.1475 1486.6992 0.982 -0.187 -0.020 177 173 174
-3613.3799 4337.7764 1455.0107 0.734 -0.510 0.448 159 136 120
-3509.8340 4312.9619 1378.6001 0.697 -0.362 0.619 182 158 130
-3611.3145 4449.1909 1413.0592 0.329 -0.936 0.129 180 159 132
-3444.4844 4330.3086 1318.4521 0.005 -0.999 0.044 180 166 139
-3498.5405 4414.2192 1332.7094 0.360 -0.656 -0.663 179 163 146
-3437.7529 4364.1396 1300.6805 -0.005 -0.954 0.300 176 163 147
-3415.4048 4348.3535 1287.9572 -0.027 -0.947 0.319 178 162 147
-3403.8428 4345.1997 1279.5634 -0.027 -0.947 0.319 172 156 141
-3182.8735 4114.0054 1180.8904 0.244 -0.817 0.523 169 155 138
-3206.0952 4151.6294 1186.4452 0.459 -0.808 0.368 165 152 133
-3261.7896 4364.9941 1155.2882 0.977 -0.190 -0.099 207 173 157
-3185.8484 5252.8491 771.9370 0.438 -0.839 -0.324 206 180 181
-2658.8970 4963.5322 441.9753 0.825 -0.550 0.128 201 170 168
-2779.2700 5287.4644 424.2041 -0.106 -0.829 0.549 205 174 172
-2571.0193 4961.9937 370.0749 0.655 -0.756 0.013 204 173 171
-2094.5044 4414.8169 174.8504 -0.152 -0.927 -0.342 208 163 157
-2518.9436 5314.7354 199.7104 0.318 -0.700 0.639 207 158 144
-2522.7627 5340.2886 193.6283 0.106 -0.780 0.617 209 157 144
-2483.8071 5334.7290 163.5174 0.375 -0.742 0.555 199 147 134
-2488.3669 5362.2217 157.3452 0.805 -0.593 -0.016 199 147 134
-2482.9956 5369.7090 150.2117 0.805 -0.593 -0.016 197 141 128
-2288.8169 5435.2119 -33.5537 0.100 -0.189 0.977 172 140 127
-2264.9441 5401.6885 -41.1266 0.179 -0.187 0.966 170 141 127
-1944.3339 5168.8525 -221.3616 0.146 -0.967 0.209 202 176 185
-1938.2419 5174.1787 -228.3085 0.153 -0.968 0.200 208 185 193
-1942.9384 5206.6665 -236.1725 0.400 -0.803 -0.442 217 198 205
-1934.5280 5206.2983 -242.9740 0.464 -0.735 -0.494 223 207 214
-1943.9873 5293.8193 -266.7914 0.428 -0.554 -0.714 239 233 237
-1937.9415 5299.8105 -273.9405 -0.146 -0.981 0.129 242 236 240
-1858.3486 5179.1387 -295.9732 -0.056 -0.997 -0.059 254 250 253
-1842.8096 5159.6987 -301.7625 -0.080 -0.997 -0.013 248 243 247
-1830.9813 5149.8550 -307.9591 -0.098 -0.989 0.108 248 243 247
-1803.4803 5184.3340 -343.0895 0.632 -0.548 0.548 207 202 206
-1699.8892 5400.8291 -506.7101 0.300 -0.128 0.945 239 198 212
-1048.1566 6048.2466 -1277.9498 -0.229 -0.945 -0.235 225 146 151
-501.7415 3367.4482 -760.0392 -0.039 -0.991 -0.125 240 64 95
-452.3102 4085.5806 -1060.2205 -0.194 -0.802 0.566 244 100 129
-443.5175 4055.7527 -1056.6948 -0.155 -0.965 0.212 243 83 125
-166.9794 3827.7935 -1202.3535 -0.076 -0.982 -0.172 240 28 59
-160.6382 4011.8406 -1274.0687 0.173 -0.730 -0.662 221 10 42
-86.7409 3422.4514 -1122.0815 0.096 -0.553 -0.828 217 49 67
-3765.9656 4303.5962 1580.1420 0.517 -0.833 -0.198 182 178 177
-3733.0977 4278.6387 1562.1477 0.482 -0.863 -0.150 182 178 179
-3783.5322 4422.3975 1551.4027 -0.141 -0.930 -0.341 177 165 165
-3602.5239 4345.9570 1430.1202 0.692 -0.477 0.542 160 137 121
-3920.7075 4722.9883 1555.0605 0.843 -0.026 0.537 172 148 123
-3945.0413 4761.5146 1561.0907 0.870 -0.014 0.492 171 147 121
-3954.8572 4783.8696 1561.0448 0.870 -0.022 0.492 171 147 121
-3509.8018 4416.8027 1327.9856 0.364 -0.646 -0.671 179 163 146
-3507.4951 4424.7246 1323.2046 0.373 -0.635 -0.676 179 163 148
-3491.3899 4416.5181 1312.9244 0.415 -0.627 -0.659 178 162 147
-3458.3083 4388.3271 1295.9305 -0.171 -0.892 0.418 178 162 147
-3212.3071 4149.0913 1180.3260 0.479 -0.863 0.158 169 158 138
-3293.7463 4256.2378 1208.4329 0.997 -0.031 0.077 169 158 136
-3267.5110 4361.4351 1148.5651 0.970 -0.224 -0.094 209 172 158
-2812.2305 5297.5864 433.1091 -0.106 -0.829 0.549 156 125 123
-2761.0156 5239.6460 411.9998 -0.385 -0.788 0.481 218 187 185
-2629.3923 5479.6641 216.2978 0.329 -0.898 0.293 209 163 156
-2563.1108 5403.8892 189.2656 0.387 -0.880 0.275 209 157 144
-2555.5322 5407.1035 181.8547 0.394 -0.876 0.277 209 157 144
-2539.2244 5392.8901 173.5923 0.341 -0.894 0.291 201 149 136
-2508.7422 5350.1489 164.0311 0.385 -0.858 0.339 199 147 134
-2494.2451 5339.2266 156.0634 0.376 -0.849 0.371 199 147 134
-2508.7122 5405.1323 144.0093 0.791 -0.611 -0.017 202 147 134
-2477.2344 5359.7017 134.6063 0.781 -0.623 -0.045 203 147 134
-2012.7273 4650.2354 10.0549 0.217 -0.675 -0.706 182 138 119
-2029.8000 4720.3252 -1.3747 0.153 -0.716 -0.681 180 137 118
-2035.5731 4749.7354 -7.3163 0.191 -0.711 -0.677 180 137 118
-2235.3025 5317.6821 -49.3734 0.552 -0.710 -0.437 170 141 127
-2222.5774 5308.7061 -56.5897 0.881 -0.457 -0.126 170 141 127
-2237.3447 5361.5776 -63.6559 -0.178 -0.411 0.894 187 158 144
-2140.3899 5219.9390 -91.9972 0.052 -0.429 0.902 202 173 171
-1998.8148 5064.6558 -152.1266 -0.157 -0.947 0.280 228 198 206
-1978.4603 5153.8423 -201.3278 0.733 -0.607 0.308 225 199 210
-1971.9828 5158.1660 -208.2355 0.733 -0.607 0.308 211 188 196
-1961.7374 5153.2207 -214.8752 0.327 -0.937 0.122 194 173 180
-1953.7997 5153.9214 -221.6679 0.313 -0.942 0.124 184 161 169
-1952.0406 5169.9600 -228.9497 0.160 -0.963 0.218 183 160 168
-1944.8616 5172.5869 -235.8181 0.149 -0.961 0.232 188 162 171
-1942.3394 5207.6309 -250.6408 0.463 -0.731 -0.501 192 173 181
-1929.6584 5238.4810 -272.3052 0.845 -0.478 0.241 237 231 235
-1896.0184 5215.7993 -291.7628 -0.326 -0.764 0.557 251 245 249
-1784.9697 5482.3491 -480.1685 -0.059 -0.815 0.576 252 236 246
-556.6021 4002.8838 -953.8112 0.957 0.052 -0.286 255 28 85
-532.2233 4567.0825 -1179.0869 -0.036 -0.785 0.618 254 148 150
-162.4818 3966.7393 -1265.2739 -0.346 -0.809 -0.476 221 10 42
-95.8801 3100.4946 -1005.0795 0.549 -0.304 -0.779 191 6 27
