ply
format ascii 1.0
element vertex 792
property float x
property float y
property float z
property float nx
property float ny
property float nz
property uchar diffuse_red
property uchar diffuse_green
property uchar diffuse_blue
end_header
-2617.9871 3570.2930 318.8957 -0.265 -0.949 -0.172 30 2 2
-2234.1135 3231.9604 186.7213 0.176 -0.908 -0.380 14 10 9
-2272.1011 3304.0776 185.5803 0.673 0.125 -0.729 19 15 14
-1710.9978 4534.9561 -642.6823 0.972 0.024 -0.235 197 128 110
-1623.3281 4608.3457 -728.3206 0.489 -0.866 -0.104 142 63 66
-4390.5332 2741.6772 1797.4686 0.738 -0.479 0.474 25 62 78
-4398.9258 2771.7979 1791.9188 0.656 -0.473 0.588 42 78 92
-4337.0518 2754.1160 1757.1678 0.768 -0.445 0.460 21 91 110
-4330.3335 2765.8357 1748.3447 0.826 -0.558 0.073 19 83 110
-4329.2168 2773.2617 1744.8499 0.764 -0.642 0.057 23 78 109
-4111.7837 2767.1941 1601.9718 0.340 -0.929 -0.145 138 124 113
-3358.8708 2788.2905 1091.6331 -0.288 -0.814 0.505 203 175 151
-3300.7329 2744.4031 1069.0776 -0.203 -0.766 0.610 204 176 152
-3269.0100 2844.6990 1010.7720 -0.500 -0.780 0.376 172 127 104
-3025.7197 2648.0959 921.1771 -0.415 -0.798 0.437 177 135 111
-2978.9248 2627.9983 897.3848 -0.430 -0.859 0.277 167 134 111
-2917.1216 2576.5637 875.1770 -0.299 -0.831 0.469 171 139 116
-2966.9707 2632.9443 887.5749 -0.057 -0.834 0.548 173 138 118
-2881.2505 2606.7412 840.0626 0.622 -0.180 0.762 110 81 65
-2763.5447 2671.0535 737.6900 0.640 -0.332 0.693 172 92 45
-2745.8047 2695.2761 716.8817 0.725 -0.255 0.639 177 95 47
-2597.3560 2862.9573 555.7199 0.764 -0.193 0.615 146 63 19
-2389.2644 2639.0557 499.7250 0.620 -0.784 0.007 136 53 9
-2834.1514 3666.4470 416.2930 0.977 0.035 0.212 132 97 84
-2480.7896 3335.4297 302.9955 0.158 -0.983 0.094 67 23 12
-2476.0427 3340.3794 297.9947 0.174 -0.981 0.086 65 25 14
-2626.9995 3574.0168 312.2507 -0.265 -0.949 -0.172 30 2 2
-2235.5789 3225.2966 180.1051 0.900 -0.316 -0.301 14 10 9
-1788.0536 4312.2305 -521.0075 -0.476 -0.577 -0.664 245 197 193
-1685.8167 4205.0562 -549.5659 0.497 -0.722 0.482 240 177 168
-4333.2676 2737.7771 1749.0345 0.723 -0.470 0.506 31 82 105
-4320.1494 2736.9214 1740.6141 0.674 -0.516 0.529 21 89 107
-4331.8428 2769.3833 1736.3153 0.764 -0.642 0.057 17 68 96
-4318.5879 2768.4280 1727.8412 0.816 -0.578 -0.025 17 67 93
-4391.1289 2911.7849 1722.7812 0.293 -0.308 0.905 163 148 116
-4122.1919 2769.0039 1596.7927 0.879 -0.209 -0.428 119 106 94
-4111.7456 2777.9006 1586.5206 0.863 -0.283 -0.418 20 15 14
-4112.4043 2786.6558 1583.6990 0.233 -0.958 -0.170 119 125 131
-3617.0984 2669.3374 1297.4275 0.939 -0.314 -0.143 188 199 213
-3224.2319 2804.9224 985.2195 -0.512 -0.779 0.362 177 132 109
-3111.0156 2714.9106 943.3173 -0.431 -0.756 0.492 172 130 106
-2968.7363 2612.2954 886.7475 -0.397 -0.849 0.348 169 130 111
-2733.8330 2693.4531 700.0387 0.603 -0.265 0.752 168 87 43
-2688.9651 2696.9495 668.8467 0.974 -0.193 -0.119 177 92 45
-2595.5991 2853.8521 548.2197 0.798 -0.205 0.566 153 70 26
-2582.1917 2847.2222 541.7568 0.836 -0.184 0.517 150 68 21
-2399.8271 2645.3462 495.4473 0.567 -0.808 0.157 140 57 13
-2457.9456 2955.6169 418.6222 0.907 -0.030 -0.421 135 56 21
-2795.0247 3516.4680 434.3194 -0.318 -0.394 -0.863 232 173 161
-2824.8696 3644.0811 406.6793 0.952 0.034 0.304 201 167 153
-2485.8833 3333.9731 296.3370 0.158 -0.983 0.094 68 24 13
-2634.3052 3575.2122 305.3765 -0.256 -0.947 -0.195 31 3 3
-1716.1101 4229.3247 -549.8870 0.251 -0.795 0.552 241 177 167
-1717.9185 4405.6455 -614.3427 0.413 -0.780 0.471 214 140 121
-1779.5327 4624.2764 -654.7130 0.860 -0.307 0.408 200 128 106
-1708.5925 4446.3369 -635.7084 -0.095 -0.907 0.410 200 126 107
-4384.8662 2750.9666 1766.7510 0.531 -0.234 -0.815 24 75 99
-4401.2666 2870.2432 1732.9802 0.860 -0.182 0.476 44 48 41
-4122.3760 2779.8755 1581.3923 0.859 -0.291 -0.421 31 26 26
-3455.7646 2620.6465 1197.8000 0.506 -0.853 0.127 75 41 30
-3633.6609 2800.9961 1248.5334 0.883 -0.462 0.088 83 93 102
-2851.2937 2525.3496 831.5790 0.540 -0.826 0.164 171 124 108
-2727.1013 2578.7351 729.0073 0.250 -0.521 0.816 81 33 10
-2672.9478 2707.9688 644.5957 0.986 -0.161 -0.046 188 93 37
-2672.1467 2715.8923 641.0952 0.849 -0.108 0.518 187 92 35
-2589.5376 2839.6279 539.8226 0.801 -0.202 0.564 153 70 26
-2581.4749 2839.3999 534.5471 0.554 -0.208 0.806 150 67 23
-2370.4614 2785.4744 414.4414 0.799 -0.541 -0.262 137 57 22
-1740.7721 4452.0317 -628.4548 0.414 -0.821 0.392 213 140 121
-1717.6959 4454.4419 -644.7010 -0.141 -0.921 0.363 199 125 107
-1682.8599 4491.3892 -681.7024 -0.404 -0.579 -0.709 82 52 43
-4000.9546 2420.5569 1624.7040 -0.038 -0.654 0.755 30 66 83
-4355.7651 2701.6399 1754.2800 0.587 -0.600 0.544 25 73 97
-4414.7002 2790.0984 1760.0679 -0.332 -0.902 -0.276 14 60 65
-4425.9678 2839.3909 1748.9763 0.834 -0.262 -0.485 2 20 29
-3788.5110 2811.5232 1336.4371 0.985 -0.126 -0.119 89 82 84
-3614.4873 2779.0381 1233.1865 0.840 -0.542 0.038 99 107 115
-3678.4492 3018.7488 1185.3317 0.527 -0.632 0.568 192 162 138
-3568.5654 3049.6504 1100.7681 -0.088 -0.996 0.026 189 159 135
-3557.1003 3048.4534 1093.6105 -0.088 -0.996 0.026 182 152 128
-2888.1187 2571.3936 829.3668 0.851 -0.312 -0.422 171 123 109
-2887.1504 2578.5439 826.0305 0.851 -0.312 -0.422 176 129 114
-2683.7991 2661.3474 659.8865 -0.048 -0.630 0.775 138 63 22
-2647.8218 2673.7908 631.3233 0.878 -0.164 0.449 175 83 28
-2647.3118 2690.6602 624.6299 0.862 -0.167 0.478 177 84 31
-2510.1865 2710.7776 526.0507 0.588 -0.197 0.785 170 87 38
-2303.5269 2646.9224 412.9596 0.403 -0.460 0.791 136 57 24
-2373.4768 2772.8518 411.9412 0.710 -0.540 -0.452 144 64 29
-2374.0525 2783.0610 408.4774 0.799 -0.541 -0.262 144 64 29
-2490.3638 3334.6011 277.8927 0.107 -0.983 0.152 66 26 15
-2482.2549 3334.6477 272.4938 0.107 -0.983 0.152 32 3 3
-1771.3263 4542.0679 -654.1536 0.855 -0.470 0.221 207 138 118
-1754.4684 4517.6333 -656.1362 0.867 -0.443 0.227 195 124 104
-1722.6357 4450.7417 -652.0624 -0.125 -0.918 0.377 198 125 107
-1721.3566 4469.6406 -660.0308 -0.144 -0.943 0.300 169 104 87
-1708.3291 4547.1431 -697.8724 -0.392 -0.518 -0.760 49 27 20
-1608.6580 4684.0635 -815.5974 0.171 -0.904 0.392 211 172 167
-1096.6119 5005.4893 -1276.4935 0.199 -0.684 -0.701 224 131 123
-738.1143 4639.3511 -1376.4753 -0.412 -0.865 -0.286 255 73 114
-4375.5093 2693.3628 1758.9025 0.631 -0.664 0.401 30 75 98
-4354.6743 2695.3977 1744.3312 0.610 -0.584 0.536 25 69 93
-4357.7695 2705.4470 1742.5739 -0.204 -0.851 0.485 23 66 87
-4319.2432 2727.5835 1708.6683 0.786 -0.537 -0.307 12 36 31
-4430.6675 2828.4526 1744.2551 0.650 -0.245 0.719 8 18 17
-3484.3804 2632.9192 1191.5511 0.562 -0.805 0.187 79 44 27
-3723.2722 2898.2666 1249.2516 0.335 -0.214 -0.918 171 190 209
-3794.4368 2994.0525 1260.0977 0.065 -0.229 -0.971 43 41 41
-3776.2390 3079.6748 1215.6041 -0.207 -0.933 0.294 192 162 137
-3660.1270 3107.9639 1127.9778 -0.180 -0.883 0.433 191 160 135
-3636.3721 3095.7419 1116.8739 -0.224 -0.967 -0.121 191 160 135
-2778.6169 2498.2493 775.1021 0.909 -0.191 -0.370 180 132 119
-2617.7043 2617.2139 623.4468 0.235 -0.606 0.760 123 54 20
-2612.1335 2619.5930 618.8555 0.628 -0.202 0.752 136 62 23
-2605.9121 2621.2510 614.1065 0.628 -0.202 0.752 141 63 22
-2857.2549 3698.8225 372.3239 0.848 0.007 0.530 64 25 15
-2495.8171 3321.8716 275.7372 0.576 -0.810 0.109 68 24 13
-2495.6174 3333.3718 271.2477 0.154 -0.986 0.068 66 25 15
-2488.0305 3334.1880 265.9132 0.154 -0.986 0.068 32 3 3
-1582.9630 4533.0562 -787.7897 0.539 -0.800 0.265 163 130 125
-1518.3906 4354.1992 -762.7960 0.560 -0.791 0.247 237 201 197
-1106.1307 4799.2070 -1204.4636 -0.317 -0.923 0.217 230 148 144
-4374.9888 2687.5283 1749.1875 0.625 -0.644 0.442 35 70 89
-4335.3931 2724.9226 1708.7627 0.673 -0.601 -0.432 14 22 24
-4395.6592 2823.5657 1711.0179 0.868 -0.300 -0.395 29 25 16
-4233.4756 2801.1812 1612.3285 0.329 -0.835 0.440 162 148 130
-4163.6958 2776.0051 1575.7905 0.816 -0.110 -0.568 39 40 35
-4164.4819 2784.8213 1572.9509 0.816 -0.110 -0.568 12 16 18
-3486.9011 2629.3503 1184.2451 0.504 -0.815 0.288 85 44 23
-3662.6506 2815.5654 1229.4784 0.749 -0.612 -0.254 182 192 205
-3736.9336 3057.1501 1186.5348 -0.086 -0.915 0.394 175 144 117
-2813.7859 2608.3672 747.2475 0.344 -0.465 0.816 178 137 133
-2612.5938 2605.4487 615.3524 0.229 -0.610 0.759 87 37 24
-2609.2161 2635.7515 601.5732 0.753 0.005 0.658 92 40 23
-2604.7773 2648.0107 593.9675 0.713 -0.030 0.700 100 48 30
-2354.6169 2643.8267 430.1820 0.086 -0.787 0.611 130 53 16
-2339.1299 2724.3882 389.2470 0.640 -0.612 -0.464 162 79 36
-2319.7886 2708.8711 382.3731 0.647 -0.757 -0.087 161 78 35
-2499.4744 3318.3589 268.9282 0.576 -0.810 0.109 72 26 13
-2499.7036 3330.4526 264.4715 0.119 -0.979 0.167 69 27 15
-2493.2527 3332.9187 259.2672 0.154 -0.986 0.068 42 11 10
-1821.0867 4338.0303 -568.0779 -0.041 -0.458 0.888 236 192 183
-1810.9581 4374.3154 -588.5998 0.903 -0.413 0.115 232 174 163
-1850.2870 4543.1172 -626.9185 0.474 -0.710 0.520 216 156 145
-1588.2216 4457.8413 -767.6757 0.252 -0.821 0.513 106 73 71
-1584.5220 4470.3140 -774.8740 0.212 -0.867 0.452 96 63 60
-1583.8087 4492.1514 -783.6662 0.660 -0.663 0.354 136 100 98
-751.3113 4656.6479 -1396.7043 -0.041 -0.948 -0.316 254 61 110
-4088.1494 2455.5098 1637.2551 0.750 -0.661 -0.037 19 66 81
-4376.2012 2682.8560 1740.2026 0.621 -0.666 0.413 27 57 73
-4294.6040 2691.7432 1682.9570 -0.243 -0.962 -0.125 14 21 25
-4400.4546 2821.0947 1703.2340 0.886 -0.296 -0.357 47 42 31
-4436.1265 2879.5188 1704.3837 0.757 -0.217 0.617 123 110 90
-4405.6089 2883.6580 1682.6613 0.807 -0.229 0.545 146 131 109
-4182.4917 2792.0315 1570.5530 0.823 -0.099 -0.560 4 9 9
-4367.1792 2942.3521 1634.8135 0.890 -0.407 -0.207 157 172 184
-4342.4121 2968.0457 1608.6259 0.887 -0.289 -0.359 141 181 216
-3488.9854 2625.4319 1176.7985 0.504 -0.815 0.288 80 38 16
-3692.9612 2826.1357 1234.4795 0.835 -0.550 0.019 188 185 185
-3720.4624 2883.5134 1230.6389 0.636 -0.293 -0.713 161 193 218
-2648.3972 2621.3660 623.7142 -0.392 -0.803 0.448 145 100 97
-2632.7605 2612.8420 616.6631 -0.368 -0.811 0.455 135 90 88
-2619.2170 2606.5317 610.1448 -0.013 -0.703 0.711 124 77 70
-2592.4194 2585.6584 600.4614 0.981 -0.192 -0.006 110 64 51
-2599.9839 2627.8384 589.2897 0.903 -0.424 -0.076 86 40 27
-2595.6685 2631.6028 584.9998 0.912 -0.401 -0.087 87 41 26
-2592.1711 2653.5244 574.2921 0.694 -0.027 0.719 87 36 5
-2586.4548 2655.7654 569.6616 0.696 -0.054 0.716 93 42 6
-2558.5474 2694.0828 536.5645 0.385 -0.256 0.887 117 53 17
-2529.2100 2677.8259 523.4365 0.388 -0.248 0.888 124 62 24
-2444.7449 2657.9385 475.3249 0.099 -0.843 0.529 132 64 24
-2509.9238 3006.2351 384.8679 0.129 -0.570 -0.811 204 154 129
-2503.0295 3314.7083 262.1151 0.585 -0.804 0.102 72 26 13
-2504.6067 3328.7170 257.7877 0.119 -0.979 0.167 69 27 15
-2497.1960 3329.7974 252.4840 -0.099 -0.995 0.012 42 11 10
-2504.6985 3352.5061 248.7326 0.393 -0.610 -0.688 33 7 8
-1874.9391 4569.2202 -633.0318 0.959 -0.281 0.029 226 166 155
-1502.5997 4267.7275 -763.1823 0.713 -0.659 0.240 227 178 181
-4091.0442 2452.3823 1629.6605 0.807 -0.546 -0.226 24 65 77
-4372.8525 2714.9556 1714.0663 0.617 -0.390 -0.683 5 29 39
-4392.6816 2809.9666 1690.5126 0.942 -0.323 -0.091 62 57 46
-4437.7354 2874.7405 1695.2227 0.818 -0.218 0.533 126 114 92
-4389.5225 2866.4390 1666.6705 0.806 -0.289 0.517 147 132 111
-4364.9199 2934.6528 1624.1825 0.894 -0.398 -0.208 163 177 190
-3782.6453 2791.4929 1295.8866 0.652 -0.185 -0.735 63 57 62
-3720.6641 2766.9082 1264.5421 0.706 -0.653 -0.274 84 43 29
-3493.5476 2623.5442 1170.2173 0.493 -0.812 0.313 75 34 12
-3445.6643 2592.3059 1150.7209 0.341 -0.929 -0.144 94 52 30
-3443.2922 2598.2224 1146.8789 0.327 -0.932 -0.159 80 41 17
-3445.8479 2608.2097 1144.7134 0.619 -0.766 -0.173 105 74 56
-3673.1619 2803.7583 1219.0590 0.603 -0.739 -0.299 180 177 176
-3669.1423 2808.9111 1214.4263 0.603 -0.739 -0.299 170 181 190
-3673.4355 2820.9744 1212.6051 0.762 -0.632 -0.141 159 185 201
-3957.9424 3150.7288 1272.8997 0.648 -0.152 -0.746 180 152 128
-3759.8616 3064.0278 1175.8617 -0.113 -0.932 0.344 163 132 104
-3738.7283 3054.7732 1165.5106 -0.089 -0.949 0.301 164 133 105
-2605.0718 2593.3745 596.7298 0.958 -0.274 0.080 191 147 136
-2600.4417 2596.7183 592.3922 0.962 -0.265 0.057 188 145 130
-2590.6631 2628.3477 573.7641 0.680 -0.057 0.731 129 85 69
-2439.4365 2653.9404 464.3103 -0.142 -0.945 0.295 115 51 15
-2433.0825 2655.1790 459.6487 -0.171 -0.936 0.309 116 52 15
-2420.0464 2657.2278 450.2741 -0.057 -0.960 -0.273 127 59 23
-2375.5547 2747.7266 386.1003 0.525 -0.245 -0.815 156 80 42
-2375.4932 2766.3823 378.8708 0.268 -0.733 -0.625 155 79 41
-2443.1772 2891.9167 375.0705 0.271 -0.418 -0.867 186 113 76
-2817.6423 3628.0986 337.9923 0.865 -0.001 0.502 70 27 11
-2509.5098 3326.9810 251.1038 0.119 -0.979 0.167 69 27 15
-2511.2822 3353.1604 242.1829 0.390 -0.608 -0.692 33 7 8
-1869.9330 4560.7852 -645.5375 0.420 -0.688 0.591 224 164 153
-1790.1875 4479.0581 -666.5613 0.816 -0.449 0.364 198 128 109
-1773.8805 4500.9678 -685.7433 0.743 -0.582 0.329 171 118 95
-1775.7267 4528.5391 -695.1518 0.850 -0.526 0.023 165 119 92
-1587.3344 4441.4106 -785.6447 0.206 -0.692 0.692 213 184 180
-987.1244 5899.8916 -1742.9390 0.002 -0.946 0.325 255 81 127
-4077.7722 2438.7471 1615.5223 0.964 -0.264 0.010 24 60 67
-4301.4321 2709.2639 1657.7061 0.835 -0.460 0.302 22 21 17
-4373.7271 2766.5754 1683.0164 0.655 -0.244 0.715 31 32 27
-4386.7178 2791.8647 1681.7554 0.688 -0.213 0.693 58 59 55
-4398.4116 2858.3391 1663.6826 0.743 -0.617 -0.259 138 123 103
-4380.6045 2854.3057 1653.5413 0.440 -0.880 -0.179 143 128 107
-4365.8604 2929.2827 1614.7961 0.651 -0.547 -0.526 167 179 193
-3768.3074 2765.8562 1285.3580 0.609 -0.267 -0.747 153 167 178
-3744.7793 2780.4009 1264.2572 0.667 -0.697 -0.264 86 44 30
-3495.4277 2619.4729 1162.7206 0.474 -0.831 0.291 78 37 17
-3454.5156 2593.9915 1145.7036 0.063 -0.974 0.220 91 48 28
-3447.4287 2596.0503 1140.2476 0.330 -0.933 -0.142 80 41 17
-3454.8538 2610.0227 1139.7137 0.510 -0.829 -0.227 91 60 44
-3666.3757 2800.6262 1204.8860 0.641 -0.688 -0.340 171 181 193
-3680.1523 2820.5103 1206.2360 0.769 -0.621 -0.148 157 183 201
-3746.9397 2893.2527 1221.9469 0.642 -0.300 -0.705 157 189 216
-2603.8535 2594.3213 586.4429 0.963 -0.261 0.060 197 153 140
-2607.2219 2623.3931 577.3915 0.834 -0.470 0.290 207 163 150
-2433.8665 2676.2529 442.9632 -0.073 -0.982 -0.176 107 44 14
-2422.3257 2680.1790 433.8562 -0.037 -0.939 0.343 113 50 20
-2357.5317 2727.2681 373.0206 0.200 -0.397 -0.896 133 62 28
-2390.4651 2787.9688 371.1458 0.200 -0.816 -0.542 152 81 47
-2389.3970 2796.0984 367.2934 0.190 -0.785 -0.589 166 95 61
-2515.1584 2977.5305 379.6498 0.110 -0.627 -0.771 230 162 129
-2518.5020 3319.3884 249.3766 0.660 -0.689 -0.298 72 26 13
-2513.8179 3324.3914 244.3593 -0.110 -0.994 0.021 69 27 15
-2575.0437 3460.7610 231.7587 -0.074 -0.967 0.243 13 1 1
-1854.8468 4439.4302 -620.8574 0.606 -0.353 -0.713 247 190 178
-1849.9966 4448.0688 -627.3928 0.822 -0.508 -0.258 244 184 173
-1873.1488 4530.2271 -644.0117 0.823 -0.567 -0.039 239 177 166
-1787.5627 4498.8179 -688.0955 0.683 -0.582 0.441 181 121 101
-1783.0028 4508.5845 -694.8773 0.661 -0.618 0.427 171 116 94
-1680.4886 4422.4424 -728.8785 -0.200 -0.944 -0.261 45 23 10
-1673.2279 4424.1279 -734.3043 -0.157 -0.940 -0.303 57 34 26
-1666.0834 4426.1299 -739.7761 -0.093 -0.939 -0.331 94 75 68
-1642.0074 4470.5181 -772.8014 0.775 -0.584 -0.243 153 141 138
-1576.4867 4413.1313 -793.6300 0.106 -0.886 0.452 215 183 180
-713.6716 3735.2886 -1098.0851 0.244 -0.257 -0.935 253 66 93
-760.4774 4100.7373 -1208.9324 -0.245 -0.842 -0.480 255 81 124
-4078.8577 2434.4756 1607.2515 0.964 -0.264 0.010 17 49 52
-4336.3101 2648.0593 1692.9220 0.635 -0.193 -0.748 8 18 19
-4454.6313 2857.8030 1688.8154 0.794 -0.217 0.568 119 104 84
-4437.1221 2862.5571 1675.4763 0.859 -0.287 0.425 124 112 93
-4398.9062 2852.8274 1654.1973 0.729 -0.626 -0.275 106 91 70
-4383.5220 2850.4946 1645.0138 0.469 -0.865 -0.178 78 62 41
-4351.7227 2913.0740 1599.7679 0.228 -0.301 -0.926 169 181 196
-4245.7617 2904.8547 1533.4576 -0.381 -0.769 -0.514 122 166 199
-3591.6221 2612.1655 1218.3746 0.808 -0.573 -0.136 152 184 201
-3779.5920 2768.9512 1280.5948 0.621 -0.253 -0.741 167 181 190
-3792.9260 2787.8667 1281.9717 0.671 -0.189 -0.717 90 84 87
-3801.5320 2811.5295 1278.3970 0.668 -0.186 -0.720 85 49 40
-3506.7295 2623.0688 1158.4344 0.419 -0.854 0.308 85 44 22
-3450.4736 2592.9878 1133.2504 0.335 -0.939 -0.077 84 44 23
-3666.1250 2794.4412 1196.2252 0.570 -0.739 -0.359 173 183 195
-3687.5466 2820.6011 1200.0850 0.643 -0.628 -0.438 159 185 204
-3739.5303 2872.2319 1214.0691 0.626 -0.111 -0.772 145 179 208
-3759.7681 2897.7402 1217.4061 0.640 -0.302 -0.707 152 184 211
-3632.9861 3077.7151 1064.1055 0.829 -0.555 0.066 164 130 103
-2653.9592 2617.3721 601.2161 0.162 -0.740 0.653 193 147 148
-2619.3096 2630.4951 573.3715 0.801 -0.591 0.101 193 149 138
-2610.8655 2629.7188 568.1343 0.826 -0.560 0.059 195 151 138
-2600.8972 2627.2319 562.5640 0.816 -0.576 0.048 198 155 141
-2550.4277 2622.1350 531.4409 0.665 -0.287 0.689 153 119 100
-2476.8955 2703.4473 451.5180 0.463 -0.341 0.818 85 30 4
-2449.3718 2679.4175 442.8250 -0.027 -0.899 0.438 88 33 7
-2363.2654 2727.6973 367.5247 0.199 -0.402 -0.894 118 53 23
-2365.9385 2740.3677 364.3411 0.178 -0.431 -0.885 158 93 63
-2507.2412 2949.8176 375.4254 -0.070 -0.874 0.480 218 153 123
-2523.3730 3317.6123 242.6942 0.660 -0.689 -0.298 73 27 14
-2516.9177 3320.0769 237.4990 0.153 -0.980 0.131 70 28 16
-2511.5583 3324.1084 232.4122 0.076 -0.990 0.116 44 13 11
-2580.4470 3459.4424 224.8710 -0.074 -0.967 0.243 14 2 1
-2269.7063 3281.6387 90.3001 0.789 0.085 -0.609 22 18 19
-1847.1022 4423.9204 -632.0375 0.780 -0.529 -0.333 245 185 174
-1687.9619 4426.1631 -737.3113 -0.197 -0.944 -0.266 56 37 23
-1680.7830 4428.1206 -742.7838 -0.157 -0.940 -0.303 57 37 28
-838.6130 3871.7266 -1078.4647 0.228 -0.282 -0.932 210 108 93
-4079.9412 2430.2122 1598.9963 0.964 -0.264 0.010 10 37 36
-4330.3086 2677.9456 1665.8616 0.617 -0.550 0.562 13 20 17
-4442.1562 2801.7656 1690.5808 0.775 -0.225 0.590 78 79 75
-4463.4409 2832.8706 1692.3298 0.571 -0.256 0.780 90 90 83
-4434.3926 2854.8110 1664.7136 0.859 -0.287 0.425 88 77 56
-4389.4565 2848.7976 1637.6473 0.469 -0.865 -0.178 103 87 64
-4369.2065 2843.0354 1626.6464 0.497 -0.843 -0.207 102 86 61
-4222.2671 2797.4700 1548.2896 0.974 -0.002 -0.227 38 42 43
-4334.4888 2886.1501 1587.0216 0.934 -0.058 -0.352 150 159 168
-3781.3022 2756.1782 1275.7427 0.885 -0.195 -0.422 153 185 203
-3789.6333 2771.0430 1275.3733 0.696 -0.212 -0.685 167 180 192
-3797.8481 2785.8801 1274.9386 0.732 -0.221 -0.645 98 93 96
-3607.5005 2699.2144 1184.2635 0.539 -0.660 0.524 86 44 22
-3451.0173 2587.8906 1125.4230 0.215 -0.967 -0.137 86 44 23
-3666.9358 2789.1475 1187.9425 0.211 -0.477 -0.853 165 175 186
-3697.8979 2823.1238 1194.9030 0.584 -0.511 -0.631 157 183 200
-3700.7937 2834.0496 1192.5181 0.814 -0.562 -0.150 147 181 209
-3902.3518 3120.8049 1212.1359 -0.425 -0.782 0.456 165 131 104
-3136.6221 2821.8140 827.9161 0.071 -0.848 -0.526 159 118 100
-2556.0371 2622.1941 525.9865 0.452 -0.875 0.175 155 124 109
-2518.3774 2657.0833 487.6586 -0.450 -0.699 0.556 196 156 136
-2487.6079 2700.6543 450.4402 -0.118 -0.899 0.421 92 43 21
-2451.0735 2683.8230 433.1137 -0.099 -0.968 0.229 84 32 11
-2394.2771 2788.2927 354.9933 0.351 -0.828 -0.436 222 162 135
-2501.4426 2934.9961 367.6808 -0.328 -0.445 -0.833 225 165 138
-2909.8916 3516.8015 407.1581 0.931 -0.244 0.273 179 134 113
-2522.8123 3331.4729 226.3286 0.222 -0.906 -0.361 44 13 12
-2241.1477 3349.3870 34.8875 0.914 0.129 -0.384 44 38 42
-1737.2603 4480.7627 -738.3235 0.505 -0.758 0.413 81 58 50
-1698.6007 4438.8657 -747.2203 -0.167 -0.936 -0.311 65 45 31
-1689.5768 4435.6167 -751.8558 -0.157 -0.938 -0.310 64 44 35
-1120.1495 5022.5825 -1354.6732 -0.221 -0.552 -0.804 222 133 124
-4079.7180 2425.1135 1590.2367 0.952 -0.307 -0.006 3 24 21
-4340.1802 2639.8376 1675.8530 0.636 -0.239 -0.734 17 15 9
-4403.2090 2819.0894 1646.4230 0.975 -0.208 -0.083 97 82 60
-4429.1436 2845.3452 1653.0273 0.756 -0.593 -0.277 131 115 94
-4259.2300 2818.0596 1552.7396 0.289 -0.356 -0.888 51 52 56
-4353.1353 2910.6958 1577.6107 0.056 -0.320 -0.946 162 183 200
-3787.9492 2797.2271 1252.9683 0.716 -0.696 0.053 67 27 19
-3452.0208 2583.1812 1117.7681 0.233 -0.963 -0.131 86 45 21
-3670.0645 2785.7710 1180.4448 -0.016 -0.549 -0.836 156 166 175
-3704.3306 2830.9248 1185.0485 0.814 -0.562 -0.150 151 184 209
-3371.4185 3160.4597 837.6675 0.132 -0.555 0.821 55 48 47
-2477.6074 2727.1592 424.2735 0.089 -0.921 0.380 78 29 11
-2401.8623 2653.4670 403.8067 0.489 -0.164 0.856 76 27 9
-2396.6821 2656.0518 399.4033 0.482 -0.172 0.859 77 27 9
-2375.6240 2639.2390 392.2656 -0.265 -0.709 0.654 80 28 7
-2384.7166 2750.4136 354.4088 0.888 -0.359 -0.288 178 122 98
-2873.7151 3437.7332 403.1860 0.308 -0.562 -0.767 191 145 122
-2926.2122 3517.2866 406.1511 0.244 -0.428 -0.870 177 132 111
-2925.6565 3540.4138 396.6767 0.923 -0.289 0.253 155 109 86
-2531.5803 3311.8826 229.1842 0.218 -0.576 -0.787 73 27 14
-2533.1680 3325.7939 224.7411 0.213 -0.592 -0.777 70 28 16
-1878.0731 4471.0742 -654.5588 -0.427 -0.870 0.246 244 186 175
-1740.4296 4472.0288 -744.8841 0.503 -0.760 0.412 125 100 93
-1705.1663 4439.8857 -755.2651 -0.156 -0.940 -0.304 93 69 57
-1697.2054 4439.7129 -760.3995 -0.157 -0.938 -0.310 94 71 63
-1689.4705 4440.1489 -765.6259 -0.157 -0.938 -0.310 93 71 65
-4338.9863 2610.4817 1675.3047 0.662 -0.277 -0.696 4 14 11
-4347.2959 2631.3662 1672.4518 0.636 -0.239 -0.734 16 12 5
-4379.9932 2732.1348 1653.8617 0.926 -0.370 0.070 79 70 54
-4404.9468 2814.5239 1637.5015 0.975 -0.208 -0.083 142 124 101
-4430.0483 2840.1543 1643.7208 0.826 -0.220 0.519 127 110 87
-4249.8115 2797.2749 1543.1506 0.978 -0.039 -0.205 23 17 16
-4243.4009 2945.6167 1480.2087 0.005 -0.839 0.543 122 160 186
-4078.3804 2890.4189 1394.4423 0.903 -0.425 -0.061 131 169 197
-3813.4602 2786.4639 1262.8325 0.903 -0.203 -0.378 121 114 126
-3861.9783 2833.2507 1275.9442 0.915 -0.257 -0.312 69 49 56
-3842.0681 2825.9370 1265.8553 0.849 -0.294 -0.438 73 38 39
-3458.3269 2582.7920 1111.8826 0.244 -0.962 -0.123 86 44 19
-3680.1379 2788.0916 1175.2312 -0.034 -0.558 -0.829 160 170 174
-3715.2173 2825.3359 1183.3578 0.569 -0.524 -0.634 147 172 180
-3708.9197 2828.6721 1177.9290 0.821 -0.559 -0.117 153 186 205
-3191.7251 2935.1880 798.4074 0.940 -0.325 0.101 55 47 37
-2833.1833 2773.5811 628.5717 -0.113 -0.900 0.422 169 119 115
-2746.6587 3243.7097 385.9121 0.388 -0.338 -0.857 195 140 119
-2540.6643 3316.0737 222.8922 0.113 -0.611 -0.784 73 27 14
-2630.6831 3479.8777 216.7195 0.640 -0.591 -0.491 35 9 10
-1843.0688 4364.3940 -647.3563 0.351 -0.822 -0.449 241 185 174
-1848.6881 4528.3623 -708.6420 0.545 -0.315 0.777 244 179 166
-1684.1804 4429.8022 -776.8970 -0.042 -0.860 -0.508 163 141 137
-4447.5586 2644.3584 1721.1608 0.600 -0.543 0.588 11 12 5
-4078.7385 2414.6108 1572.5736 0.776 -0.470 -0.420 11 13 5
-4381.2100 2727.3855 1644.9033 0.926 -0.370 0.070 94 76 52
-4397.3188 2836.7969 1611.8147 0.360 -0.397 0.844 138 119 94
-4282.6797 2823.1306 1542.6315 0.121 -0.360 -0.925 37 34 39
-4228.2446 2928.2209 1465.3420 -0.067 -0.847 0.528 128 158 179
-4143.6958 2925.4399 1411.4116 0.526 -0.626 0.576 138 169 191
-4003.8198 2844.4846 1352.5994 0.679 -0.710 0.185 133 168 193
-3506.3442 2608.3362 1122.8113 0.407 -0.824 0.394 88 42 19
-3464.2224 2582.0645 1105.8547 0.244 -0.962 -0.123 87 43 18
-3699.4158 2797.9229 1172.9874 -0.032 -0.542 -0.840 163 172 162
-3724.8923 2827.2568 1177.8889 0.574 -0.535 -0.620 145 164 166
-3712.2354 2825.3735 1170.3998 0.821 -0.559 -0.117 153 182 192
-3222.4041 2886.0830 827.3589 -0.249 -0.821 -0.513 106 78 78
-2847.6250 2827.4368 606.7485 0.021 -0.999 -0.036 183 135 121
-2844.3271 2869.6372 587.7946 0.280 -0.950 -0.136 193 145 131
-2528.4749 2729.2979 438.0790 0.910 -0.164 0.381 187 145 122
-2525.4788 2743.8630 430.3279 0.887 -0.204 0.414 79 33 9
-2406.9407 2792.8828 333.6409 0.945 -0.303 0.124 192 133 110
-2773.6960 3270.1150 382.3188 0.482 -0.727 -0.490 185 128 107
-2920.2957 3492.1450 389.3224 0.192 -0.633 -0.750 161 114 96
-2919.6394 3503.0881 384.5369 0.192 -0.623 -0.759 160 113 95
-2918.0203 3512.8301 379.6029 0.246 -0.512 -0.823 149 102 83
-2602.2434 3222.3755 289.7226 0.807 -0.573 -0.142 113 71 57
-2538.8506 3304.8513 215.6088 0.110 -0.605 -0.788 69 27 13
-2646.3755 3493.1375 210.6151 0.498 -0.720 -0.483 31 5 4
-2298.3245 3184.3643 107.0213 0.322 -0.832 -0.452 10 9 7
-2292.2922 3186.7439 102.1468 0.432 -0.849 -0.304 10 9 7
-2283.5574 3185.0063 97.1527 0.491 -0.807 -0.328 21 20 18
-1849.3508 4513.0146 -714.4033 0.545 -0.315 0.777 228 183 174
-4284.0908 2579.4871 1629.3982 0.713 -0.537 -0.450 25 16 5
-4367.0229 2712.3225 1630.0892 0.948 -0.316 -0.025 101 81 56
-4399.4434 2824.1304 1606.3828 0.361 -0.402 0.842 140 118 94
-4209.0059 2899.2439 1452.5789 -0.199 -0.867 0.457 125 151 167
-3964.4600 2825.2400 1323.3302 0.635 -0.772 0.036 143 172 196
-3902.2300 2794.0178 1295.4012 0.659 -0.747 0.093 144 175 198
-3855.2690 2782.5396 1269.4869 0.966 -0.256 0.040 148 177 203
-3520.1167 2613.8989 1119.2654 0.489 -0.592 0.641 88 42 19
-3706.7588 2797.9668 1166.8226 -0.039 -0.556 -0.830 147 153 145
-3731.9521 2827.0220 1171.5564 0.574 -0.535 -0.620 156 171 175
-3773.4854 2869.6360 1181.4772 0.862 -0.399 -0.313 149 176 186
-3850.4102 2941.6067 1202.6367 0.385 -0.277 -0.880 99 122 131
-3246.1167 2902.5828 825.6534 -0.223 -0.819 -0.528 75 52 52
-3228.5295 2894.5476 817.4446 -0.322 -0.862 -0.391 50 31 29
-3216.0864 2891.4551 810.5986 -0.157 -0.764 -0.626 35 17 11
-3235.2229 2965.0828 793.5497 0.336 -0.625 -0.705 60 50 41
-2857.2957 3368.3530 386.5338 0.271 -0.962 -0.024 162 105 84
-2776.7144 3287.8906 366.3988 0.499 -0.724 -0.475 155 106 89
-2952.5029 3560.6350 371.3967 -0.236 -0.397 -0.887 143 96 78
-2954.7935 3575.6587 366.8691 -0.248 -0.425 -0.871 136 89 71
-2719.2544 3429.3562 272.4217 0.815 -0.172 0.553 77 37 27
-2652.8857 3493.2612 203.7132 0.498 -0.720 -0.483 32 6 4
-2306.7896 3188.5046 100.8848 0.334 -0.826 -0.453 10 9 7
-2301.1931 3191.5654 96.0232 0.457 -0.840 -0.293 10 9 7
-2294.5039 3192.9670 91.1160 0.461 -0.831 -0.312 21 20 18
-1868.5668 4376.6865 -659.5980 -0.573 -0.801 -0.174 240 193 187
-1930.6392 4733.3643 -762.0898 0.483 -0.233 0.844 232 189 182
-982.0831 4424.0840 -1254.5248 0.640 -0.087 -0.764 212 122 103
-4357.8950 2591.5281 1661.2255 0.499 -0.548 -0.671 13 14 9
-4354.2183 2604.4717 1653.6306 0.990 -0.135 0.038 14 12 5
-4354.2847 2627.6472 1644.3441 0.989 -0.147 0.025 43 30 17
-4442.6812 2814.8313 1626.3093 0.816 -0.282 0.504 134 113 86
-4350.5669 2792.8691 1575.4204 0.596 -0.510 0.620 139 120 94
-4340.4204 2794.0796 1568.3536 0.597 -0.510 0.620 134 120 94
-3993.4185 2841.5549 1324.2330 0.512 -0.802 0.308 146 172 191
-3962.6399 2826.3469 1310.3975 0.764 -0.638 0.095 149 174 193
-3915.6682 2806.8984 1287.7686 0.520 -0.798 0.306 148 172 194
-3914.8457 2823.0674 1280.7263 -0.123 -0.710 0.693 148 179 198
-3520.2322 2608.4343 1111.2489 0.500 -0.589 0.635 88 42 19
-3476.9812 2581.3796 1094.0947 0.283 -0.955 -0.090 88 41 20
-3806.2131 2890.3472 1183.2003 0.886 -0.417 -0.204 148 168 181
-3259.6106 2909.1313 821.2016 -0.223 -0.819 -0.528 59 41 42
-3214.1714 2874.1536 805.8181 0.782 -0.499 0.374 49 34 31
-3209.1980 2878.2800 800.9320 0.782 -0.499 0.374 43 27 22
-3252.7046 2994.3533 782.4160 0.708 -0.516 -0.481 50 49 37
-3116.5830 3133.5540 638.1121 -0.566 -0.556 -0.609 141 92 78
-2522.2397 2744.8281 409.2071 0.910 -0.090 0.406 85 38 12
-2779.7734 3283.6138 359.3034 0.480 -0.747 -0.460 149 100 83
-2981.4702 3589.2346 367.0579 -0.241 -0.407 -0.881 143 96 78
-3000.9817 3626.6870 364.6326 -0.223 -0.405 -0.887 135 88 70
-2662.3909 3343.3096 259.1567 0.687 -0.080 0.722 92 52 42
-2660.5632 3495.0310 196.8935 0.586 -0.799 -0.133 32 6 4
-2315.9102 3193.6008 94.7541 0.480 -0.821 -0.311 10 9 7
-2311.2776 3198.1392 89.9233 0.480 -0.821 -0.311 10 9 7
-2299.8323 3192.3760 84.8216 0.461 -0.831 -0.312 21 20 18
-2296.9092 3199.4927 80.0613 0.316 -0.702 -0.638 21 20 18
-4372.9795 2595.9634 1657.8962 0.678 -0.515 -0.526 11 13 8
-4358.2075 2601.7668 1645.9874 0.975 -0.218 0.035 19 18 13
-4389.0454 2724.0073 1616.4722 -0.209 -0.668 -0.714 115 93 69
-4497.9888 2830.0503 1644.0601 -0.221 -0.399 -0.890 133 113 88
-4416.2881 2807.6140 1600.2659 0.967 -0.222 -0.124 146 121 101
-4415.0688 2815.0583 1596.4640 0.967 -0.222 -0.124 146 121 101
-4409.7808 2819.7217 1591.1543 0.967 -0.219 -0.129 135 112 87
-4381.0991 2808.2393 1577.2396 0.970 -0.232 -0.075 139 118 91
-4330.3062 2781.3628 1555.2451 -0.292 -0.494 -0.819 139 123 97
-4251.0044 2892.4673 1458.9573 0.144 -0.783 0.605 50 65 74
-4064.8682 2864.6675 1349.7458 0.127 -0.900 0.417 92 111 124
-4014.9265 2852.0916 1322.5146 0.537 -0.800 -0.268 123 142 158
-3974.2859 2829.3813 1305.4043 0.748 -0.655 0.107 136 156 171
-3956.1270 2823.8384 1295.8958 0.771 -0.634 -0.060 145 164 182
-3943.4089 2830.8770 1284.8163 -0.111 -0.705 0.700 150 180 194
-3560.7095 2635.4231 1116.2467 0.605 -0.613 0.508 88 42 19
-3473.0654 2572.7312 1084.8983 0.573 -0.813 -0.107 88 41 17
-3504.4148 3043.3142 914.7343 0.038 -0.993 0.107 141 106 91
-3254.2097 2897.4263 811.8515 0.139 -0.962 -0.237 54 43 41
-3210.2314 2899.8052 782.4271 0.788 -0.313 0.530 45 35 26
-3258.1958 2993.0583 775.7273 0.708 -0.516 -0.481 53 48 37
-3215.5713 3202.7827 663.2631 0.202 -0.979 0.028 149 100 86
-3207.4836 3204.2812 657.4226 0.202 -0.979 0.028 147 98 84
-3210.9395 3228.5103 649.8531 0.557 -0.561 -0.612 108 59 45
-3222.8374 3272.5867 639.7148 0.589 -0.536 -0.604 100 57 46
-3224.0105 3294.8738 631.4539 0.718 -0.687 0.111 140 104 90
-3227.5669 3319.9829 623.5934 0.745 -0.666 0.021 121 85 71
-2677.1584 2846.4277 459.0394 0.231 -0.972 -0.035 167 125 100
-2346.6289 2641.8357 327.9312 0.582 -0.813 0.009 102 44 22
-3010.7334 3618.0701 362.6240 -0.237 -0.414 -0.879 141 94 76
-3023.1880 3646.4023 359.2179 -0.166 -0.422 -0.891 134 87 69
-2560.8118 3309.8604 196.1843 0.255 -0.939 -0.232 70 28 14
-2666.9722 3494.9873 189.9646 0.586 -0.802 -0.120 32 6 4
-2321.5479 3193.4404 88.4561 0.477 -0.781 -0.402 10 9 7
-2317.5364 3198.9148 83.6444 0.490 -0.816 -0.308 10 9 7
-2305.1638 3191.7842 78.5231 0.461 -0.831 -0.312 21 20 18
-2304.3149 3202.0361 73.8246 0.449 -0.662 -0.600 21 20 18
-1808.0961 4439.1104 -747.9786 -0.207 -0.945 -0.254 242 199 192
-1811.4684 4603.4385 -812.3024 0.432 -0.367 0.824 236 197 192
-1787.8574 4700.1753 -866.7338 0.914 -0.046 0.403 237 199 196
-1060.6410 4878.4043 -1409.5009 0.716 -0.061 -0.695 209 62 62
-4417.3877 2596.1355 1675.1896 0.439 -0.680 0.588 15 16 10
-4444.5288 2628.8164 1679.4236 0.570 -0.636 0.520 15 16 10
-4376.4170 2592.9089 1650.0391 0.605 -0.593 -0.531 14 15 9
-4369.3403 2596.0095 1644.2063 0.698 -0.553 -0.454 18 20 15
-4364.4253 2600.5007 1639.2046 0.523 -0.634 0.569 26 26 21
-4447.0854 2806.3655 1608.8369 -0.421 -0.553 -0.719 139 117 93
-4127.3530 2612.1665 1481.3304 -0.566 -0.596 -0.570 145 121 97
-4138.3545 2837.6145 1396.7102 0.347 -0.892 0.289 15 25 29
-4024.4399 2844.9326 1320.1539 0.181 -0.903 0.390 35 50 59
-4012.5591 2844.3284 1312.7257 0.600 -0.765 -0.236 30 45 54
-3978.0874 2826.3828 1297.7615 0.738 -0.665 0.116 37 52 61
-3944.6274 2817.4783 1279.7722 0.623 -0.743 0.245 59 76 86
-3704.1189 2712.1074 1167.2968 0.062 -0.680 0.731 83 36 12
-3765.5244 2905.4353 1128.3013 -0.436 -0.819 0.374 150 118 97
-3539.4985 3050.5847 923.2527 0.322 -0.890 0.323 133 101 91
-3529.5977 3050.7446 916.7925 0.320 -0.894 0.314 132 101 93
-3520.6494 3051.7742 910.5938 0.320 -0.894 0.314 131 101 91
-3465.0234 3027.6431 884.4825 0.076 -0.231 -0.970 127 97 88
-3204.2678 2887.4771 773.0860 0.819 -0.527 0.225 51 42 33
-3248.6187 3251.3967 653.6671 0.895 -0.407 0.181 93 44 30
-3259.8967 3273.9558 651.7733 0.626 -0.682 0.378 93 44 30
-3253.1213 3277.0520 646.1373 0.626 -0.682 0.378 98 49 35
-3250.2197 3284.3584 641.2903 0.628 -0.682 0.374 91 42 29
-2351.7632 2641.6328 322.4690 0.572 -0.820 0.002 91 33 11
-2621.4709 3045.4675 332.3706 0.007 -0.718 0.696 150 92 71
-3036.6204 3642.4106 357.6458 -0.234 -0.412 -0.881 130 83 65
-3047.3813 3668.5811 353.9487 -0.166 -0.421 -0.892 130 83 65
-2586.2766 3336.8564 191.0827 0.425 -0.847 0.319 72 30 16
-2572.2537 3328.8386 185.2873 0.277 -0.936 -0.219 70 30 18
-2671.5730 3492.3818 182.8990 0.533 -0.820 -0.209 38 12 10
-2321.9260 3196.8738 77.2896 0.498 -0.786 -0.367 9 8 6
-2311.4258 3192.5872 72.2514 0.480 -0.828 -0.291 20 19 17
-2310.8782 3203.2852 67.5452 0.449 -0.662 -0.600 20 19 17
-2477.4734 3743.8467 -44.7838 0.666 0.044 -0.744 218 186 183
-1050.6156 3024.3813 -673.6828 0.608 0.001 -0.794 244 195 190
-1423.5220 4453.3008 -1014.1936 0.767 -0.466 0.441 233 184 177
-1413.8105 4445.4282 -1017.2632 0.952 -0.242 -0.188 234 185 178
-4415.5449 2589.7183 1665.2548 0.507 -0.578 0.640 15 16 10
-4431.5786 2607.5540 1668.2959 0.697 -0.328 0.637 16 16 8
-4383.1362 2591.9583 1643.4462 0.605 -0.593 -0.531 21 20 15
-4564.5566 2756.1682 1693.2352 0.379 -0.311 0.871 61 49 34
-4375.7207 2768.5112 1566.4539 -0.568 -0.601 -0.563 148 127 100
-4320.6650 2739.0249 1543.0226 -0.567 -0.599 -0.565 155 135 108
-4368.0474 2796.0315 1550.2512 -0.373 -0.539 -0.755 60 46 20
-4139.0742 2832.2710 1387.8217 0.315 -0.908 0.277 11 15 16
-4054.7117 2803.1284 1345.3571 0.609 -0.750 0.259 9 15 17
-4059.3774 2814.9534 1343.5282 0.761 -0.642 0.092 11 16 18
-4060.3879 2824.0825 1340.4457 0.779 -0.627 0.026 11 17 18
-4056.0537 2829.2222 1335.5496 0.778 -0.627 0.037 11 17 20
-4007.8125 2826.3525 1305.6246 0.134 -0.901 0.413 13 22 27
-3996.2173 2825.9275 1298.3236 0.637 -0.659 0.400 13 22 27
-3977.7029 2820.1860 1288.7366 0.794 -0.571 -0.207 15 24 30
-3968.5098 2821.5432 1282.2552 0.791 -0.575 -0.209 21 31 38
-3964.9578 2827.2271 1277.6406 0.794 -0.576 -0.193 22 36 42
-3934.3433 2812.0425 1264.1156 0.811 -0.585 0.015 8 33 34
-3541.9561 3046.1582 915.4080 0.789 -0.346 0.507 128 102 96
-3515.0422 3039.8262 900.6478 0.550 -0.576 0.605 128 102 97
-3474.3086 3011.0940 886.1406 0.148 -0.214 -0.966 132 105 98
-3267.0837 2997.7302 758.0192 0.453 -0.352 -0.819 33 21 13
-3238.1501 3222.3611 647.4910 0.974 -0.176 0.141 93 44 30
-3208.9167 3242.2390 620.5154 0.878 -0.393 0.273 55 15 6
-3183.9612 3319.7720 572.7160 -0.292 -0.945 0.147 109 60 45
-2598.4150 3008.8525 322.4133 -0.095 -0.760 0.643 150 92 71
-3070.5842 3689.3679 348.4594 -0.166 -0.421 -0.892 130 83 65
-2587.8918 3318.9001 188.8171 0.454 -0.864 0.220 73 29 16
-2587.0002 3329.2146 184.0235 0.525 -0.798 0.296 72 30 16
-2331.2654 3202.2417 71.0974 0.556 -0.747 -0.365 9 8 6
-2316.6274 3191.7856 65.9378 0.480 -0.828 -0.291 19 18 16
-2460.9946 3720.3291 -57.1756 0.145 -0.846 0.514 223 183 183
-1417.1781 4436.7002 -1023.0738 0.952 -0.242 -0.188 239 190 183
-1416.5565 4460.2749 -1033.1168 0.979 -0.200 -0.045 239 190 183
-1411.7333 4469.4009 -1039.9587 0.953 -0.237 -0.191 239 190 183
-1194.8877 5106.1860 -1440.1993 -0.303 -0.921 -0.245 223 140 128
-1194.7222 5142.8530 -1455.3035 -0.199 -0.938 -0.284 217 132 122
-1026.4637 4402.6436 -1261.0182 0.194 -0.330 -0.924 217 123 108
-4439.6621 2622.8057 1655.8168 0.530 -0.640 0.557 29 27 19
-4476.0586 2669.4900 1660.0394 0.484 -0.606 0.631 48 42 30
-4373.7212 2802.4707 1539.5210 -0.399 -0.556 -0.730 34 28 5
-4173.3438 2818.0723 1404.1858 0.975 0.022 0.222 18 19 16
-4169.1362 2823.3533 1399.3075 0.046 -0.805 0.591 18 19 15
-4159.6953 2841.5906 1385.7350 -0.235 -0.879 0.416 16 18 15
-4121.1255 2846.7512 1358.7977 0.880 -0.457 -0.133 12 15 13
-4085.8250 2854.1519 1333.0430 0.503 -0.829 0.244 10 13 13
-3930.9265 2778.5847 1264.4529 0.849 -0.480 -0.219 12 17 20
-3582.6104 2644.1252 1095.6343 0.353 -0.188 -0.916 86 40 21
-3616.4436 3070.5503 942.0752 0.736 -0.400 0.546 148 108 84
-3518.7673 3112.2891 862.0703 -0.589 -0.799 -0.120 44 49 36
-3276.0608 2999.8723 752.1367 0.453 -0.352 -0.819 43 26 18
-3277.9932 3011.1638 748.7374 0.672 -0.445 -0.592 41 20 13
-3305.1343 3057.1289 747.3008 0.489 -0.402 -0.774 85 56 52
-3302.5803 3064.1365 742.7765 0.548 -0.479 -0.686 109 73 71
-3270.0544 3041.0569 731.3389 0.217 -0.607 0.764 113 71 71
-3214.3057 3271.7466 600.6215 0.660 -0.648 0.381 74 38 24
-2587.9631 3321.9346 177.0052 0.760 -0.645 0.080 72 30 16
-2336.4968 3201.4419 64.7560 0.556 -0.747 -0.365 9 8 6
-2320.8154 3189.4609 59.5928 0.483 -0.823 -0.297 20 19 17
-2362.5667 3755.3550 -146.2153 0.385 -0.574 -0.723 109 71 62
-2366.2446 3790.4309 -158.2707 0.789 -0.587 0.181 155 117 108
-2250.0044 3864.0728 -263.3364 0.435 -0.524 0.732 227 189 180
-1203.1833 4766.2666 -1307.7904 0.456 -0.719 0.524 231 154 146
-1202.4780 5112.2339 -1450.4904 -0.288 -0.923 -0.254 225 139 126
-1200.3088 5139.2427 -1462.9908 0.113 -0.963 -0.245 218 132 119
-968.0831 4187.7563 -1221.1936 0.633 -0.104 -0.768 210 127 105
-4455.8032 2620.0745 1655.8632 0.646 -0.670 0.365 26 23 14
-4273.4985 2751.9446 1484.2985 0.752 -0.255 0.607 42 39 27
-4121.6548 2832.8369 1353.3629 0.118 -0.721 0.682 23 24 18
-4095.5825 2855.5540 1327.2319 0.186 -0.643 0.743 19 20 17
-3983.3013 2812.6958 1272.8464 0.769 -0.634 0.078 16 18 18
-3598.9966 2651.6252 1092.6443 0.362 -0.195 -0.912 85 40 19
-3726.9695 2778.8398 1122.2413 -0.038 -0.452 -0.891 72 45 39
-3209.1963 2881.8506 747.1908 0.895 -0.384 -0.227 47 32 22
-3307.6448 3043.2363 743.7065 0.572 -0.700 -0.427 77 50 40
-3304.7090 3049.8203 739.1002 0.555 -0.701 -0.448 94 63 54
-3301.0850 3055.7344 734.3287 0.555 -0.701 -0.448 93 58 50
-3272.8586 3183.5454 663.3797 0.231 -0.959 0.162 108 57 51
-2558.7283 3295.6230 158.4951 0.304 -0.918 -0.255 63 32 31
-2327.7764 3191.2822 53.3187 0.498 -0.814 -0.299 19 18 16
-2355.9041 3747.3337 -158.4358 0.754 -0.326 -0.570 105 69 60
-1417.8831 4554.5796 -1094.3995 0.982 0.130 0.134 248 199 194
-1087.2905 4476.4985 -1274.4110 0.971 -0.020 -0.238 233 143 128
-1200.3428 5109.3843 -1463.3888 0.134 -0.951 -0.280 214 125 110
-4501.3413 2643.6694 1663.7886 0.609 -0.590 0.530 34 27 17
-3712.6350 2761.4243 1109.4117 0.976 -0.127 0.178 80 50 38
-3745.1296 2795.9482 1115.8938 0.962 -0.271 0.017 65 34 24
-3740.9590 2809.3923 1107.6357 0.899 -0.381 0.218 36 6 0
-3770.7656 2842.1006 1113.1493 0.905 -0.407 -0.121 44 16 7
-3881.2615 2949.6702 1139.2734 0.892 -0.265 -0.367 118 79 58
-3566.2390 3011.4419 911.7231 0.225 -0.165 -0.960 141 107 91
-3168.9470 2836.3181 729.8657 0.328 -0.860 -0.390 40 22 6
-3256.1389 2948.3599 739.1970 0.088 -0.316 -0.945 58 38 22
-3245.7832 3177.9209 637.1908 0.158 -0.974 0.161 91 50 38
-2376.5049 2654.7830 297.4328 0.300 -0.951 -0.079 94 34 10
-2639.5364 3411.4924 151.6313 0.956 -0.277 -0.100 44 15 17
-2337.9272 3197.8391 47.1006 0.385 -0.632 -0.673 11 10 8
-2359.1011 3756.2739 -171.3280 0.419 -0.870 0.260 136 109 101
-1411.4801 4564.1528 -1114.2554 0.666 -0.282 0.691 247 198 193
-1393.4891 4553.6323 -1121.4146 0.378 -0.300 0.876 248 197 193
-1206.0406 5106.4780 -1471.2202 0.351 -0.878 -0.326 210 117 99
-1200.0154 5115.0845 -1478.6572 0.142 -0.967 -0.212 208 111 93
-1056.8433 4569.8813 -1343.9105 0.799 -0.591 0.105 221 112 94
-1008.4630 4571.4800 -1375.5800 0.625 -0.582 -0.520 196 24 30
-992.6041 4560.8599 -1381.3312 0.685 -0.564 0.461 215 30 44
-4413.7495 2675.6624 1582.8450 0.654 -0.316 0.688 125 108 80
-3756.6445 2733.0427 1138.5941 0.463 -0.886 -0.004 81 35 16
-3744.4963 2789.5239 1107.2382 0.871 -0.411 0.269 72 38 20
-3741.0613 2795.1274 1102.7013 0.862 -0.426 0.273 56 22 3
-3751.9211 2812.3218 1102.4672 0.924 -0.353 0.148 59 26 9
-3833.2092 2895.4719 1119.7373 0.888 -0.456 -0.064 92 60 43
-3645.4180 2834.8679 1024.9318 0.752 -0.495 0.436 113 68 39
-3639.8630 2838.7534 1019.7565 0.752 -0.495 0.436 113 68 39
-3574.0049 3086.5684 874.1489 -0.046 -0.283 -0.958 33 30 24
-3222.4258 2828.6624 756.9741 -0.025 -0.715 -0.699 47 40 32
-3307.7725 3067.7319 711.7304 0.197 -0.945 -0.261 59 26 7
-2393.0081 2659.5466 297.0923 0.245 -0.963 0.116 97 37 13
-2388.1980 2662.5630 292.7561 0.250 -0.962 -0.113 94 34 10
-2345.1604 3200.0168 40.7956 0.406 -0.623 -0.669 11 10 8
-2335.9412 3762.6130 -200.0334 0.564 -0.541 0.623 121 88 81
-1212.5071 5107.1733 -1480.0607 0.351 -0.878 -0.326 211 117 99
-1016.4056 4583.4839 -1386.8031 0.607 -0.607 -0.514 177 15 20
-4450.4390 2654.9167 1603.4607 0.101 -0.517 0.850 88 68 41
-4454.4990 2665.3533 1601.6720 0.878 -0.223 0.423 96 76 49
-4391.9155 2640.4041 1572.1937 0.913 -0.066 0.403 132 113 84
-4366.6929 2631.7483 1559.7260 0.908 -0.072 0.413 135 116 87
-4413.4717 2670.0615 1573.5061 0.660 -0.309 0.684 124 107 79
-4461.8052 2709.5857 1587.7703 0.702 -0.252 0.666 118 101 73
-4213.9263 2592.6541 1478.6165 0.918 -0.073 0.389 104 86 59
-4214.4097 2600.6311 1475.5769 0.850 -0.146 0.506 77 63 42
-4222.2939 2613.5901 1475.1705 0.850 -0.151 0.504 49 44 32
-3732.5144 2782.3252 1091.6973 0.868 -0.436 0.238 69 30 8
-3741.6985 2798.1064 1090.9362 0.916 -0.372 0.152 84 45 25
-3793.6277 2848.6113 1102.8868 0.986 -0.148 -0.083 102 65 46
-3939.3140 2975.6091 1142.5809 0.847 -0.491 0.203 106 67 48
-3938.7583 2984.0747 1138.6731 0.920 -0.218 -0.325 102 57 33
-3609.4211 3093.6626 882.4440 0.196 -0.280 -0.940 24 24 14
-3600.8689 3114.2522 868.3425 -0.049 -0.285 -0.957 30 30 21
-3311.2131 3045.2090 712.4205 -0.109 -0.864 -0.491 72 37 18
-3313.8044 3066.8481 704.9921 0.426 -0.733 -0.530 60 26 6
-3234.5876 3161.5747 614.6647 0.759 -0.621 0.193 84 47 31
-3205.3003 3140.6233 604.7631 0.574 -0.807 0.135 82 43 28
-3203.2959 3148.4573 600.1954 0.584 -0.800 0.135 79 40 25
-2392.0757 2660.7483 287.0588 0.258 -0.939 -0.227 94 34 10
-2593.6968 3295.6755 149.2669 0.736 -0.160 -0.658 120 75 69
-2602.8821 3331.3140 140.1717 0.183 -0.889 -0.420 70 36 37
-2423.4961 3367.2988 10.5571 0.486 -0.528 -0.696 26 24 29
-2432.9600 3405.9683 0.3676 0.819 -0.552 0.156 26 24 29
-2370.2483 4269.5088 -402.1163 0.535 0.097 -0.839 216 178 175
-1235.3073 3443.1262 -779.7490 0.412 -0.838 -0.357 244 200 197
-1273.7871 4419.2119 -1164.8759 0.807 -0.162 0.568 241 178 169
-1168.4307 4512.7402 -1271.3865 0.807 -0.161 -0.568 236 152 141
-1158.4077 4530.9077 -1285.4099 -0.176 -0.530 -0.830 229 145 134
-1026.8623 4572.8721 -1386.9954 0.637 -0.400 -0.659 187 33 35
-1024.0974 4594.0498 -1397.6493 0.187 -0.821 -0.540 180 26 28
-1000.2989 4578.7920 -1406.4369 0.825 -0.375 -0.423 200 20 31
-3612.5281 2079.5088 1300.8730 0.447 -0.462 0.766 55 47 37
-3551.9419 2065.5984 1268.1423 0.629 -0.450 0.634 123 104 78
-4332.9390 2581.5796 1548.0322 0.112 -0.519 0.847 139 118 89
-4381.3052 2620.4626 1562.4423 0.871 -0.112 0.479 133 112 85
-4366.7046 2618.7124 1553.8787 0.875 -0.147 0.462 138 118 92
-4351.1934 2616.3398 1544.9976 0.899 -0.068 0.432 141 121 96
-4386.6934 2734.2095 1517.8888 0.746 -0.186 0.639 42 38 27
-3571.5815 2646.9724 1035.3912 0.281 -0.261 -0.923 90 46 21
-3774.9275 2827.4573 1088.8002 0.974 -0.214 -0.080 110 66 43
-3796.8596 2853.7407 1091.6847 0.990 -0.125 0.069 111 64 41
-3932.2263 2972.4543 1127.8440 0.862 -0.478 0.169 107 57 31
-3733.8438 2819.4812 1065.9908 0.616 -0.617 -0.489 118 64 34
-3705.8538 2890.7322 1018.1002 0.537 -0.781 0.319 113 68 39
-3622.0576 3098.5266 877.0524 0.192 -0.282 -0.940 23 24 14
-3211.7742 2806.0127 739.0671 -0.001 -0.954 -0.301 43 36 28
-3222.4185 2950.3857 684.9420 0.258 -0.641 0.723 76 41 22
-3216.3350 3135.1294 603.1288 0.732 -0.615 0.292 86 49 33
-3211.4873 3139.9412 598.0105 0.889 -0.456 0.038 91 52 37
-3180.3918 3126.8740 583.7125 0.689 -0.718 0.099 101 59 43
-3147.7239 3121.7817 565.0482 0.574 -0.669 0.471 78 38 23
-3144.9453 3128.7346 560.3450 0.618 -0.612 0.494 62 25 15
-2617.3748 3342.7649 133.9419 0.179 -0.849 -0.498 73 39 40
-2422.0554 3356.0732 3.8915 0.616 -0.502 -0.606 27 25 30
-2428.0247 3389.3025 -6.3240 0.840 -0.504 0.203 27 25 30
-2387.9260 3352.6409 -16.4041 0.308 -0.660 0.685 24 22 27
-2412.0955 3401.7542 -21.7254 0.896 -0.422 0.138 24 22 27
-2350.6899 3405.4077 -62.3876 0.974 0.087 0.210 36 30 34
-1169.9990 4525.6006 -1287.1689 -0.170 -0.518 -0.838 231 147 136
-1164.0526 4530.6602 -1293.0918 -0.176 -0.519 -0.836 233 149 138
-999.3121 4653.3525 -1449.8065 0.740 -0.662 -0.118 215 14 36
-3638.1567 2079.0500 1308.1443 0.215 -0.433 0.875 63 57 46
-3609.4714 2067.1470 1294.9521 0.193 -0.452 0.871 83 73 62
-3610.8843 2080.4050 1290.2289 0.385 -0.353 0.853 105 95 81
-3594.7627 2076.3533 1281.6963 0.389 -0.351 0.852 117 103 84
-3569.0498 2066.1409 1269.6775 0.660 -0.430 0.616 123 105 82
-3571.8188 2074.0847 1268.0697 0.383 -0.459 0.801 130 110 84
-3538.0420 2064.7524 1250.5503 0.401 -0.452 0.796 139 118 89
-4362.6943 2657.2893 1523.6505 0.162 -0.391 0.906 89 69 45
-4194.8647 2569.4678 1454.1763 0.689 -0.293 0.662 59 40 15
-4204.4741 2583.4463 1454.3590 0.792 -0.289 0.538 48 34 14
-4197.2300 2586.2373 1448.5696 0.797 -0.266 0.543 40 35 22
-3603.8140 2667.2444 1036.9086 0.449 -0.210 -0.868 104 53 24
-3634.0498 2699.6104 1042.4100 0.554 -0.282 -0.783 112 60 31
-3787.0996 2839.8030 1080.2811 0.985 -0.165 0.058 112 60 31
-3797.6147 2856.8645 1079.7328 0.950 -0.298 0.090 114 61 31
-3706.2737 2893.6184 1006.0712 0.575 -0.789 0.217 110 66 37
-3419.5747 2950.6335 799.6037 0.864 -0.499 -0.068 33 30 21
-3193.7095 3133.7893 578.3315 0.471 -0.729 -0.496 123 84 69
-3183.2881 3132.6584 572.1848 0.377 -0.747 -0.548 108 69 54
-3166.7896 3134.9543 560.7209 0.410 -0.723 -0.556 82 44 29
-3170.3972 3148.7905 557.1482 0.606 -0.770 0.203 60 29 15
-3164.8306 3152.8250 551.8981 0.457 -0.724 -0.517 44 14 3
-3161.4944 3159.2681 547.0450 0.495 -0.651 -0.576 51 21 8
-3161.2446 3240.6709 512.3707 -0.052 -0.648 0.760 70 36 19
-3087.6719 3169.5161 495.7609 0.094 -0.723 0.684 76 42 25
-2654.3926 3385.2231 128.8062 0.348 -0.563 -0.749 74 40 41
-2722.2544 3490.8711 127.1592 0.829 -0.511 -0.227 45 16 18
-2749.1211 3552.5415 118.0931 0.394 -0.833 -0.388 26 9 7
-2396.3457 3284.8882 7.2744 0.787 -0.614 -0.063 23 21 22
-2402.5144 3341.6304 -12.8626 0.227 -0.720 0.656 39 37 42
-2399.7092 3385.8333 -33.3886 0.868 -0.496 0.025 34 32 37
-2422.2544 3457.6943 -49.5234 0.708 -0.430 -0.560 21 16 20
-2324.5581 3753.1060 -236.8990 0.568 -0.823 -0.007 125 92 85
-2315.1697 3765.4668 -248.1095 0.531 -0.829 0.174 135 102 95
-1180.5916 4546.6094 -1300.7228 -0.244 -0.562 -0.790 226 142 131
-1170.5137 4596.3247 -1328.2103 -0.012 -0.962 0.273 228 140 128
-1040.3019 4618.8481 -1420.5533 0.589 -0.591 -0.551 212 65 65
-1036.7789 4636.4629 -1430.2621 0.603 -0.575 -0.553 208 54 56
-1007.3973 4740.7007 -1493.1417 0.361 -0.837 0.410 246 36 71
-3564.5332 2059.0303 1260.7098 0.320 -0.425 0.846 127 109 87
-3575.9216 2072.4558 1262.2155 0.404 -0.431 0.807 134 115 89
-4281.4946 2590.9348 1489.0061 0.238 -0.439 0.866 72 55 28
-4191.4722 2554.4568 1447.4253 0.231 -0.471 0.851 48 31 8
-4185.8623 2558.2803 1442.2358 0.639 -0.427 0.640 43 26 2
-4172.5322 2556.9780 1434.3319 0.656 -0.409 0.634 40 27 8
-3688.3018 2625.1797 1097.9872 0.779 -0.199 -0.595 42 21 18
-3783.2310 2822.2107 1074.2628 0.976 -0.209 0.060 115 60 24
-3654.4285 2734.7812 1029.7858 0.767 -0.623 0.151 115 60 29
-3755.6479 2893.9375 1026.1929 0.040 -0.894 0.446 102 55 25
-3464.9988 2869.9700 851.9680 0.621 -0.782 0.045 119 87 73
-3459.6465 2873.9292 846.8842 0.621 -0.782 0.045 112 80 65
-3423.2815 2929.5522 800.1043 0.623 -0.734 -0.272 25 26 16
-3417.5911 2933.2764 794.9062 0.864 -0.496 -0.086 30 29 20
-3202.1909 3105.9768 584.6226 0.821 -0.434 -0.370 85 45 33
-3189.3376 3131.8687 565.4326 0.377 -0.761 -0.528 124 85 70
-3168.6479 3159.6626 540.4590 0.495 -0.651 -0.576 46 22 6
-3200.9602 3245.6714 524.3112 0.971 -0.144 0.193 50 28 12
-3184.7168 3238.2407 517.1702 0.953 -0.133 0.270 61 33 17
-3149.6321 3220.3120 502.5464 -0.047 -0.647 0.761 74 43 28
-3108.3374 3195.1870 487.0489 -0.180 -0.758 0.627 77 46 31
-3063.0771 3155.0891 475.4153 -0.171 -0.803 0.571 75 44 29
-3004.8384 3110.2300 457.5751 0.964 -0.239 0.113 75 43 28
-2744.6594 3512.8315 120.9042 0.012 -0.710 -0.704 45 16 18
-2377.6079 3213.7041 15.4548 0.376 -0.573 -0.728 7 6 4
-2384.4097 3246.7537 5.6871 0.759 -0.611 -0.225 18 17 15
-2389.4287 3265.8193 0.7473 0.792 -0.581 -0.189 23 21 22
-2413.6924 3410.3054 -45.4280 0.838 -0.536 0.104 27 22 26
-2438.0364 3472.6411 -56.5442 0.822 -0.309 -0.478 26 21 25
-2448.0244 3500.7153 -62.1698 0.889 -0.263 -0.376 26 21 25
-1200.4719 4545.7534 -1299.1763 0.858 -0.180 -0.481 234 150 139
-1197.6830 4564.4048 -1308.8945 0.856 -0.182 -0.483 234 150 139
