ply
format ascii 1.0
element vertex 803
property float x
property float y
property float z
property float nx
property float ny
property float nz
property uchar diffuse_red
property uchar diffuse_green
property uchar diffuse_blue
end_header
-3241.7607 3118.1882 539.3154 -0.104 -0.484 0.869 83 51 44
-3189.4509 3093.3594 518.2387 -0.040 -0.479 0.877 43 31 17
-3046.1980 3029.5579 458.6378 -0.250 -0.828 -0.502 17 38 35
-2526.0630 3439.2092 -45.5323 -0.612 -0.745 -0.267 16 16 18
-2508.6775 3425.9060 -50.2707 -0.608 -0.743 -0.280 16 16 18
-2582.4287 3790.6184 -168.5003 1.000 -0.002 -0.022 219 183 190
-2477.7600 3857.3884 -262.9269 0.971 0.090 -0.222 217 180 174
-2482.8616 3894.1614 -276.2855 0.963 -0.089 0.253 217 180 175
-2419.7546 3902.8208 -319.0387 0.846 -0.326 0.422 222 185 180
-2398.8997 3881.5984 -322.3606 0.301 -0.714 0.632 222 185 180
-2312.5564 3905.7781 -386.3893 -0.100 -0.853 0.512 208 170 165
-2296.7063 3906.9929 -396.6965 -0.695 -0.711 0.107 223 184 180
-2276.4661 3885.2993 -399.4284 -0.634 -0.762 0.133 223 184 180
-2071.2378 4421.2715 -766.3292 -0.436 -0.389 -0.812 235 192 186
-1933.4615 4128.7661 -719.9335 0.517 -0.475 0.713 226 180 175
-1904.2404 4080.1711 -716.1255 0.629 -0.411 0.660 224 175 174
-1869.7809 4036.5581 -717.7792 0.344 -0.531 0.775 221 188 182
-1842.9655 4080.1567 -753.8583 0.862 -0.078 -0.500 72 48 40
-1848.2803 4110.5737 -764.2336 0.868 -0.074 -0.491 75 54 43
-1852.1064 4137.6943 -774.0464 0.919 -0.156 -0.362 106 87 73
-1653.8729 3997.3181 -833.1496 0.169 -0.976 -0.136 235 199 199
-3474.7693 2049.0481 1153.8409 0.145 -0.802 0.580 54 51 42
-3449.3459 2038.7225 1142.8678 0.174 -0.787 0.591 51 48 39
-3415.3472 2022.7323 1129.1769 0.575 -0.607 0.549 43 40 31
-3356.0591 2014.3723 1096.5027 0.880 -0.475 0.007 33 30 21
-3778.9575 2672.1270 1059.9875 0.388 -0.893 0.228 46 22 7
-3771.0522 2674.0984 1054.2397 0.388 -0.893 0.228 55 28 11
-3705.9336 2704.2544 1000.6219 0.067 -0.419 -0.906 55 22 3
-3779.1360 2770.0486 1015.9630 0.660 -0.185 -0.728 58 27 9
-3813.9692 2814.3000 1017.4293 -0.326 -0.779 -0.536 72 37 17
-3798.6875 2810.6050 1009.7015 -0.397 -0.817 -0.417 77 37 16
-3784.0728 2807.3997 1002.1629 -0.443 -0.827 -0.347 78 37 15
-3679.3936 2945.8960 875.3989 -0.228 -0.336 -0.914 84 40 15
-3700.1084 3063.9187 834.9376 0.105 -0.959 0.263 71 36 12
-3406.0645 2846.8667 752.0266 0.293 -0.884 -0.365 48 25 4
-3405.8833 2864.1331 744.1331 0.647 -0.759 0.075 46 20 5
-3414.3220 2997.4558 689.2303 0.187 -0.298 -0.936 46 12 3
-3286.8938 2895.4941 656.8596 0.331 -0.727 -0.602 43 10 1
-3072.5896 3041.4758 459.3392 -0.183 -0.869 -0.460 22 44 41
-3063.2913 3041.2026 453.7470 -0.241 -0.835 -0.494 13 39 37
-2520.6138 3434.5789 -57.1156 -0.633 -0.761 -0.141 16 16 18
-2529.6406 3946.6038 -282.3414 0.978 -0.066 0.198 217 180 174
-2440.6885 3884.4109 -308.9862 0.989 -0.149 -0.027 219 182 176
-2352.2063 3920.7537 -379.7531 0.848 -0.180 0.499 211 172 167
-2342.5618 3948.1726 -398.0393 0.604 -0.358 0.712 216 177 172
-1952.6313 4140.5308 -724.4131 0.707 -0.390 -0.589 224 181 175
-1930.2504 4107.7939 -723.4152 0.590 -0.462 0.662 221 177 171
-1883.3881 4036.6487 -720.1541 0.324 -0.671 0.667 234 193 186
-1875.7637 4036.6411 -724.8370 0.323 -0.669 0.669 226 194 187
-1855.3107 4042.0200 -739.8330 0.769 -0.349 -0.536 28 8 2
-3473.5283 2038.3342 1149.2102 0.443 -0.583 0.681 56 53 44
-3457.2866 2033.9918 1141.2128 0.468 -0.577 0.669 56 53 44
-3428.3147 2021.3462 1129.1654 0.258 -0.752 0.607 54 51 42
-3397.2090 2013.3103 1113.7220 0.618 -0.359 -0.699 50 47 38
-3466.5884 2121.6782 1107.2233 0.092 -0.491 0.866 30 29 24
-3793.2195 2669.9404 1059.3907 0.585 -0.707 0.397 34 18 5
-3728.9199 2717.1326 998.5839 0.050 -0.426 -0.903 52 19 0
-3789.0413 2772.5681 1010.3684 0.667 -0.181 -0.723 58 26 8
-3793.8899 2784.7085 1007.8469 0.669 -0.178 -0.722 66 34 15
-3824.2307 2817.0552 1011.8154 -0.239 -0.744 -0.623 74 39 20
-3803.0691 2817.1482 998.7922 -0.451 -0.803 -0.390 70 35 19
-3788.6445 2873.7996 964.2977 0.682 -0.273 -0.678 92 47 24
-3760.9058 2868.4146 949.7198 0.204 -0.969 -0.142 89 47 27
-3834.7546 3138.6123 872.7028 -0.305 -0.926 0.224 71 33 12
-3814.3015 3130.1926 863.9678 -0.266 -0.928 0.259 73 35 14
-3788.7896 3117.2610 854.1722 -0.274 -0.916 0.294 77 39 18
-3772.0247 3111.9348 846.2994 -0.316 -0.903 0.291 77 37 17
-3748.7498 3100.8076 837.0592 -0.316 -0.903 0.291 73 40 15
-3411.8699 2846.3770 745.5877 0.304 -0.877 -0.373 57 27 7
-3428.3123 2995.2920 688.2606 0.182 -0.303 -0.936 60 23 15
-3430.0417 3006.1079 684.4251 0.182 -0.303 -0.936 48 11 3
-3266.9031 2888.4607 637.6099 0.474 -0.757 -0.450 38 10 1
-3466.2703 3173.7043 630.7780 0.387 -0.778 -0.496 109 75 66
-3084.5840 3047.6345 453.7126 -0.269 -0.833 -0.484 21 45 41
-3079.3970 3051.7495 448.6679 -0.283 -0.825 -0.490 12 40 37
-2639.4590 3314.6221 59.7956 -0.145 -0.967 -0.208 29 14 9
-2619.7500 3299.3579 54.6157 0.143 -0.985 0.095 15 6 1
-2614.4875 3303.4419 49.5388 0.143 -0.986 0.087 10 6 0
-2568.6660 3670.8003 -144.8719 0.666 0.208 -0.716 28 28 24
-2591.8782 3745.4500 -164.4266 0.999 -0.025 0.046 44 27 29
-2052.3198 4294.9995 -744.1870 0.016 -0.678 -0.735 241 197 191
-1958.7081 4140.4229 -731.6343 0.707 -0.390 -0.589 214 171 164
-1911.1609 4068.6111 -728.2921 0.589 -0.451 0.670 244 195 191
-1890.3730 4038.9773 -727.6288 0.303 -0.632 0.713 237 196 190
-1776.7775 4147.5459 -846.4602 -0.749 -0.652 0.114 234 192 191
-3368.8911 2009.3398 1089.6462 0.851 -0.524 -0.011 47 44 35
-3456.1582 2110.7927 1096.9414 0.086 -0.498 0.863 34 33 28
-3287.0769 2015.7699 1036.6366 0.630 -0.732 -0.261 30 29 24
-3307.0845 2035.4351 1039.9436 0.577 -0.576 0.580 31 30 25
-3826.0564 2689.7764 1060.1350 0.751 -0.486 0.447 30 14 4
-3744.2869 2723.9971 994.5167 0.082 -0.422 -0.903 56 21 2
-3822.9175 2810.6602 1003.2492 -0.037 -0.730 -0.683 86 53 37
-3815.3076 2813.0603 997.4993 -0.068 -0.733 -0.677 83 51 38
-3797.8767 2875.7778 958.3115 0.679 -0.271 -0.682 84 42 18
-3784.3496 2882.0361 947.1847 0.397 -0.879 -0.265 86 44 22
-3742.6448 2856.5520 933.2405 0.300 -0.891 -0.342 87 47 25
-3761.0994 3105.5703 831.3134 -0.280 -0.911 0.301 76 41 17
-3440.2368 2848.6606 751.6968 0.168 -0.648 -0.743 75 35 20
-3410.3923 2848.0400 733.7084 0.136 -0.943 -0.303 70 31 16
-3411.6282 2857.8455 730.0065 0.647 -0.759 0.075 70 30 17
-3450.2231 3009.6709 684.6013 0.108 -0.511 -0.852 63 26 18
-3447.3125 3016.1746 679.8622 0.108 -0.509 -0.854 51 14 6
-3404.1865 2984.9453 667.6604 0.227 -0.843 -0.488 50 13 5
-3344.4434 2992.5674 627.6205 0.103 -0.425 -0.899 126 102 92
-3345.4795 3002.7910 623.6063 0.105 -0.422 -0.901 121 96 89
-3084.8987 3041.4419 446.5064 0.177 -0.673 0.718 19 41 36
-3097.1035 3063.9436 443.7470 -0.299 -0.823 -0.484 14 42 37
-2523.6299 2777.9731 222.6974 0.485 0.063 -0.872 130 78 57
-2634.7803 3311.5381 48.1385 0.089 -0.994 0.060 15 6 1
-2515.3083 3505.9934 -113.4173 -0.640 -0.763 0.090 28 29 34
-2522.6658 3541.6240 -125.1138 0.857 -0.220 -0.465 15 16 21
-2709.8958 3847.8752 -149.7409 -0.458 -0.790 -0.408 15 16 20
-2679.3264 3815.3025 -153.6448 -0.315 -0.923 -0.221 17 20 16
-2581.1011 3732.4622 -176.1113 1.000 -0.027 0.014 47 24 28
-2338.6284 3904.0918 -402.5889 0.913 -0.272 0.304 219 180 175
-1939.5912 3916.2542 -652.4066 -0.302 -0.383 -0.873 239 194 191
-2028.2496 4140.4150 -700.0533 -0.648 -0.482 -0.590 236 191 188
-1976.7709 4149.4312 -735.6676 0.723 -0.389 -0.571 226 179 175
-1917.6394 4069.6602 -735.5968 0.587 -0.466 0.661 236 187 183
-1872.4977 4019.4700 -740.4115 -0.027 -0.968 -0.250 151 127 120
-1828.6836 4022.8547 -768.7732 0.745 -0.154 -0.649 55 30 20
-1792.5007 4152.9209 -850.0633 0.209 -0.517 0.830 157 109 110
-1773.4945 4124.7534 -848.8914 0.192 -0.531 0.825 203 161 159
-3364.6904 2002.9000 1081.5261 0.849 -0.528 0.001 52 49 40
-3358.5352 2004.9209 1076.8427 0.875 -0.475 -0.099 53 50 41
-3434.5867 2092.4907 1083.3163 0.096 -0.489 0.867 40 39 34
-3279.4199 2000.8125 1030.3827 0.891 -0.429 -0.147 36 35 30
-3296.4165 2018.3417 1032.7618 0.637 -0.734 -0.235 35 34 29
-3308.4502 2032.5962 1033.6042 0.584 -0.585 0.563 35 34 29
-3914.8359 2743.6191 1079.3772 0.117 -0.937 0.330 25 16 9
-3888.0830 2731.5950 1068.5234 -0.397 -0.902 -0.170 31 13 3
-3862.7451 2720.5549 1058.0845 -0.396 -0.900 -0.181 39 17 3
-3754.5659 2718.7083 992.8350 0.097 -0.422 -0.901 61 26 6
-3748.5811 2730.3435 983.8650 0.065 -0.564 -0.823 67 32 12
-3768.2124 2803.8867 962.2739 0.992 0.028 -0.122 61 37 30
-3787.3169 2827.6099 963.1123 0.835 -0.026 -0.549 62 37 28
-3821.3459 2889.2830 955.7383 0.355 -0.487 -0.798 79 37 14
-3791.1189 2882.0156 940.5896 0.397 -0.885 -0.245 82 38 15
-3414.3540 2845.9009 726.8945 0.162 -0.889 -0.428 75 28 15
-3418.8123 2858.5835 723.8265 0.646 -0.762 0.037 73 28 17
-3466.1812 3018.4463 679.7622 0.094 -0.518 -0.851 60 26 17
-3464.5288 3026.1484 675.2354 0.077 -0.516 -0.853 49 15 6
-3419.9238 2993.6316 662.8331 0.207 -0.829 -0.519 48 14 5
-3274.2144 2883.5823 624.0670 0.849 -0.525 0.054 43 15 8
-3345.6257 2987.5713 620.2076 0.131 -0.415 -0.900 119 94 87
-3367.6201 3017.8652 619.8110 -0.062 -0.155 -0.986 117 92 85
-3413.7412 3080.9741 619.1690 0.805 -0.175 -0.567 114 86 80
-3358.4775 3065.2375 592.5916 -0.452 -0.806 0.384 116 79 73
-3253.4646 2981.1670 566.8256 -0.179 -0.940 -0.292 95 57 54
-3308.0156 3120.4885 536.5300 0.752 -0.570 0.331 110 74 68
-3243.4402 3064.9480 522.4408 0.084 -0.926 0.369 111 71 64
-2667.8877 3336.5784 46.7565 -0.126 -0.990 -0.055 32 15 10
-2645.3875 3767.6938 -163.8680 0.906 0.036 -0.422 31 31 27
-2614.0366 3733.4907 -167.4026 0.991 -0.077 0.112 41 37 34
-2022.6100 4064.1277 -679.7319 -0.239 -0.356 -0.903 236 189 189
-2002.6411 4193.0806 -750.8211 0.400 -0.692 -0.601 213 168 163
-1917.6696 4056.2480 -740.2477 0.627 -0.413 0.660 229 180 178
-1871.3102 4020.5471 -752.2678 0.255 -0.599 0.759 51 26 19
-1835.6333 4007.8955 -768.2872 0.745 -0.613 0.264 48 24 17
-1659.3254 3917.3875 -834.6716 -0.471 -0.778 0.416 33 22 13
-1638.7139 3883.3267 -831.7098 -0.203 -0.745 0.636 31 22 13
-3359.2949 1995.6967 1073.0710 0.945 -0.319 -0.067 58 55 46
-3296.9736 2008.9022 1029.0155 0.909 -0.413 -0.057 43 42 37
-3299.0322 2016.3757 1026.8428 0.648 -0.727 -0.226 42 41 36
-3312.3188 2031.4536 1028.0284 0.581 -0.594 0.556 38 37 32
-3287.1504 2032.8313 1012.0508 0.730 -0.639 0.243 33 32 27
-3301.2695 2048.6257 1013.4153 -0.060 -0.753 0.655 32 31 26
-3245.8452 2023.0094 991.3708 -0.017 -0.766 0.643 31 30 25
-3896.6375 2741.0881 1058.8250 -0.480 -0.855 -0.195 38 16 2
-3774.1130 2728.7615 989.7723 0.169 -0.414 -0.895 58 26 7
-3793.2717 2835.4502 952.5206 0.848 -0.020 -0.530 61 38 32
-3831.2283 2891.7449 949.8439 0.355 -0.487 -0.798 71 30 10
-3830.7004 2899.9873 945.7417 0.661 -0.543 -0.518 73 29 9
-3808.3228 2890.4800 936.4580 0.350 -0.878 -0.327 75 31 11
-3704.6807 2848.6177 892.4651 -0.032 -0.593 0.805 86 43 18
-3684.1733 2857.3547 875.9541 0.505 -0.717 0.481 88 43 17
-3425.1692 2849.8877 721.4574 0.178 -0.890 -0.420 76 27 15
-3493.1458 2973.2551 706.3214 -0.566 -0.699 -0.436 49 18 8
-3481.2104 3026.3210 674.7053 0.061 -0.467 -0.882 59 26 17
-3479.9778 3034.4324 670.2333 0.071 -0.466 -0.882 50 16 7
-3428.3250 2995.4209 656.6320 0.207 -0.829 -0.519 49 15 6
-3276.2297 2879.6042 617.0156 0.849 -0.525 0.054 44 17 10
-3348.8711 2984.5593 613.1689 0.497 -0.225 -0.838 89 66 58
-3361.0278 3005.3818 611.0308 0.184 -0.437 -0.880 93 70 62
-3381.5898 3053.0940 601.6844 0.754 -0.155 -0.639 106 76 67
-3371.3052 3071.4133 587.0114 -0.458 -0.806 0.375 108 74 66
-3264.2578 2985.5701 561.1144 -0.181 -0.935 -0.304 86 51 44
-3297.7476 3094.0359 531.7855 0.631 -0.675 0.383 108 74 65
-3284.6487 3090.4780 525.4307 0.652 -0.653 0.386 109 74 65
-3258.9724 3074.1948 517.2436 0.156 -0.926 0.344 111 73 65
-3148.2510 3085.3367 444.6237 -0.229 -0.544 -0.807 22 38 38
-2955.9448 3329.5581 215.3564 -0.370 -0.925 -0.089 130 81 73
-2679.9780 3344.6506 40.1704 -0.204 -0.972 -0.114 32 15 11
-2655.0361 3322.6382 35.0587 -0.180 -0.976 -0.123 16 7 1
-2542.6917 3540.9194 -133.5563 0.764 -0.327 -0.556 22 23 28
-2541.9480 3552.2085 -139.1875 0.764 -0.327 -0.556 22 23 28
-2631.3325 3736.8872 -169.3912 0.994 0.084 0.072 41 45 39
-2577.9946 3774.6409 -219.2286 0.967 0.017 -0.254 211 169 170
-1912.4817 4014.2048 -734.8857 0.636 -0.168 -0.753 217 175 169
-1799.1420 4067.0891 -828.2474 0.792 -0.356 -0.496 123 48 55
-1789.7699 4062.5642 -831.8864 0.915 -0.401 0.039 108 35 44
-1643.3568 3863.3921 -829.8068 -0.459 -0.778 0.429 41 33 23
-3305.8247 2011.1298 1024.9851 0.906 -0.422 -0.023 51 48 41
-3326.7754 2031.2999 1028.4424 0.855 -0.489 0.173 52 49 42
-3315.1018 2029.5807 1022.1310 0.715 -0.654 0.246 46 43 36
-3320.8086 2039.5803 1020.9973 0.711 -0.656 0.252 38 35 28
-3316.3997 2042.7645 1016.8478 0.711 -0.656 0.252 38 35 28
-3306.6929 2042.3500 1011.1321 0.384 -0.718 0.581 38 35 28
-3292.0007 2044.6910 1001.1137 -0.072 -0.777 0.625 34 31 24
-3266.9702 2033.7301 990.9318 0.012 -0.781 0.624 35 32 27
-3236.7478 2019.1250 979.2693 0.067 -0.722 0.688 33 32 27
-3214.6926 2010.0497 970.0294 0.002 -0.772 0.635 30 29 24
-3909.6282 2745.7634 1053.9958 -0.488 -0.840 -0.237 42 19 4
-3773.9797 2756.2585 966.6203 0.140 -0.927 0.348 74 50 36
-3656.8628 2837.6658 857.8563 0.543 -0.619 0.567 79 44 22
-3640.5696 2841.1448 846.3394 0.582 -0.655 0.481 79 43 21
-3634.3770 2844.5093 841.0214 0.492 -0.846 0.207 80 43 21
-3435.8398 2862.4172 711.9639 0.969 -0.045 -0.245 77 28 13
-3553.6343 3013.1431 714.2111 -0.491 -0.619 -0.613 54 19 5
-3345.8950 2868.2061 654.5667 -0.609 -0.774 -0.175 61 29 16
-3465.7256 2996.6829 668.3015 0.101 -0.291 -0.952 59 26 17
-3479.7922 3018.8989 666.6274 0.017 -0.348 -0.937 60 27 18
-3483.9451 3031.9956 663.1216 0.031 -0.345 -0.938 48 15 6
-3304.3899 2909.1672 610.4428 0.902 -0.429 0.043 28 6 0
-3357.4080 2986.5940 607.0382 0.492 -0.227 -0.841 53 34 21
-3373.4580 3020.3750 601.2438 0.231 -0.426 -0.875 70 50 38
-3390.8406 3046.3701 599.8468 0.758 -0.197 -0.621 78 54 41
-3302.0984 2979.4141 576.6901 0.439 -0.793 -0.424 88 58 47
-3274.5342 2989.4470 555.2960 -0.181 -0.935 -0.304 79 48 36
-3265.1335 2989.4790 549.5610 -0.243 -0.873 -0.423 66 34 24
-3307.8699 3078.5920 534.5171 -0.119 -0.534 -0.837 116 84 72
-3297.5671 3077.8591 528.5856 -0.191 -0.519 -0.833 109 75 64
-3289.8113 3079.6484 523.0419 0.586 -0.711 0.390 108 74 64
-3282.3384 3081.7109 517.5446 0.594 -0.703 0.391 109 75 65
-3250.2974 3059.0388 508.4915 0.612 -0.642 0.462 108 75 66
-3210.4500 3037.7639 494.0446 -0.515 -0.701 -0.493 94 60 53
-3190.8928 3027.3730 486.9306 -0.524 -0.697 -0.489 77 46 39
-3188.5054 3120.8621 442.4135 -0.243 -0.948 -0.205 19 38 41
-2820.3691 3129.0864 214.6168 -0.550 -0.820 -0.157 136 86 66
-2871.1838 3316.4250 159.2421 -0.325 -0.887 0.329 109 68 62
-2851.5876 3313.9475 148.4591 0.595 -0.552 0.584 107 66 60
-2770.7563 3256.4165 125.7748 0.561 -0.469 -0.682 108 64 63
-2762.9597 3257.3633 120.5945 0.511 -0.605 -0.610 108 64 63
-2747.3330 3269.9614 105.2825 0.461 -0.705 -0.539 105 62 60
-2732.3357 3261.7024 99.9612 -0.174 -0.985 -0.014 106 62 61
-2712.7915 3258.3547 89.6107 -0.163 -0.986 -0.020 105 69 61
-2528.7219 3511.2974 -138.9091 -0.668 -0.743 0.034 29 28 33
-2628.9014 3736.7495 -181.8021 0.994 0.086 0.062 84 76 73
-2574.4680 3680.5276 -189.0265 0.964 0.022 -0.266 158 138 139
-1902.6304 3912.7156 -704.7893 -0.126 -0.990 0.069 205 156 151
-1921.5062 4038.0652 -751.0441 0.614 -0.426 0.664 218 168 163
-1794.6385 4024.4866 -821.9874 0.951 -0.287 0.117 113 45 48
-1795.9401 4063.2480 -839.0504 0.896 -0.438 0.071 102 34 41
-1760.3757 4031.2649 -845.9584 -0.551 -0.774 0.312 68 21 21
-1656.9128 3918.7703 -857.0957 -0.740 -0.555 -0.380 37 30 20
-3348.3037 2035.8453 1030.9491 0.862 -0.448 -0.238 57 54 47
-3327.4316 2040.2866 1016.2197 0.716 -0.620 0.323 46 43 36
-3319.3442 2040.9861 1010.9849 0.698 -0.665 0.267 46 43 36
-3311.9319 2042.1311 1005.9539 0.381 -0.733 0.564 47 44 37
-3287.4607 2037.8112 993.0920 -0.072 -0.777 0.625 38 35 28
-3275.0125 2035.4633 986.6189 0.075 -0.761 0.644 39 36 31
-3918.0786 2738.8323 1051.7379 -0.402 -0.861 -0.312 43 23 8
-3908.3877 2739.6921 1045.4551 -0.403 -0.867 -0.292 52 28 12
-3809.2156 2745.6572 982.4721 0.423 -0.822 -0.382 50 26 12
-3790.9541 2739.6733 974.1509 0.345 -0.939 0.006 47 24 9
-3782.5605 2741.3267 968.2891 0.341 -0.940 -0.008 53 29 15
-3772.6399 2741.7751 962.0571 0.342 -0.940 -0.005 62 35 21
-3678.0066 2841.2021 858.5931 0.565 -0.674 0.476 57 30 15
-3662.7698 2845.6260 847.2939 0.668 -0.700 0.252 65 38 23
-3567.5559 2816.7229 802.8452 0.242 -0.763 0.600 87 38 24
-3523.8440 2971.1199 704.8741 0.763 -0.608 -0.218 67 32 12
-3467.3813 2992.1775 660.8447 0.191 -0.297 -0.935 57 25 15
-3348.3416 2944.6643 610.5369 0.833 -0.549 -0.075 33 12 1
-3344.9343 2950.4863 605.7744 0.833 -0.549 -0.075 31 13 1
-3341.5217 2956.3162 601.0050 0.833 -0.549 -0.075 31 13 0
-3340.9805 2964.8884 596.7107 0.439 -0.791 0.426 33 15 0
-3314.8010 2976.3750 575.4990 0.657 -0.611 -0.442 51 26 9
-3297.1440 2968.5200 568.4104 0.445 -0.783 -0.436 52 25 9
-3267.1536 3050.6130 512.2208 0.769 -0.401 0.497 85 53 39
-3255.6604 3048.5706 506.1862 0.691 -0.481 0.539 86 53 41
-3182.8801 3012.9038 478.4896 -0.401 -0.707 -0.582 65 36 28
-3122.7756 2979.7371 457.3339 -0.386 -0.816 -0.431 53 33 22
-3199.7759 3125.9971 436.4309 -0.255 -0.945 -0.206 15 40 44
-2850.7793 3158.0083 209.6896 -0.566 -0.808 -0.163 153 105 88
-2914.1255 3339.6787 164.1135 -0.044 -0.989 -0.142 120 77 76
-2878.6550 3307.1633 157.6158 0.456 -0.560 0.692 119 78 77
-2874.1985 3312.5107 152.4357 -0.294 -0.898 0.326 119 78 77
-2851.2952 3305.9500 141.5626 0.524 -0.645 0.556 110 68 67
-1935.3173 3938.1223 -707.1298 0.314 -0.906 0.282 222 158 157
-1940.5380 4049.9094 -755.6741 0.673 -0.195 -0.713 207 148 143
-1922.9298 4027.9514 -756.2087 0.614 -0.426 0.664 208 148 143
-1809.4171 3975.5920 -800.9182 0.406 -0.342 0.847 84 39 36
-1801.0361 4061.3528 -845.6821 0.893 -0.445 0.066 90 38 41
-1654.8890 3917.3992 -867.8363 -0.753 -0.481 -0.449 57 46 39
-3323.3489 2021.5319 1013.9840 0.912 -0.392 -0.122 57 54 47
-3317.2871 2029.6952 1006.5177 0.662 -0.653 0.367 51 48 41
-3311.2136 2031.7316 1001.8908 0.683 -0.632 0.366 51 48 41
-3550.5034 2414.1208 969.2516 -0.345 -0.837 0.424 25 15 5
-3920.3376 2743.5635 1040.3254 -0.361 -0.919 -0.156 63 37 21
-3829.6873 2699.3828 1005.9145 -0.363 -0.932 -0.017 61 35 18
-3819.8032 2748.6675 977.0271 0.443 -0.814 -0.376 49 26 10
-3803.4055 2744.1577 969.1848 0.297 -0.933 -0.204 47 24 8
-3795.3755 2746.1125 963.4100 0.297 -0.930 -0.218 52 29 14
-3783.1833 2744.8108 956.6260 0.295 -0.955 0.018 58 35 22
-3778.0947 2749.0391 951.5778 0.108 -0.984 0.145 61 41 27
-3767.8599 2749.2329 945.2850 0.108 -0.984 0.145 61 41 30
-3719.2405 2835.6162 875.6868 -0.059 -0.590 0.805 49 27 14
-3669.3718 2828.5706 848.7382 0.553 -0.679 0.484 52 29 15
-3669.8779 2837.4985 844.8970 0.702 -0.635 0.323 57 33 21
-3664.3250 2841.4141 839.7126 0.668 -0.700 0.252 57 33 21
-3502.9575 2798.4941 761.8592 0.796 -0.429 0.427 85 37 21
-3534.1240 2992.5801 690.5755 -0.486 -0.854 0.188 67 26 4
-3526.6331 2994.8789 684.9678 -0.404 -0.880 0.250 67 25 4
-3458.0552 2950.4697 664.0397 -0.495 -0.855 -0.158 65 26 9
-3474.1509 2974.2222 662.7590 0.212 -0.311 -0.926 54 20 5
-3472.7153 2981.9756 658.2867 0.224 -0.295 -0.929 50 20 8
-3481.6675 2999.3281 655.6500 0.191 -0.297 -0.935 48 20 9
-3348.8584 2957.2388 594.7181 0.817 -0.574 -0.053 32 15 0
-3344.1638 2961.8667 589.7229 0.292 -0.854 0.431 36 20 2
-3375.5698 3010.0667 586.3624 0.311 -0.454 -0.835 50 30 10
-3371.0728 3015.0142 581.3386 0.440 -0.397 -0.805 56 35 14
-3241.2610 2990.5679 514.0261 0.128 -0.948 -0.291 64 32 19
-3262.9729 3040.1018 504.1709 0.676 -0.486 0.554 67 35 22
-3252.8364 3039.3989 498.3545 0.689 -0.482 0.542 65 36 20
-3217.7747 3032.4465 480.3359 -0.194 -0.972 0.130 64 40 31
-3205.1543 3029.1162 474.2349 -0.194 -0.972 0.130 59 35 28
-3166.7634 3008.9568 460.3347 -0.387 -0.726 -0.569 59 35 25
-3139.7832 2990.8149 452.4125 -0.312 -0.713 -0.628 63 39 29
-3202.4592 3112.4287 433.8949 -0.090 -0.580 0.810 15 30 33
-2901.2542 3327.1987 151.5737 -0.294 -0.903 0.312 126 85 90
-2887.0388 3320.6494 146.0017 -0.294 -0.903 0.312 127 86 91
-2840.9377 3296.3464 129.3539 0.171 -0.628 0.759 118 76 81
-2728.2681 3252.0383 81.6579 -0.659 -0.716 -0.230 116 67 74
-2658.0818 3313.9419 10.3625 0.261 -0.898 -0.356 24 8 1
-2626.7732 3806.9363 -237.6545 0.994 -0.004 -0.109 216 170 167
-1814.3231 3973.4888 -807.4047 0.412 -0.353 0.840 71 31 30
-1617.9054 3845.4785 -866.9671 -0.760 -0.495 -0.420 31 15 10
-3313.0022 2016.9774 1001.4260 0.763 -0.610 0.215 58 55 48
-3313.0198 2023.0881 998.5854 0.752 -0.623 0.214 58 55 48
-3307.4246 2025.4325 994.1076 0.769 -0.604 0.212 58 55 48
-3336.5752 2107.6777 973.3647 -0.134 -0.127 -0.983 36 35 30
-3951.3550 2753.5439 1043.8420 0.007 -0.986 -0.168 74 54 39
-3939.7683 2753.0364 1037.0712 -0.332 -0.917 -0.222 73 48 31
-3814.7761 2747.7856 963.9254 0.136 -0.727 -0.673 47 24 10
-3810.8552 2752.9478 959.1455 0.136 -0.727 -0.673 52 29 15
-3797.3962 2750.6899 952.0589 0.071 -0.941 -0.332 58 36 22
-3790.5967 2753.6003 946.5887 0.078 -0.944 -0.321 62 40 26
-3778.5242 2752.3765 939.8582 0.097 -0.939 -0.329 62 42 28
-3666.9026 2821.0737 840.2968 0.686 -0.711 0.158 50 27 13
-3663.5127 2826.7468 835.5997 0.635 -0.765 -0.111 50 27 13
-3658.8279 2831.3555 830.6161 0.635 -0.765 -0.111 50 26 14
-3534.6099 2996.1343 678.6072 0.102 -0.745 0.659 67 25 3
-3507.9165 2980.9678 669.5393 -0.472 -0.879 0.066 68 24 3
-3491.7146 3002.5479 649.6717 0.229 -0.291 -0.929 40 14 4
-3340.9055 2934.7146 590.1111 -0.023 -0.892 0.452 37 12 0
-3321.6128 2943.4993 574.3441 0.375 -0.868 0.326 51 30 11
-3375.7551 3013.3330 574.5070 0.444 -0.391 -0.806 66 40 21
-3294.2317 2953.5671 553.0864 0.592 -0.572 0.567 67 36 16
-3189.3599 2960.5659 486.3943 0.283 -0.923 0.260 58 28 12
-3188.2615 2968.6582 481.9543 0.353 -0.935 -0.031 56 28 12
-3201.5703 2991.1914 479.4901 0.009 -0.355 -0.935 57 28 15
-3220.5598 3038.3281 468.9823 -0.372 -0.865 0.337 58 33 26
-3202.5195 3105.9102 426.5396 -0.053 -0.582 0.812 22 37 41
-2506.3833 2693.7246 197.8287 -0.262 -0.843 -0.469 93 48 27
-2859.5042 3154.0737 196.6110 -0.197 -0.980 -0.015 157 113 95
-3004.5186 3390.0400 174.2208 -0.069 -0.819 -0.570 141 94 104
-2936.4580 3362.5083 145.9032 -0.221 -0.975 -0.026 132 92 97
-2896.8921 3325.0959 139.4292 -0.295 -0.901 0.319 132 92 98
-2818.4421 3336.8093 86.5172 -0.695 -0.699 -0.166 128 80 88
-2758.9866 3283.4211 75.4678 -0.667 -0.716 -0.205 127 81 88
-2667.6626 3318.7195 3.7655 0.345 -0.869 -0.355 26 7 1
-2532.1521 3601.1814 -209.9806 0.383 -0.888 -0.252 183 141 145
-2518.1877 3592.6948 -214.4667 -0.010 -0.915 0.403 199 154 159
-2232.8486 3547.7617 -366.0762 -0.531 -0.460 -0.712 215 170 165
-1638.1810 3317.0112 -618.0711 0.848 -0.481 0.223 177 120 113
-1686.9777 3525.8525 -685.9985 0.979 -0.175 0.109 152 127 117
-1847.3936 4125.3608 -868.6926 0.533 -0.144 -0.834 68 30 26
-3302.2170 2024.2981 983.0902 0.432 -0.696 0.573 59 56 49
-3272.6648 2016.4963 968.9087 0.090 -0.754 0.651 55 52 45
-3326.6064 2090.5703 966.7592 -0.060 -0.093 -0.994 47 46 41
-3379.1965 2133.2659 978.4965 -0.120 -0.121 -0.985 40 39 34
-3394.4600 2150.2830 979.7358 0.006 -0.065 -0.998 34 33 28
-3420.7854 2201.3687 971.6891 0.187 -0.079 -0.979 30 29 24
-3630.8154 2456.8083 978.7725 -0.133 -0.683 0.718 25 12 4
-3510.2036 2396.9136 934.0376 -0.352 -0.896 0.270 55 40 33
-3965.9531 2767.5371 1035.4620 -0.315 -0.923 -0.220 84 61 45
-3950.7693 2764.3521 1027.7898 -0.419 -0.906 -0.060 76 50 33
-3918.0776 2764.3159 1008.0749 0.293 -0.941 0.169 62 37 17
-3818.3259 2696.7056 979.5459 -0.422 -0.838 -0.345 60 34 17
-3904.3215 2811.8359 977.5067 -0.427 -0.901 -0.073 47 23 11
-3860.0396 2785.8857 962.9379 -0.454 -0.888 -0.080 51 27 15
-3828.4851 2769.6650 951.4927 -0.442 -0.891 -0.098 58 35 21
-3800.9778 2756.4880 941.0640 -0.435 -0.895 0.095 63 40 26
-3627.7830 2842.5327 796.2119 0.235 -0.634 0.737 57 26 8
-3479.3386 2817.9800 718.1187 0.799 -0.454 0.395 77 41 21
-3472.4114 2960.7275 647.0535 0.595 -0.733 0.330 47 13 0
-3367.0940 2935.3628 595.3712 -0.628 -0.755 -0.191 38 10 2
-3312.2156 2892.9316 582.1288 -0.632 -0.749 -0.199 40 10 0
-3376.1782 3007.5942 567.0103 -0.005 -0.693 -0.721 74 43 24
-3299.8867 2943.8911 550.8106 0.632 -0.764 -0.131 74 40 21
-3213.4797 2878.9473 529.0867 0.795 -0.525 -0.303 77 38 20
-3206.3418 2880.9424 523.8436 0.802 -0.592 0.075 76 39 20
-3275.7327 2975.2065 521.5590 0.735 -0.565 -0.375 56 19 2
-3258.3455 2976.5879 510.4173 0.760 -0.602 0.246 55 22 5
-3254.6025 2982.1113 505.5702 0.757 -0.601 0.255 59 29 13
-3254.0144 2990.7505 501.1672 0.661 -0.748 0.060 65 36 20
-3222.6753 2978.2617 488.1033 0.430 -0.421 0.799 69 37 22
-3211.2781 2976.1726 482.2030 0.429 -0.422 0.799 68 36 21
-3197.7354 2971.9148 476.0241 0.360 -0.484 0.797 68 37 21
-3186.9790 2970.3936 470.2446 0.360 -0.484 0.797 61 33 19
-3173.7068 2966.3230 464.1409 0.329 -0.507 0.797 44 18 7
-3161.7754 2963.5552 458.2364 0.330 -0.509 0.795 48 26 15
-3046.9055 2874.9102 430.4382 0.018 -0.991 0.132 84 60 48
-2929.8306 3357.6848 133.5717 -0.091 -0.987 0.132 139 96 103
-2810.8752 3330.4792 74.5202 -0.668 -0.743 -0.033 135 94 100
-2738.1755 3270.9495 58.5331 -0.639 -0.718 -0.276 123 90 85
-2720.8679 3314.2026 27.8205 -0.214 -0.385 -0.898 41 11 5
-2724.9702 3330.5933 22.6168 -0.350 -0.462 -0.815 48 27 20
-2672.2476 3316.8596 -2.7705 0.358 -0.871 -0.336 26 7 1
-2647.0679 3305.6367 -12.7099 0.841 -0.506 -0.192 23 9 2
-2639.6179 3306.8044 -17.7537 0.799 -0.570 -0.192 15 6 4
-2643.8452 3357.3665 -38.8928 0.704 -0.681 0.202 11 6 3
-2549.6221 3618.2734 -218.0109 0.453 -0.821 -0.347 186 141 146
-2376.9045 3753.3042 -385.5274 -0.565 -0.483 -0.668 226 181 176
-1768.3091 3484.9592 -627.1282 -0.663 -0.663 0.349 230 171 165
-1643.1821 3345.0710 -637.1074 -0.158 -0.947 0.278 187 139 127
-3379.1216 2122.8784 974.6395 0.022 -0.057 -0.998 52 51 46
-3415.6487 2160.9854 978.7114 0.004 -0.067 -0.998 39 38 33
-3428.0769 2182.6631 975.9978 0.052 -0.045 -0.998 40 39 34
-3450.2612 2224.6548 969.6025 0.283 -0.058 -0.957 32 31 26
-3460.9309 2238.8735 969.3391 0.431 -0.327 -0.841 33 32 27
-3126.6155 2058.0762 853.0336 -0.327 -0.190 -0.926 23 22 17
-3676.4663 2478.2456 986.5370 -0.179 -0.695 0.696 16 7 1
-3629.7058 2451.4194 970.9930 -0.160 -0.692 0.704 26 14 5
-3961.5591 2759.0955 1026.1165 -0.229 -0.959 0.170 100 77 61
-3969.4309 2773.2070 1024.2184 -0.419 -0.906 -0.060 89 63 46
-3962.4072 2792.7004 1010.8156 0.678 -0.546 0.492 66 41 21
-3901.7976 2755.0046 992.0441 0.077 -0.985 0.154 60 34 17
-3900.5332 2811.9783 964.4752 -0.438 -0.884 -0.164 51 27 15
-3854.6226 2784.7271 949.6433 -0.453 -0.886 -0.103 58 35 21
-3661.7727 2865.5525 795.4503 0.573 -0.582 0.577 49 26 5
-3642.8352 2858.2300 787.4888 0.593 -0.587 0.552 49 26 5
-3591.5408 2823.5308 772.9183 0.758 -0.486 0.434 52 26 7
-3602.9380 2876.1050 755.0461 0.801 -0.551 0.233 67 34 13
-3599.1045 2881.4888 750.2039 0.139 -0.862 0.487 65 34 13
-3582.9626 2876.2847 742.9296 0.148 -0.865 0.480 66 37 16
-3567.4551 2871.5781 735.8031 0.151 -0.861 0.487 69 39 17
-3520.6165 2856.8984 714.4969 0.377 -0.566 0.733 74 40 17
-3461.1047 2962.4636 628.9796 0.823 0.148 -0.548 35 4 0
-3306.5652 2944.2546 544.4605 0.641 -0.757 -0.125 89 48 32
-3202.1033 2933.5859 486.5580 0.929 -0.341 0.142 57 25 10
-3153.3145 2912.5688 467.0590 0.904 -0.361 0.227 62 27 13
-3116.2148 2884.7361 457.8081 0.860 -0.434 0.268 62 27 13
-3077.3538 2881.6895 435.8336 0.139 -0.974 0.182 64 40 33
-3075.8071 2889.1025 431.4140 -0.028 -0.994 0.108 67 43 33
-3066.0459 2888.2322 425.9438 -0.028 -0.994 0.108 78 53 44
-3254.6357 3117.3926 431.7159 0.393 -0.896 -0.206 44 31 25
-3248.8372 3121.1448 426.4576 0.393 -0.896 -0.206 38 34 31
-2853.3865 3142.8625 178.0399 0.105 -0.567 0.817 147 109 106
-2878.7207 3287.8035 125.1021 -0.238 -0.970 0.040 149 108 112
-2848.7109 3261.8772 119.2247 0.629 -0.511 0.585 152 110 114
-2905.0610 3341.5574 115.6758 0.530 -0.748 0.400 152 111 115
-2890.5935 3345.5889 105.0644 0.395 -0.754 0.525 152 111 115
-2846.6108 3323.8401 88.8049 -0.100 -0.714 0.693 150 115 119
-2765.9221 3266.1177 67.3616 -0.124 -0.681 0.721 155 121 125
-2740.9409 3245.3291 62.0957 -0.113 -0.686 0.719 161 126 128
-2736.2585 3337.3928 15.9574 -0.262 -0.423 -0.868 45 24 17
-2745.3020 3371.5056 5.3539 -0.015 -0.999 0.047 38 22 15
-2798.8523 3453.0156 -0.7423 -0.331 -0.674 -0.661 36 21 14
-2685.6362 3326.6279 -9.4697 0.296 -0.928 -0.226 34 17 10
-2666.0430 3311.8240 -14.3061 0.634 -0.772 0.031 33 17 10
-2658.2742 3312.6147 -19.3578 0.637 -0.770 0.036 31 17 11
-2646.8684 3308.5403 -24.3110 0.803 -0.594 -0.057 28 19 17
-2624.8010 3449.8389 -104.0871 0.225 -0.849 0.478 7 6 3
-2635.9927 3477.3308 -110.2814 0.206 -0.931 0.301 10 10 9
-2600.9897 3560.2603 -170.3854 -0.697 -0.632 0.339 55 39 44
-2349.1511 3751.4268 -412.0278 -0.512 -0.459 -0.727 218 175 169
-1868.2795 4182.6011 -904.5567 -0.698 -0.716 0.004 65 38 34
-1790.9935 4034.7761 -881.5551 -0.616 -0.781 0.101 51 26 21
-1744.2118 3993.0791 -890.1147 0.067 -0.986 -0.153 42 21 15
-3434.8833 2183.3635 970.9094 0.070 -0.039 -0.997 45 44 39
-3449.7554 2240.2444 952.9735 0.117 -0.124 -0.985 35 34 29
-3614.8542 2436.0039 959.7233 -0.139 -0.651 0.746 36 26 17
-3566.7214 2408.0166 944.0134 -0.130 -0.658 0.742 51 38 29
-4004.6101 2777.8818 1032.4797 -0.348 -0.899 0.266 110 90 75
-3971.1938 2761.1619 1020.2925 -0.225 -0.960 0.168 105 82 66
-3964.6965 2764.4976 1014.8108 -0.209 -0.966 0.152 94 68 51
-3861.1018 2727.1187 970.1988 0.420 -0.622 -0.660 55 29 12
-3843.1628 2721.5740 962.0352 0.573 -0.541 -0.616 48 25 9
-3822.0620 2713.5620 953.1365 0.505 -0.630 -0.589 47 24 10
-3899.3132 2814.1055 952.0681 -0.480 -0.877 0.016 58 34 22
-3850.7717 2784.7769 936.7462 -0.451 -0.887 0.100 62 40 27
-3618.9553 2683.7874 845.1127 0.731 -0.322 -0.602 58 38 27
-2984.9180 2183.9038 700.1695 -0.249 -0.598 -0.762 58 38 27
-3758.4355 2871.4087 840.3078 -0.154 -0.876 0.456 56 33 19
-3749.8623 2872.9668 834.4182 -0.204 -0.763 0.613 54 31 17
-3710.7524 2857.9001 818.0271 -0.113 -0.768 -0.631 51 28 14
-3663.9541 2827.7004 804.1648 0.446 -0.893 0.053 52 28 14
-3641.8435 2817.8218 795.5412 0.467 -0.837 -0.286 49 27 10
-3605.8865 2864.3831 751.9268 0.885 -0.408 0.222 57 32 9
-3610.3792 2876.8540 748.7349 0.779 -0.566 0.269 57 31 8
-3606.5981 2882.2847 743.8961 0.582 -0.691 0.429 56 32 8
-3587.0933 2874.2114 735.9857 0.149 -0.866 0.477 57 34 10
-3532.0837 2861.2529 709.0411 0.374 -0.615 0.694 68 35 13
-3532.4746 2870.2444 705.0277 0.785 -0.589 0.191 73 35 13
-3526.7114 2882.5813 695.7341 0.785 -0.585 0.206 76 34 11
-3544.8298 2907.2334 694.9776 0.858 -0.512 -0.028 76 36 12
-3507.8540 2883.4324 683.9963 0.973 -0.104 -0.208 76 36 11
-3507.8105 2892.1287 679.8613 0.973 -0.104 -0.208 77 36 13
-3455.9951 2969.8667 611.9833 0.865 0.118 -0.487 44 15 7
-3499.7383 3019.2822 614.9297 0.797 0.109 -0.594 43 15 6
-3184.4895 2919.2598 472.6864 -0.422 -0.718 -0.553 55 26 12
-3130.7607 2893.1660 452.7179 0.852 -0.477 0.217 61 28 13
-3086.5981 2884.9431 430.0560 0.115 -0.976 0.186 77 50 42
-3127.4285 2935.0034 430.9469 -0.065 -0.795 0.603 77 50 41
-3129.5232 2946.2437 426.8951 0.309 -0.829 0.467 74 46 38
-3321.8281 3169.6255 436.9478 0.250 -0.931 0.267 54 32 26
-2745.4512 3232.8044 60.6228 -0.315 -0.877 0.364 172 142 144
-2727.6873 3221.0681 55.4898 -0.324 -0.869 0.374 177 146 147
-2722.6489 3225.3306 50.4472 0.251 -0.572 0.781 172 142 135
-2691.5774 3196.5708 45.3582 -0.689 -0.723 0.048 149 119 111
-2659.4524 3166.2686 40.3646 -0.658 -0.751 0.060 112 79 70
-2789.5798 3387.4138 14.0978 -0.237 -0.386 -0.892 55 26 18
-2743.5037 3350.0247 4.0666 -0.100 -0.995 -0.019 44 27 19
-2815.1477 3466.1731 -7.7460 -0.325 -0.673 -0.664 42 27 20
-2671.0383 3366.4863 -47.2721 0.838 -0.451 -0.307 19 14 11
-2688.8767 3542.8132 -119.8622 0.221 -0.856 0.467 15 14 15
-2645.9287 3604.0913 -174.6327 -0.108 -0.688 0.717 53 40 47
-2569.6667 3642.5759 -238.6593 0.973 -0.125 -0.193 202 159 166
-2365.1755 3672.9485 -375.9344 -0.483 -0.738 0.472 221 176 171
-2479.6648 3918.3853 -423.0793 -0.527 -0.459 -0.715 212 167 162
-1789.2939 3521.2263 -650.4225 0.395 -0.738 0.547 211 168 155
-1759.5896 3473.1233 -645.5502 -0.312 -0.927 0.210 206 161 148
-1746.7419 3460.3035 -647.2159 -0.297 -0.920 0.255 189 145 132
-3434.5952 2153.1379 976.2266 0.201 -0.016 -0.979 51 51 43
-3427.1616 2154.4915 971.1249 0.175 -0.001 -0.985 51 51 43
-3444.7361 2173.0986 972.8395 0.163 -0.007 -0.987 53 50 43
-3445.6980 2180.2922 970.0034 0.152 -0.018 -0.988 51 50 45
-3410.5066 2255.1772 913.3620 -0.315 -0.178 -0.932 15 12 7
-3489.7246 2361.2966 910.5352 -0.095 -0.653 0.752 88 76 64
-3509.9954 2390.4702 908.8536 -0.379 -0.809 0.450 101 88 78
-4014.5659 2780.1323 1026.6649 -0.347 -0.903 0.253 118 97 82
-3889.1555 2743.2944 968.9096 0.427 -0.891 0.157 55 29 12
-3867.2495 2734.7964 959.8002 0.788 -0.612 -0.067 49 23 8
-3838.3484 2720.8955 949.0578 0.764 -0.612 -0.206 48 25 9
-3838.0591 2728.7791 945.1439 0.825 -0.555 -0.110 47 24 8
-3921.9238 2826.3013 949.1836 -0.483 -0.876 0.016 58 34 20
-3889.3652 2809.4626 937.6411 -0.514 -0.841 -0.167 62 40 26
-3003.3394 2194.4036 697.9377 -0.256 -0.610 -0.750 65 44 33
-3053.0046 2254.5405 699.1992 0.911 -0.283 -0.299 56 35 24
-3724.6543 2855.3110 817.0778 -0.109 -0.798 0.593 51 28 14
-3729.7710 2868.0876 814.0853 -0.132 -0.769 -0.625 51 28 14
-3700.4575 2852.4412 803.9240 -0.112 -0.982 -0.153 52 27 14
-3649.7502 2818.9426 789.3985 -0.011 -0.984 0.177 49 28 11
-3628.6040 2818.2629 777.0353 0.819 -0.519 0.244 43 28 5
-3574.0288 2866.0085 721.6423 0.148 -0.865 0.480 51 31 8
-3545.8386 2858.9387 708.0853 0.555 -0.719 0.418 54 27 5
-3543.7087 2865.7246 703.5881 0.787 -0.577 0.219 62 28 8
-3538.9844 2870.2708 698.5969 0.787 -0.577 0.219 67 28 9
-3536.0454 2876.3801 693.9351 0.787 -0.571 0.231 69 27 9
-3554.6770 2910.1489 689.0903 0.930 -0.361 -0.067 74 33 13
-3543.2351 2935.3687 670.2606 0.742 -0.486 0.463 76 38 17
-3443.7976 2943.7466 606.6330 0.838 0.104 -0.535 51 24 13
-3293.7578 2947.0813 515.0422 0.707 -0.540 0.457 100 43 32
-3212.4937 2940.7070 469.3163 -0.453 -0.810 -0.372 56 28 11
-3132.2847 2888.6702 445.8885 0.849 -0.477 0.227 59 29 13
-3093.4353 2885.7695 423.9591 0.118 -0.978 0.171 87 64 53
-3138.9763 2949.6086 420.9898 0.754 -0.618 0.222 65 41 29
-3062.1792 2881.1970 407.3781 0.822 -0.520 0.233 60 35 24
-3315.2605 3146.5745 433.2897 0.007 -0.996 0.090 53 29 19
-2924.2188 3191.2180 177.5225 -0.510 -0.689 0.515 127 82 60
-2858.9070 3270.0217 100.9527 0.641 -0.753 0.149 166 124 130
-2771.3572 3247.1140 59.3006 -0.121 -0.656 0.745 158 136 135
-2753.2622 3235.1016 54.1449 -0.097 -0.651 0.753 158 134 134
-2731.9995 3219.0076 49.0255 0.281 -0.550 0.786 156 132 131
-2710.2041 3212.6926 38.9466 0.174 -0.681 0.712 119 89 81
-2678.6895 3183.2932 33.9899 -0.662 -0.748 0.041 87 54 47
-2845.2561 3417.2451 22.9117 -0.476 -0.534 -0.699 61 28 20
-2757.9141 3360.8259 -2.7160 -0.125 -0.992 -0.026 52 33 26
-2835.2219 3495.7952 -20.3768 -0.579 -0.713 -0.396 49 31 24
-2666.5798 3296.7656 -27.1131 0.131 -0.304 -0.944 47 30 23
-2673.9065 3317.4946 -32.5530 0.188 -0.513 -0.838 46 31 25
-2712.6521 3437.1541 -66.0833 0.373 -0.505 -0.778 11 6 3
-2640.7405 3385.5693 -84.7480 0.437 -0.517 -0.736 8 7 3
-2706.4172 3510.6665 -104.7025 0.882 -0.071 0.465 16 14 10
-2693.1274 3504.1953 -109.6047 0.887 -0.090 0.454 16 15 11
-2839.5940 3744.6160 -135.8102 0.368 -0.496 0.787 20 21 20
-2665.3850 3610.7332 -176.7955 -0.148 -0.688 0.711 68 53 57
-2342.0674 3638.2505 -383.8092 -0.391 -0.760 0.519 221 176 171
-2355.5740 3714.3865 -411.8303 -0.529 -0.569 -0.630 211 166 161
-2348.9187 3716.8438 -416.9886 -0.522 -0.572 -0.633 214 169 164
-1961.5701 3489.2078 -541.3538 -0.332 -0.765 0.553 228 186 184
-1860.0758 3429.3555 -573.8425 0.843 -0.489 0.225 229 185 184
-1854.0734 3543.2485 -631.4813 -0.183 -0.888 0.422 226 176 175
-1855.1838 3559.9011 -638.7162 -0.154 -0.758 0.634 226 177 173
-1834.3013 3545.8779 -644.5901 -0.154 -0.768 0.621 227 184 178
-1818.6477 3527.9565 -645.4776 -0.038 -0.943 0.331 228 185 174
-1752.5178 3447.2119 -646.8386 0.044 -0.907 0.419 190 147 136
-3434.6133 2175.1289 956.9770 0.305 -0.033 -0.952 57 54 47
-3452.3044 2193.9536 958.5996 0.347 -0.002 -0.938 55 52 45
-3487.9688 2232.0613 961.7952 0.469 0.054 -0.882 54 51 44
-3423.1819 2226.4890 925.6638 -0.221 -0.129 -0.967 38 35 28
-3551.2454 2352.3464 942.3699 -0.315 -0.178 -0.932 21 18 11
-3371.6880 2277.0286 870.7571 -0.165 -0.633 0.756 109 94 81
-3524.3662 2396.6135 905.1878 -0.397 -0.837 0.377 112 97 86
-4020.0491 2779.0503 1019.7363 -0.351 -0.903 0.248 122 99 83
-3986.3384 2762.1909 1007.5868 -0.236 -0.957 0.169 118 92 75
-3959.2378 2782.9644 981.4653 0.039 -0.967 0.252 69 42 25
-3903.4424 2748.9868 964.2499 0.178 -0.867 0.465 63 37 20
-3873.5234 2734.4453 953.2662 0.682 -0.711 0.172 52 26 9
-3856.1216 2729.3320 945.2844 0.746 -0.593 -0.304 52 26 9
-3960.8767 2825.7998 962.0383 0.795 -0.587 0.152 51 25 8
-3748.5549 2878.0420 810.0369 0.097 -0.947 -0.307 57 34 20
-3713.2815 2857.5408 798.6869 0.040 -0.997 -0.059 58 33 21
-3661.4773 2823.2185 784.0252 0.008 -0.972 0.235 53 32 16
-3629.3857 2813.4709 769.4569 0.819 -0.519 0.244 45 30 9
-3614.5334 2809.5217 762.4468 0.636 -0.717 0.285 47 29 9
-3546.0374 2853.5134 700.4808 0.145 -0.733 0.664 49 25 7
-3526.9404 2845.5867 692.8244 0.160 -0.753 0.638 53 25 8
-3572.8704 2902.8037 693.0616 0.848 -0.451 -0.279 58 24 7
-3542.5530 2928.9666 662.4465 0.742 -0.486 0.463 73 36 18
-3540.2771 2944.6960 653.5900 0.538 -0.664 0.519 78 35 19
-3518.7422 2934.3730 645.6158 0.340 -0.765 0.547 78 35 19
-3473.7908 2902.9893 633.6567 0.870 -0.464 0.167 81 39 23
-3393.4058 2900.6050 586.6682 0.730 -0.003 -0.684 68 32 19
-3401.7134 2917.0806 583.7923 0.738 -0.008 -0.675 71 34 22
-3207.1465 2938.4507 457.1286 -0.541 -0.700 -0.466 65 28 10
-3042.1465 2846.1147 402.3389 0.551 -0.594 0.586 63 35 21
-2841.6919 2887.9741 262.3885 0.680 -0.733 0.028 18 50 61
-2837.0681 2892.0823 257.6632 0.680 -0.733 0.028 26 48 56
-2802.2122 3121.8201 127.3416 0.808 -0.414 0.420 155 134 141
-2721.2898 3198.0950 42.5558 0.232 -0.584 0.778 106 87 85
-2875.8999 3459.7202 10.4708 -0.465 -0.547 -0.696 69 36 31
-2859.1218 3449.6199 5.2383 -0.465 -0.553 -0.691 69 36 32
-2786.3726 3389.7681 -9.7996 -0.090 -0.996 0.011 60 37 31
-2838.0786 3491.2727 -27.2045 -0.244 -0.970 -0.013 56 34 29
-2718.7373 3437.0840 -72.8339 0.334 -0.532 -0.778 11 6 3
-2715.3037 3444.0117 -78.1901 0.208 -0.741 -0.639 13 5 3
-2649.1116 3400.2380 -96.9627 0.566 -0.130 -0.814 11 6 3
-2703.4329 3486.2300 -105.4110 0.880 -0.092 0.465 10 6 3
-2705.1001 3500.3250 -111.1281 0.882 -0.084 0.464 23 18 15
-2754.1909 3628.7817 -142.9394 0.749 -0.246 0.615 29 27 25
-2587.0339 3513.4543 -188.0666 -0.695 -0.627 0.352 137 101 109
-2504.9937 3430.3813 -197.6036 -0.271 -0.888 0.371 103 54 66
-2316.9849 3613.3748 -397.3433 0.075 -0.745 0.663 202 157 152
-2431.9524 3831.7622 -432.5616 -0.251 -0.605 -0.756 216 171 166
-1930.6776 3515.6331 -582.0488 -0.405 -0.834 0.374 230 187 188
-1825.8790 3503.2207 -638.8754 -0.297 -0.767 0.569 222 180 177
-1665.0271 3334.8694 -654.9658 0.433 -0.671 0.602 44 18 6
-2038.3066 4558.4878 -1014.4618 0.207 -0.922 0.327 28 22 13
-3483.9023 2205.2180 963.2117 0.150 -0.083 -0.985 58 55 48
-3488.3765 2221.5723 958.0608 0.914 0.013 -0.406 58 55 48
-3489.1694 2228.7842 955.0845 0.912 0.005 -0.411 57 54 47
-3505.5972 2246.9541 956.2068 0.826 -0.206 0.524 57 54 47
-3489.2170 2242.1968 948.6965 0.773 -0.272 0.574 54 51 44
-3478.4656 2241.3542 942.6760 0.808 -0.233 0.541 51 48 41
-3438.0210 2246.3010 916.1456 -0.302 -0.187 -0.935 33 30 23
-3082.9470 2048.0869 798.8309 0.168 -0.964 0.205 111 93 79
-3065.6069 2041.5759 791.5858 0.302 -0.952 0.050 119 101 89
-3068.4663 2049.8621 789.3300 0.403 -0.815 0.415 119 101 89
-3059.3518 2049.3521 784.1286 0.363 -0.842 0.398 118 102 89
-3981.7356 2786.4697 982.5745 0.498 -0.697 0.517 89 63 46
-3959.9021 2778.2820 973.4470 -0.003 -0.973 0.232 83 56 39
-3887.1814 2739.6882 948.4630 0.615 -0.684 0.393 60 34 17
-3875.2114 2738.7358 941.7672 0.775 -0.606 -0.182 59 33 16
-3870.3230 2743.1543 936.7326 0.848 -0.436 -0.302 59 33 16
-3943.2002 2840.5171 933.6952 -0.524 -0.843 -0.117 71 44 25
-3123.8884 2254.5569 724.5168 -0.355 -0.818 0.452 77 52 35
-3721.2046 2749.7280 844.4967 -0.367 -0.911 -0.187 79 52 36
-3680.2917 2733.4929 827.8199 0.591 -0.452 -0.668 78 51 34
-3767.7883 2888.3259 806.0234 0.304 -0.769 0.562 67 44 30
-3733.4509 2877.2607 790.8020 0.094 -0.711 0.697 62 41 25
-3720.2371 2874.9275 784.0236 0.069 -0.726 0.684 53 35 16
-3700.4963 2867.1365 775.9566 0.218 -0.711 0.669 53 36 16
-3689.7839 2866.8047 769.7152 0.364 -0.903 0.230 55 35 18
-3708.3420 2890.9114 769.2701 0.363 -0.736 0.572 52 31 14
-3579.9268 2800.3569 735.8690 0.920 -0.101 0.379 45 29 9
-3570.7979 2904.0474 680.8098 0.895 -0.389 -0.217 47 24 6
-3568.8359 2911.0969 676.2652 0.895 -0.389 -0.217 49 26 8
-3566.8699 2918.1621 671.7106 0.895 -0.389 -0.217 49 26 9
-3524.1584 2933.3940 638.9056 0.399 -0.770 0.498 73 31 19
-3488.5715 2919.2727 624.3998 0.347 -0.680 0.646 78 37 24
-3104.9812 2948.6145 381.1857 -0.354 -0.628 0.693 55 33 23
-2802.1206 3114.6650 120.8028 0.882 -0.092 -0.463 156 134 150
-2798.2390 3120.1292 115.8697 0.708 -0.064 -0.703 162 140 153
-2801.6741 3134.3562 111.1158 0.708 -0.064 -0.703 156 137 141
-2809.5205 3153.9414 106.4342 0.699 -0.064 -0.712 154 135 137
-2785.2769 3238.8394 51.3347 -0.208 -0.686 0.698 79 68 66
-2744.4006 3219.6301 36.1028 -0.331 -0.896 -0.296 72 56 55
-2740.0991 3224.8181 31.0510 -0.392 -0.909 -0.142 77 50 48
-2725.2168 3216.6812 26.0521 -0.393 -0.915 -0.093 79 49 47
-2739.5269 3245.3777 20.8734 -0.563 -0.689 -0.457 81 50 47
-2950.1489 3534.7712 8.2651 -0.483 -0.528 -0.699 82 46 45
-2900.5366 3494.5784 -2.1477 -0.472 -0.589 -0.656 79 45 44
-2904.5203 3522.8235 -13.2799 -0.366 -0.929 -0.045 78 48 45
-2892.1550 3518.4917 -18.5953 -0.422 -0.907 0.007 77 50 45
-2887.7466 3524.4229 -24.0666 -0.398 -0.912 0.099 76 50 47
-2853.6562 3491.7720 -28.8140 0.013 -0.998 0.054 76 49 46
-2662.3540 3308.5447 -55.4527 0.163 -0.555 -0.816 47 39 33
-2661.4146 3318.3813 -60.7197 0.105 -0.515 -0.851 45 37 33
-2665.0093 3334.3042 -66.1896 0.143 -0.521 -0.842 44 35 33
-2714.9739 3412.3384 -73.6693 0.171 -0.825 -0.538 21 13 10
-2717.8645 3427.6716 -79.2777 0.446 -0.694 -0.566 11 2 1
-2719.9482 3441.9932 -84.8841 0.592 -0.761 0.266 11 3 1
-2691.5083 3461.4746 -111.1954 0.695 -0.108 -0.711 23 14 11
-2690.6174 3471.9587 -116.7433 0.550 -0.129 -0.825 49 40 37
-2709.1824 3509.2729 -123.5025 0.819 -0.146 0.554 48 39 36
-2704.5549 3514.7705 -128.8973 0.819 -0.146 0.554 51 42 39
-2750.4656 3602.4854 -143.4304 0.492 -0.612 0.619 73 57 56
-2731.1775 3587.8201 -147.9384 0.555 -0.533 0.639 74 57 57
-2723.3352 3589.0496 -153.2119 0.556 -0.534 0.637 74 57 57
-2645.1755 3563.8972 -187.8757 -0.539 -0.670 0.510 159 121 127
-2583.4099 3487.4578 -188.2094 -0.564 -0.660 0.497 160 118 126
-2326.1355 3592.4937 -392.1676 -0.235 -0.714 0.659 207 162 156
-2319.4304 3607.6372 -403.4182 0.091 -0.850 0.519 207 162 156
-1896.3494 3535.4106 -621.6360 0.467 -0.597 0.652 223 181 181
-1834.3091 3495.3616 -639.5429 -0.272 -0.786 0.555 192 149 150
-1667.3458 3329.0835 -659.7487 0.433 -0.671 0.602 24 17 2
-3503.9360 2241.6548 948.7233 0.828 -0.203 0.523 58 55 48
-3488.1643 2244.0264 938.1804 0.840 -0.207 0.501 51 48 41
-3546.0088 2298.3271 946.5850 -0.180 -0.163 -0.970 51 48 41
-3541.4233 2301.9548 942.1085 -0.272 -0.154 -0.950 51 47 38
-3534.5586 2303.9668 937.0491 -0.287 -0.173 -0.942 46 42 33
-3120.0056 2065.0325 804.6545 0.261 -0.928 0.265 111 93 78
-3082.1636 2049.8433 789.3882 0.330 -0.886 0.327 120 102 88
-3068.7402 2046.1962 783.1367 0.383 -0.868 0.316 119 101 87
-3039.2083 2036.8121 770.0364 0.347 -0.794 0.499 122 102 88
-3921.9292 2736.4189 960.2782 0.243 -0.790 0.563 94 68 51
-3936.4810 2755.4915 959.7928 -0.058 -0.903 0.427 89 62 45
-3884.0090 2732.1763 939.7072 0.086 -0.912 0.400 74 45 27
-3895.9045 2749.3196 938.5646 0.534 -0.740 -0.409 73 44 26
-3878.3599 2744.1406 930.5917 0.814 -0.505 -0.287 73 44 26
-3958.0173 2813.0667 944.9766 0.986 -0.165 0.007 72 45 26
-3959.0708 2847.4355 929.0952 -0.533 -0.844 -0.051 76 49 30
-3642.7622 2626.8323 846.4714 -0.461 -0.874 -0.155 79 52 35
-3980.6284 2994.4146 871.3455 0.261 -0.642 0.721 76 49 32
-3702.0364 2871.4727 764.2968 0.650 -0.435 0.623 59 40 23
-3694.9502 2874.1663 758.7777 0.650 -0.435 0.623 56 37 20
-3595.4290 2833.3323 719.0552 0.923 -0.076 0.378 49 30 15
-3563.8542 2945.0981 646.5414 0.866 -0.500 0.005 64 28 18
-3372.6345 2852.6516 576.9379 0.847 -0.060 -0.528 83 36 23
-3091.8499 2910.9656 381.5134 -0.206 -0.719 0.664 73 30 17
-2782.4712 3034.9863 137.4773 0.828 -0.061 -0.557 41 51 55
-2920.6482 3535.3191 -20.4778 -0.324 -0.944 -0.063 91 59 57
-2902.0796 3523.0500 -25.6554 -0.422 -0.907 0.007 92 59 57
-2901.8911 3534.4517 -31.2447 -0.414 -0.906 0.093 92 59 57
-2859.6326 3491.3198 -35.7217 0.013 -0.998 0.054 92 59 57
-2870.9133 3517.5730 -41.6067 -0.244 -0.968 -0.053 94 61 59
-2854.6265 3507.9766 -46.7076 -0.334 -0.936 -0.116 90 57 55
-2844.1440 3505.8972 -51.9589 -0.461 -0.885 -0.071 82 50 47
-2672.1309 3415.1267 -110.9158 0.576 -0.114 -0.809 22 12 10
-2745.6904 3611.4778 -161.3767 0.892 -0.137 0.430 116 88 88
-2695.1099 3589.3950 -180.9269 0.946 -0.044 0.320 132 104 104
-2679.8127 3592.2131 -191.4011 -0.069 -0.729 0.681 167 119 124
-2347.8120 3566.3787 -376.9405 0.190 -0.576 0.795 212 165 159
-2341.0554 3633.5515 -413.2362 -0.180 -0.664 0.726 211 164 158
-2058.0879 3556.8032 -545.0834 0.267 -0.545 0.795 221 183 180
-2031.2661 3561.8589 -563.5039 0.352 -0.457 0.817 201 169 166
-2023.3359 3560.7869 -567.7172 0.354 -0.455 0.817 191 169 162
-1938.1146 3508.9370 -593.6222 -0.014 -0.530 0.848 199 171 168
-1929.2020 3505.4946 -597.2825 0.093 -0.538 0.838 198 169 166
-1840.4669 3482.9609 -639.3649 -0.240 -0.938 0.249 131 101 96
-3638.2563 2366.1433 959.5831 -0.273 -0.154 -0.950 55 51 42
-3615.1470 2363.8589 946.9346 -0.246 -0.131 -0.960 46 42 33
-3064.4270 2045.3513 772.8740 0.379 -0.868 0.319 119 101 89
-3060.8303 2048.8921 769.0261 0.442 -0.857 0.263 120 101 87
-3058.3235 2053.2419 765.4366 0.632 -0.620 -0.465 121 99 85
-3877.4519 2787.5142 898.6699 -0.536 -0.837 -0.113 80 53 36
-3717.2991 2679.7522 855.3532 -0.517 -0.848 -0.120 79 52 35
-3726.5398 2751.7197 826.1400 0.284 -0.782 -0.555 79 52 35
-3720.0562 2754.7705 820.8107 0.735 -0.310 -0.603 78 51 34
-3790.5774 2930.7036 777.9147 0.656 -0.752 0.070 67 46 29
-3641.7200 2858.3494 724.2410 0.743 -0.469 0.477 56 34 20
-3567.6821 2855.4114 681.6049 0.213 -0.828 -0.519 46 27 13
-3566.0337 2941.2219 639.2354 0.874 -0.484 0.036 55 22 12
-3355.3149 2839.8740 562.7380 0.963 0.015 -0.270 72 30 16
-3391.4941 2881.4910 564.1922 0.803 0.060 -0.593 70 28 14
-3394.9070 2893.3733 560.4916 0.835 0.040 -0.548 74 32 18
-3200.0166 2886.6138 447.7900 0.943 -0.330 0.040 90 42 22
-3119.7319 2923.9238 382.0242 0.253 -0.740 0.624 81 36 20
-2782.3430 3028.0498 131.0515 0.815 -0.060 -0.577 36 55 51
-2781.8518 3086.6123 102.5131 0.771 -0.188 0.609 143 131 142
-2823.7354 3146.4858 98.5559 0.854 -0.072 -0.516 160 139 143
-2713.7681 3156.2063 28.4356 0.679 -0.395 0.619 79 62 62
-2934.9407 3545.4016 -27.6825 -0.347 -0.936 -0.057 104 70 69
-2910.6672 3525.8640 -32.7021 -0.373 -0.927 -0.041 106 72 70
-2822.4219 3423.6270 -35.8976 0.344 -0.932 0.118 105 71 69
-2821.9419 3434.3379 -41.3493 0.317 -0.912 -0.260 105 71 69
-2893.6533 3538.8389 -49.0835 0.000 -0.984 0.179 107 73 71
-2683.5168 3410.8579 -112.3890 0.499 -0.439 -0.747 16 5 3
-2679.2200 3474.6165 -145.6978 0.778 -0.151 0.610 121 108 105
-2711.3542 3566.9265 -171.1009 0.852 -0.169 0.495 143 114 113
-2476.4192 3457.8770 -258.2927 -0.737 -0.663 -0.128 209 161 159
-2326.2617 3612.5315 -422.2317 0.055 -0.626 0.778 211 164 158
-2314.2122 3605.7456 -426.1283 0.246 -0.638 0.729 211 164 158
-2026.0811 3541.7961 -566.7252 0.483 -0.344 0.805 132 103 99
-2001.4783 3536.7769 -578.9433 -0.031 -0.571 0.820 123 104 98
-1924.9799 3486.8313 -600.3707 0.457 -0.514 0.726 130 114 108
-1898.8744 3504.9558 -624.6456 0.522 -0.507 0.686 120 104 98
-1879.2053 3493.9143 -631.0233 0.514 -0.495 0.700 101 87 80
-1846.3667 3470.1523 -639.1017 0.480 -0.612 0.628 60 46 39
-1833.5093 3458.2102 -640.9920 0.362 -0.665 0.653 52 38 31
-3079.9307 2059.0732 767.3450 0.480 -0.849 -0.221 110 91 77
