ply
format ascii 1.0
element vertex 798
property float x
property float y
property float z
property float nx
property float ny
property float nz
property uchar diffuse_red
property uchar diffuse_green
property uchar diffuse_blue
end_header
-1969.8386 3459.2690 -539.7813 0.502 -0.759 0.415 235 187 177
-1817.5181 3369.8894 -619.5819 0.296 -0.257 0.920 39 13 3
-1735.1375 3350.1416 -679.7991 -0.312 -0.546 -0.778 109 49 43
-1774.7079 3468.1621 -715.6268 -0.240 -0.864 -0.443 112 42 37
-1439.7893 2876.6460 -655.4380 0.502 -0.409 0.762 102 24 5
-1348.4562 2810.7971 -695.9755 0.607 -0.653 -0.453 152 48 4
-1212.7491 2678.9004 -735.8904 -0.486 -0.747 0.454 36 16 11
-1241.7552 2793.5513 -778.9407 0.932 -0.152 0.330 56 30 27
-1168.1038 2650.9119 -758.2115 0.929 -0.310 -0.203 47 14 13
-1119.9209 3014.9500 -1017.5084 -0.321 -0.582 0.747 25 7 0
-1111.6864 3006.1472 -1019.4534 -0.320 -0.584 0.746 25 7 0
-1105.6133 3003.4866 -1023.1738 -0.358 -0.583 0.729 21 6 0
-1036.4354 2889.6287 -1015.7058 -0.028 -0.863 0.504 16 8 0
-1026.1908 2873.8083 -1015.2209 -0.014 -0.838 0.545 17 9 1
-1129.8865 4099.6128 -1655.9119 0.773 -0.527 -0.352 222 38 52
-1133.4475 4139.0688 -1676.3391 0.774 -0.520 -0.361 228 23 42
-3032.3213 2952.6235 680.3468 -0.117 -0.952 -0.283 138 89 82
-3033.1438 2959.8318 676.7433 -0.124 -0.952 -0.281 140 90 83
-3023.9150 2956.7271 670.5440 -0.132 -0.951 -0.278 150 102 94
-2657.9612 3301.5801 144.1445 0.411 -0.646 0.643 96 62 52
-2581.6582 3226.9460 122.2452 -0.415 -0.817 0.401 105 72 63
-2564.2827 3212.4065 115.7859 -0.397 -0.801 0.447 127 94 85
-2549.8645 3201.6877 109.6190 0.059 -0.947 0.316 129 96 87
-2661.1367 3383.0964 98.0445 -0.649 -0.750 0.127 28 12 7
-2462.6790 3360.8843 -61.9800 0.428 -0.888 -0.166 26 28 27
-2508.5906 3473.9854 -89.6891 0.101 -0.871 -0.480 21 22 26
-2502.1963 3483.9663 -101.2584 0.095 -0.889 -0.448 20 21 26
-2510.3704 3678.2905 -210.6270 0.829 -0.553 -0.082 211 167 157
-1976.7208 3448.5479 -538.9974 0.562 -0.780 0.276 240 187 184
-1971.4211 3450.3457 -544.7043 0.562 -0.780 0.276 236 190 183
-1777.6830 3327.1377 -640.0541 0.394 -0.556 0.732 83 23 5
-1809.5070 3413.8896 -664.2701 0.402 -0.838 -0.369 110 45 19
-1806.4856 3420.0750 -670.6176 0.399 -0.849 -0.346 122 54 29
-1766.4763 3352.5349 -665.0696 -0.312 -0.536 -0.784 123 55 31
-1438.6005 2830.9902 -638.7563 0.574 -0.285 0.768 104 27 1
-1436.3555 2836.9353 -644.2816 0.578 -0.285 0.765 104 27 0
-1430.9523 2836.2776 -648.6066 0.578 -0.285 0.765 105 27 0
-1342.4675 2876.5671 -750.0492 0.605 -0.498 -0.621 60 21 11
-1327.4330 2853.8857 -749.5823 -0.371 -0.499 0.783 53 22 14
-1218.8092 2681.9727 -741.3878 -0.487 -0.750 0.447 42 18 6
-1208.4677 2668.7942 -742.5194 -0.495 -0.747 0.443 52 26 15
-1203.8976 2669.1465 -746.7222 -0.502 -0.834 0.230 86 54 45
-1197.4633 2665.0710 -749.8988 -0.511 -0.832 0.217 71 35 28
-1242.4597 2783.4929 -781.5974 0.932 -0.152 0.330 41 2 0
-1239.6879 2788.5928 -787.0760 0.932 -0.152 0.330 45 1 1
-1238.0886 2856.7727 -829.3506 -0.032 -0.394 0.918 137 61 38
-1221.0604 2851.7708 -841.2249 0.711 -0.414 0.568 165 86 63
-1220.9562 2876.4773 -856.1289 0.817 -0.525 0.238 174 88 61
-1208.5179 3057.7898 -975.6999 -0.216 -0.945 0.244 192 99 78
-1036.3835 2749.3623 -941.1306 0.871 -0.344 0.350 30 6 0
-1031.8428 2749.9263 -945.4348 0.800 -0.401 0.446 40 18 6
-1061.8136 2935.3611 -1030.4353 -0.425 -0.592 0.685 8 4 0
-1040.7924 2917.5745 -1038.1322 0.622 -0.727 -0.290 12 7 1
-999.8928 3025.6040 -1138.6255 -0.150 -0.927 0.344 19 11 3
-1082.0612 3822.1814 -1544.4484 0.934 0.019 -0.357 221 81 84
-1140.6772 4115.6377 -1669.1937 0.917 -0.330 -0.226 206 15 31
-1161.0486 4245.5327 -1729.2795 0.996 0.026 -0.080 235 8 38
-3059.9421 2980.3018 677.0494 -0.050 -0.886 -0.461 142 90 84
-3017.1807 2994.3040 631.2861 0.594 -0.694 0.407 146 98 86
-2980.3237 2968.7798 614.4918 0.248 -0.850 0.464 144 100 87
-3799.4905 3902.9207 766.7243 -0.662 -0.744 0.085 103 67 53
-3183.5745 3274.0620 607.9764 0.780 -0.454 0.431 89 53 39
-3183.8215 3281.6111 603.6437 0.781 -0.450 0.432 88 52 38
-2590.4158 3229.6216 116.9760 -0.428 -0.808 0.405 104 71 62
-2575.8091 3218.7651 110.7668 -0.428 -0.808 0.405 127 94 85
-2565.5911 3213.6182 104.9482 -0.434 -0.821 0.371 129 96 87
-2540.2351 3196.7349 92.9872 0.059 -0.947 0.316 55 22 13
-2664.4963 3378.2820 92.0724 -0.641 -0.764 0.070 28 11 7
-2633.1956 3345.3865 84.5694 -0.187 -0.938 -0.291 14 6 3
-2472.1423 3346.4087 -56.6320 0.384 -0.881 -0.278 14 16 15
-2383.2664 3229.1399 -63.5574 0.534 -0.785 -0.315 16 18 17
-2534.1702 3609.9355 -161.2647 0.656 -0.534 -0.533 39 29 28
-2392.9282 3778.6155 -386.1879 -0.381 -0.905 -0.189 224 176 162
-2212.1470 3491.4180 -370.9549 -0.479 -0.808 -0.343 217 169 155
-2187.9385 3494.2341 -393.7838 -0.543 -0.782 -0.306 223 175 161
-2023.3556 3464.1892 -519.3479 0.280 -0.709 0.647 223 174 167
-2012.7330 3456.4629 -523.9653 0.700 -0.714 0.005 224 174 169
-2007.8040 3458.9626 -529.7742 0.696 -0.718 -0.001 246 196 193
-1979.3141 3441.5354 -544.1432 0.625 -0.701 0.343 172 130 125
-1525.9723 2872.7539 -597.1749 0.934 -0.322 0.157 99 22 4
-1348.2629 2788.2046 -701.3580 0.344 -0.756 -0.556 164 61 21
-1341.8794 2807.1399 -718.3391 0.650 -0.569 -0.504 157 63 29
-1198.6654 2634.7068 -739.4598 0.911 -0.294 0.290 62 33 18
-1195.4077 2638.0217 -744.3008 0.912 -0.301 0.277 102 66 53
-1196.9434 2663.8179 -758.5026 0.972 -0.225 0.070 81 35 30
-1193.8068 2667.5588 -763.4947 0.972 -0.229 0.057 85 33 30
-1225.5079 2887.8965 -868.5779 0.916 -0.385 0.110 172 82 55
-1223.7666 2896.2019 -875.1021 0.812 -0.529 0.248 172 83 53
-1220.0150 2899.4971 -880.3623 0.812 -0.529 0.248 173 82 53
-1216.2573 2902.7979 -885.6311 0.812 -0.529 0.248 172 81 52
-1205.4919 2888.2856 -886.2847 0.830 -0.206 0.518 172 81 52
-1194.2926 3076.6897 -1009.5759 -0.179 -0.960 0.216 137 82 54
-1038.1444 2741.1067 -943.6879 0.869 -0.350 0.351 52 22 6
-1051.8424 2920.9465 -1040.0859 0.546 -0.787 -0.286 27 5 0
-1049.0391 3116.1628 -1160.1527 -0.238 -0.968 -0.076 14 7 1
-1021.0317 3060.5913 -1151.1184 -0.323 -0.827 0.460 19 12 4
-1014.5114 3056.3093 -1154.2301 -0.323 -0.827 0.460 20 11 4
-3300.0002 3150.8608 772.3693 0.768 -0.278 0.577 122 70 61
-2330.7729 2189.8137 508.7153 0.687 -0.701 -0.191 127 75 67
-3207.0110 3103.5894 719.8686 0.758 -0.647 0.081 141 89 82
-3203.6289 3120.1201 706.9091 0.786 -0.611 0.097 143 90 84
-3196.1904 3119.2051 700.9741 0.790 -0.576 0.211 153 100 94
-3192.6333 3122.2646 696.0184 0.790 -0.576 0.211 153 101 94
-3172.0464 3128.0100 674.5801 0.652 -0.753 0.094 138 92 79
-3218.9104 3275.0483 626.4366 0.756 -0.472 0.454 90 54 40
-3215.9246 3279.0916 621.3840 0.723 -0.464 0.512 91 55 41
-3209.2886 3279.2417 615.5040 0.305 -0.674 0.673 87 51 39
-3202.3762 3279.0916 609.5645 0.368 -0.624 0.689 82 46 34
-2413.1948 2720.1125 259.5407 0.467 -0.724 -0.507 129 77 55
-2628.0586 3245.0271 129.1656 -0.486 -0.874 -0.019 95 61 51
-2598.2688 3231.0918 111.6149 -0.428 -0.808 0.405 104 71 62
-2573.7139 3215.5071 99.6297 -0.434 -0.821 0.371 129 96 87
-2550.9712 3193.8960 92.8743 -0.493 -0.787 0.371 78 45 36
-2544.4338 3193.5232 87.3970 0.052 -0.944 0.325 55 22 13
-2535.9255 3190.5400 81.7805 0.053 -0.924 0.378 58 30 20
-2684.4502 3395.4524 87.2832 -0.696 -0.718 -0.008 29 11 7
-2487.2876 3358.2649 -62.2020 0.370 -0.897 -0.242 14 16 15
-2471.1323 3344.5012 -67.9620 0.469 -0.839 -0.276 15 17 16
-2064.6179 3480.7522 -505.0929 -0.488 -0.831 0.267 226 181 175
-2041.4185 3484.8650 -527.8217 0.307 -0.526 0.793 227 182 174
-2016.9116 3452.3254 -529.4995 0.700 -0.714 0.005 205 161 155
-2012.0200 3454.8821 -535.3146 0.696 -0.718 -0.001 158 116 112
-1983.4631 3437.3818 -549.6314 0.569 -0.743 0.352 37 11 7
-1857.7986 3330.2661 -594.4039 0.379 -0.843 0.382 45 12 4
-1851.2971 3329.4033 -599.5532 0.365 -0.825 0.432 56 22 10
-1845.2217 3329.3359 -604.8124 0.365 -0.825 0.432 68 28 13
-1849.0541 3348.1047 -612.8331 0.489 -0.432 0.758 130 67 49
-1843.3457 3348.7864 -618.2256 0.342 -0.492 0.801 146 76 53
-1561.2249 2850.0637 -562.3828 0.908 -0.356 0.222 143 69 48
-1490.0957 2811.1958 -600.9013 0.148 -0.338 0.930 93 18 1
-1415.4795 2792.9519 -654.9489 0.434 -0.355 0.828 135 49 13
-1344.7297 2791.2922 -715.6648 0.601 -0.656 -0.457 156 64 29
-1341.7230 2795.6501 -720.9263 0.614 -0.644 -0.457 153 65 35
-1361.3694 2861.6665 -743.7579 0.621 -0.473 -0.625 146 69 48
-1370.5033 2916.6689 -769.0919 0.763 -0.446 0.467 53 22 14
-1227.6190 2680.3037 -750.6301 -0.550 -0.585 0.596 55 24 8
-1200.8771 2639.8638 -749.4742 0.906 -0.297 0.303 123 81 65
-1200.5010 2875.6301 -892.5510 0.690 -0.344 0.636 172 81 52
-1054.8090 2748.0728 -942.4182 0.731 -0.398 0.554 59 19 2
-1032.4490 2878.4192 -1040.8451 0.404 -0.614 -0.679 29 4 0
-1038.2986 2955.7388 -1082.5564 0.697 -0.717 0.003 21 5 1
-1019.3233 3055.4583 -1159.4868 -0.306 -0.834 0.460 20 11 4
-1100.5710 3868.4949 -1580.8739 0.929 0.016 -0.370 219 75 80
-1141.7090 4070.1899 -1667.1056 0.931 0.021 -0.364 201 18 33
-1156.1653 4149.8364 -1702.7174 0.884 -0.280 -0.375 220 15 38
-643.7869 3299.4438 -1634.8228 0.188 -0.647 0.739 154 13 11
-3334.2954 3184.5291 770.3110 0.813 -0.328 0.481 116 66 55
-3305.6418 3162.5254 758.7170 0.634 -0.571 0.522 116 65 57
-3299.6677 3163.2241 753.0833 0.636 -0.569 0.521 122 73 62
-3260.0728 3136.7158 734.6910 0.677 -0.584 0.449 122 73 64
-3254.7427 3138.0051 729.2595 0.658 -0.594 0.462 124 75 65
-3243.9299 3133.7395 722.4277 0.628 -0.623 0.466 133 83 76
-3236.1143 3132.4956 716.3704 0.647 -0.620 0.444 133 84 77
-3230.9976 3133.9890 711.0009 0.647 -0.620 0.444 132 83 76
-3228.7844 3138.4448 706.3604 0.724 -0.540 0.429 133 84 77
-3225.5564 3267.0632 625.2914 0.277 -0.687 0.671 56 20 4
-3223.4702 3272.0391 620.4451 0.260 -0.709 0.655 57 21 6
-3211.5447 3266.5505 613.3871 0.271 -0.694 0.667 73 37 23
-3205.2344 3267.0288 607.5947 0.315 -0.668 0.674 81 45 31
-3187.1555 3269.3635 590.4120 0.782 -0.451 0.429 124 88 74
-3176.6350 3279.8606 574.8533 0.884 -0.468 0.004 106 71 52
-3176.3271 3286.8464 570.3343 0.898 -0.439 0.013 100 63 44
-3112.9526 3232.6030 548.0844 0.797 -0.527 0.294 80 42 23
-2647.1902 3269.2754 119.6979 -0.487 -0.799 0.352 102 68 58
-2614.8784 3235.6699 111.9734 -0.312 -0.852 0.421 105 71 62
-2606.1384 3232.5654 106.2425 -0.428 -0.808 0.405 111 78 69
-2591.4453 3221.6753 100.0580 -0.428 -0.808 0.405 123 90 81
-2560.0945 3197.1443 87.6501 -0.493 -0.787 0.371 73 40 31
-2553.1091 3196.1992 82.1348 0.058 -0.947 0.315 57 24 15
-2541.7703 3189.5103 76.3189 0.049 -0.929 0.366 57 29 19
-2711.5046 3421.8972 82.9115 -0.637 -0.762 0.113 32 14 10
-2492.7058 3356.3220 -67.9501 0.616 -0.774 -0.148 13 15 14
-2546.4419 3479.1982 -95.8614 0.285 -0.854 -0.436 24 24 26
-2536.2495 3474.1375 -101.6683 0.326 -0.828 -0.457 35 36 38
-2538.3711 3486.7380 -107.4853 0.390 -0.866 -0.313 35 36 40
-2529.9141 3484.1592 -113.2894 0.824 -0.566 -0.022 34 35 39
-2531.1299 3614.6575 -191.6278 0.636 -0.587 -0.501 177 139 142
-2520.5469 3629.6128 -209.9537 -0.310 -0.948 0.073 205 158 150
-2507.1304 3619.7246 -215.6347 -0.274 -0.934 0.228 212 168 161
-2497.4744 3615.4636 -221.4608 -0.274 -0.934 0.228 211 169 158
-2515.9954 3932.5295 -398.2239 -0.401 -0.827 0.394 224 178 163
-2486.8711 3908.7114 -409.1243 0.466 -0.883 0.064 221 173 159
-2477.7148 3905.5662 -415.1936 0.471 -0.882 0.019 212 164 150
-2051.2361 3479.3308 -527.6861 0.307 -0.526 0.793 197 161 150
-2032.9283 3469.3743 -537.5900 0.297 -0.531 0.794 86 49 41
-1915.3809 3380.5903 -586.0552 -0.230 -0.911 0.342 57 11 0
-1895.1132 3365.7349 -594.6871 -0.067 -0.978 0.196 70 19 2
-1544.9657 2808.5364 -560.9493 0.773 -0.105 0.625 169 75 51
-1450.6357 2712.3857 -584.6904 0.955 -0.112 0.274 116 40 18
-1481.4301 2783.6021 -601.1722 0.852 -0.044 0.522 113 37 12
-1478.1694 2787.1702 -606.1859 0.852 -0.044 0.522 115 33 6
-1446.5487 2733.8191 -601.2942 0.925 -0.087 0.371 124 41 13
-1362.8844 2787.3362 -706.7979 0.608 -0.668 -0.430 157 57 23
-1361.6917 2795.5974 -712.8642 0.582 -0.677 -0.451 159 62 28
-1358.9832 2800.5972 -718.2676 0.590 -0.664 -0.459 155 63 28
-1348.9727 2789.5886 -720.2972 0.553 -0.673 -0.491 150 64 31
-1346.6959 2795.5430 -725.9049 0.553 -0.673 -0.491 147 63 37
-1337.9766 2820.6169 -748.7625 0.619 -0.471 0.629 67 12 3
-1373.5085 2911.7244 -773.2161 0.756 -0.447 0.477 51 21 15
-1231.0605 2677.2266 -754.7349 -0.599 -0.565 0.567 63 29 10
-1220.7234 2664.2244 -755.8364 -0.552 -0.580 0.599 89 48 28
-1179.8979 2679.4602 -800.6999 0.358 -0.612 0.705 156 73 49
-1163.9817 2782.7378 -877.4131 0.716 -0.152 0.681 169 80 52
-1041.3607 2949.9966 -1086.0842 0.712 -0.702 0.010 27 2 0
-1037.8450 2954.6016 -1091.9512 0.703 -0.711 0.008 24 5 0
-1121.6890 3947.1936 -1622.7692 0.935 0.025 -0.354 196 41 47
-1138.2495 4033.0356 -1660.5592 0.935 0.025 -0.354 194 20 32
-3397.1877 3233.1431 783.7893 0.793 -0.336 0.508 118 68 58
-3315.9412 3165.4880 754.3611 0.454 -0.657 0.602 119 67 61
-3242.3748 3118.2012 719.1721 0.763 -0.539 0.355 121 73 63
-3301.2585 3260.3645 683.5621 0.366 -0.415 0.833 123 77 64
-3236.8003 3263.9751 625.1912 -0.123 -0.992 0.021 71 36 17
-3228.9924 3262.8789 619.0582 -0.123 -0.992 0.021 66 31 12
-3230.2324 3271.3691 614.9479 0.279 -0.680 0.678 66 30 14
-3205.1328 3259.0715 600.5967 -0.063 -0.986 0.151 77 41 25
-3181.4675 3255.3838 582.2314 -0.035 -0.995 0.093 103 67 51
-3175.7097 3285.5337 558.7814 0.893 -0.450 0.020 88 50 31
-2639.1790 3258.3770 107.8976 -0.483 -0.804 0.345 108 74 64
-2620.1145 3241.9448 101.3328 -0.496 -0.793 0.354 114 81 72
-2602.7327 3227.6160 94.9480 -0.421 -0.822 0.384 120 87 78
-2558.1204 3194.0488 76.5991 0.058 -0.947 0.315 59 26 17
-2716.2087 3418.7549 76.9620 -0.643 -0.740 0.199 35 18 14
-2683.9626 3384.9956 69.5056 -0.503 -0.846 -0.178 23 15 13
-2559.5984 3440.8650 -73.0127 -0.106 -0.987 0.119 12 14 13
-2557.7737 3466.4045 -90.2170 0.464 -0.492 -0.736 18 20 19
-2557.4307 3475.3730 -95.9990 0.464 -0.492 -0.736 18 20 19
-2553.8459 3479.7625 -101.8060 0.285 -0.854 -0.436 20 21 24
-2538.6831 3477.1394 -113.4140 0.831 -0.556 0.018 31 32 36
-2542.4734 3492.1472 -119.2870 0.849 -0.526 -0.046 31 32 37
-2539.8169 3497.9421 -125.1446 0.830 -0.557 0.029 31 32 37
-2546.2439 3536.3831 -143.0468 0.304 -0.672 -0.675 32 33 38
-2539.0588 3545.5808 -154.9306 0.828 -0.475 -0.297 24 23 25
-2541.0281 3608.5354 -191.7041 0.379 -0.715 -0.587 157 117 130
-2538.4785 3614.9253 -197.8325 0.379 -0.715 -0.587 179 136 141
-2392.3337 3567.8381 -296.3821 0.781 -0.415 -0.466 221 175 159
-2393.0557 3600.5642 -315.7613 0.810 -0.403 -0.425 222 176 160
-2391.9731 3609.4980 -322.1664 0.810 -0.403 -0.425 224 178 162
-2390.8862 3618.4695 -328.5986 0.810 -0.403 -0.425 224 178 162
-2258.1252 3522.9631 -385.8841 0.792 -0.610 -0.017 213 165 151
-2250.6062 3532.1455 -398.0495 0.909 -0.401 0.112 217 169 155
-1991.2253 3428.1460 -560.4681 0.577 -0.769 0.275 24 17 1
-1575.1931 2731.5469 -497.0733 0.855 -0.446 -0.265 83 28 6
-1570.6874 2732.5042 -501.5845 0.858 -0.436 -0.271 103 39 15
-1574.6354 2749.1221 -508.3046 0.795 -0.492 -0.354 121 53 27
-1453.7732 2708.6765 -588.8858 0.920 -0.079 0.384 89 11 2
-1361.7229 2795.5715 -722.2169 0.718 -0.219 0.661 143 56 26
-1338.7896 2811.1631 -751.7315 0.557 -0.699 -0.449 76 26 18
-1336.2842 2816.7566 -757.3341 0.557 -0.699 -0.449 46 19 13
-1276.1136 2725.5156 -753.9784 -0.314 -0.732 0.605 35 16 10
-1233.9595 2672.9080 -758.5444 -0.579 -0.572 0.581 82 46 23
-1195.2830 2626.6873 -763.9851 0.975 -0.224 0.008 130 64 44
-1174.1377 2654.1689 -799.2112 0.511 -0.423 0.749 144 61 37
-1170.6648 2775.0740 -876.1567 0.707 -0.156 0.690 160 71 41
-1166.1345 2775.9028 -880.6107 0.707 -0.156 0.690 158 72 45
-1140.7706 2760.5488 -893.3235 0.706 -0.156 0.691 91 31 15
-1038.4344 2956.6226 -1102.3669 0.679 -0.383 -0.626 27 10 4
-1160.4805 4141.8071 -1720.6298 0.996 0.032 -0.083 207 5 25
-3316.5671 3158.7676 747.4949 0.454 -0.657 0.602 119 67 61
-3279.5281 3155.0295 717.5383 0.683 -0.507 0.526 121 71 64
-3274.2854 3156.4492 712.1011 0.683 -0.507 0.526 121 71 64
-3295.0137 3190.9758 708.9393 0.790 -0.441 0.426 122 72 65
-3296.3044 3199.1108 705.0659 0.798 -0.441 0.411 126 74 68
-3286.3958 3195.8601 698.4346 0.789 -0.438 0.431 126 74 70
-3273.5884 3245.0994 657.0322 0.408 -0.469 0.783 89 45 32
-3222.5518 3255.4102 606.2560 0.271 -0.694 0.667 89 53 37
-3206.2537 3252.4397 593.8889 0.272 -0.706 0.654 80 44 30
-2606.1550 3256.4849 68.8492 -0.161 -0.976 0.146 56 28 18
-2723.6018 3419.1497 71.1872 -0.643 -0.744 0.181 35 17 13
-2691.7852 3386.0535 63.8144 -0.473 -0.864 -0.174 22 15 11
-2554.6782 3461.5239 -101.9407 0.359 -0.637 -0.682 18 20 19
-2558.9900 3477.0984 -107.7542 0.307 -0.855 -0.418 19 20 23
-2550.7976 3474.9277 -113.5545 0.356 -0.842 -0.405 25 26 30
-2546.8503 3478.8064 -119.3746 0.828 -0.559 0.038 25 26 30
-2546.3235 3487.6003 -125.2360 0.848 -0.528 -0.041 25 26 30
-2528.3933 3471.4351 -130.9179 0.839 -0.544 0.021 26 27 32
-2500.3376 3537.7244 -196.0729 0.015 -0.980 0.198 162 116 129
-2531.9365 3614.9165 -215.9799 -0.317 -0.945 0.086 194 150 140
-2498.4502 3595.4478 -233.1787 0.713 -0.551 -0.432 206 162 154
-2493.9670 3609.2380 -245.5544 0.756 -0.595 -0.273 206 162 154
-2400.5608 3549.0093 -289.8896 0.748 -0.651 -0.129 215 169 154
-2393.4111 3569.0874 -308.4503 0.904 -0.385 -0.185 226 180 164
-2391.6658 3597.9512 -327.7025 0.762 -0.405 -0.506 229 183 167
-2395.7590 3615.0422 -334.6380 0.810 -0.403 -0.425 229 183 167
-2311.2305 3598.3398 -397.9827 0.231 -0.826 -0.514 210 162 148
-2282.9719 3573.9978 -407.6354 0.701 -0.680 0.215 220 172 158
-2071.7261 3469.8481 -527.6003 0.306 -0.516 0.800 120 95 86
-2030.6439 3464.6804 -560.1991 0.293 -0.836 0.465 30 19 5
-2005.0137 3452.7456 -575.1853 0.506 -0.857 -0.099 35 19 4
-1578.3994 2727.9824 -501.4175 0.855 -0.446 -0.265 121 47 19
-1576.5223 2733.7710 -506.6082 0.857 -0.445 -0.259 137 56 23
-1580.2125 2749.8706 -513.2856 0.840 -0.466 -0.277 149 63 28
-1567.0562 2763.0508 -532.8391 0.787 -0.535 0.308 151 62 25
-1503.0208 2708.2463 -554.9310 0.786 -0.255 0.563 175 71 38
-1495.1343 2702.6079 -558.3345 0.765 -0.268 0.586 166 61 30
-1460.2994 2682.7400 -576.4622 0.927 -0.245 0.283 126 50 26
-1456.8560 2685.5740 -581.2018 0.918 -0.265 0.296 115 38 17
-1387.6024 2765.4331 -690.5676 0.654 -0.667 -0.358 179 80 41
-1361.2097 2783.5049 -724.6522 0.722 -0.217 0.656 151 71 45
-1363.7390 2832.9487 -752.8254 0.914 -0.379 -0.147 96 35 27
-1347.3673 2819.0164 -758.5223 0.559 -0.730 -0.392 69 23 18
-1354.2710 2845.6084 -768.8474 0.734 -0.227 0.640 45 19 13
-1250.9930 2657.6047 -743.2806 0.823 -0.410 0.392 34 15 9
-1250.8589 2668.0601 -749.8204 -0.364 -0.730 0.578 37 16 11
-1244.4663 2664.3105 -753.0836 -0.405 -0.735 0.544 44 21 15
-1248.6720 2684.8003 -762.0092 -0.552 -0.576 0.602 50 23 14
-1226.3529 2655.3066 -763.3249 -0.581 -0.579 0.572 125 75 45
-1216.9098 2644.3547 -764.8195 -0.581 -0.579 0.572 139 82 54
-1189.8293 2635.7808 -783.1332 0.401 -0.662 -0.634 151 65 45
-1123.8406 2622.0571 -832.1639 0.792 -0.355 0.497 161 70 41
-1167.4614 2754.8435 -875.7565 0.705 -0.160 0.691 160 70 43
-1163.0916 2755.9988 -880.2715 0.701 -0.161 0.694 155 72 46
-1057.3193 2716.1853 -947.9167 0.773 -0.262 0.578 147 72 49
-1050.6825 2710.8789 -950.4359 0.693 -0.293 0.659 162 86 62
-1005.3257 2784.3118 -1035.0449 0.671 -0.297 0.679 125 56 47
-1028.3190 2866.7800 -1065.6869 0.955 -0.111 0.274 107 49 39
-1025.1029 2871.8408 -1071.5964 0.957 -0.109 0.270 57 13 4
-915.1432 3554.0950 -1586.4874 0.030 -0.995 -0.098 221 11 36
-660.3860 3306.4448 -1656.1823 0.389 -0.581 0.715 148 9 7
-3181.6917 2998.0276 717.8184 0.882 -0.450 0.138 112 70 63
-3313.9736 3148.8594 739.8265 0.459 -0.659 0.596 117 67 62
-3224.8660 3066.5417 713.0964 0.742 -0.561 0.367 119 71 62
-3220.6377 3068.8052 708.0195 0.742 -0.561 0.367 122 70 62
-3291.7290 3146.5813 721.8744 0.678 -0.554 0.483 121 70 61
-3276.5867 3138.0452 713.9664 0.666 -0.557 0.496 118 70 62
-3249.1147 3123.6926 698.9189 0.642 -0.570 0.512 113 68 61
-3270.3435 3192.4988 674.9186 0.728 -0.536 0.426 116 72 61
-3266.6101 3251.2759 635.3858 0.350 -0.404 0.845 86 54 39
-3235.8506 3240.3220 615.3795 0.361 -0.417 0.834 95 62 47
-3192.3562 3222.8140 588.3364 0.527 -0.312 0.791 105 69 56
-3184.0901 3221.1440 582.1736 0.527 -0.312 0.791 99 63 51
-3175.8369 3219.4766 576.0208 0.527 -0.312 0.791 92 54 44
-3179.2998 3230.2708 572.3712 0.797 -0.430 0.425 86 48 37
-3183.0063 3241.3660 568.7475 0.736 -0.535 0.415 78 40 29
-2740.2969 3354.0374 113.9277 0.356 -0.738 0.574 100 66 54
-2660.1357 3267.8018 97.4018 -0.483 -0.800 0.356 108 74 64
-2643.9661 3255.2307 91.0904 -0.483 -0.800 0.356 114 82 71
-2627.9246 3242.7593 84.8291 -0.483 -0.800 0.356 119 86 77
-2617.6829 3262.6855 63.6156 -0.196 -0.974 0.110 57 29 19
-2738.8276 3429.7927 65.8845 -0.619 -0.781 0.083 34 18 11
-2496.2888 3332.7544 -85.2813 0.457 -0.889 -0.030 12 14 13
-2556.2998 3482.2788 -125.3600 0.336 -0.857 -0.391 19 20 21
-2537.5564 3465.0391 -131.0291 0.753 -0.656 -0.048 19 20 22
-2555.6785 3519.8164 -149.0729 0.290 -0.679 -0.675 34 32 35
-2563.8928 3541.3970 -155.2463 0.306 -0.677 -0.670 34 31 34
-2528.3782 3548.7698 -190.7042 0.189 -0.947 0.258 137 98 106
-2514.5688 3548.3257 -202.4476 0.189 -0.947 0.258 166 116 128
-2508.7773 3590.0576 -233.2492 0.791 -0.546 -0.275 205 158 149
-2436.6199 3542.3274 -266.5797 0.834 -0.312 -0.455 209 163 148
-2366.8760 3633.3760 -383.4793 0.485 -0.874 -0.033 222 176 160
-2346.8369 3612.0488 -387.7528 0.299 -0.953 0.041 222 176 160
-2181.1787 3558.1262 -498.6294 0.296 -0.676 -0.675 226 178 164
-2120.6968 3487.8513 -507.8820 0.318 -0.531 0.785 228 180 166
-2112.5762 3484.9312 -513.1464 0.318 -0.531 0.785 228 180 166
-2104.4731 3482.0173 -518.3992 0.318 -0.531 0.785 226 181 167
-2045.6400 3457.1831 -554.2682 0.681 -0.716 0.150 38 16 3
-2032.9148 3479.8311 -579.3232 0.664 -0.728 -0.172 46 23 10
-1585.1532 2730.9163 -506.6740 0.831 -0.481 -0.278 145 57 26
-1513.7278 2700.1589 -549.8450 0.738 -0.265 0.621 166 65 25
-1498.2737 2689.5461 -556.7424 0.762 -0.274 0.587 167 69 27
-1493.5603 2689.9465 -561.0915 0.768 -0.270 0.580 166 67 26
-1487.8314 2688.3943 -565.1188 0.767 -0.270 0.581 163 65 28
-1366.8732 2828.6426 -756.9590 0.916 -0.376 -0.141 74 21 16
-1363.6281 2832.6182 -762.2373 0.894 -0.447 -0.044 67 19 16
-1241.0403 2635.0125 -746.9350 0.634 -0.773 0.030 41 20 15
-1235.7557 2633.6782 -750.7101 0.730 -0.676 0.099 53 30 24
-1231.6649 2656.6223 -768.4338 -0.573 -0.576 0.583 139 84 52
-1222.2120 2645.7056 -769.9211 -0.573 -0.576 0.583 147 84 54
-1204.5049 2615.5693 -766.7274 -0.403 -0.798 0.448 139 70 42
-1202.7875 2622.3889 -772.4316 0.423 -0.727 -0.541 140 65 39
-1169.3901 2598.3374 -786.6484 0.655 -0.156 0.739 132 49 27
-1142.7776 2646.0625 -839.2690 0.862 -0.277 0.424 155 64 37
-1169.2715 2735.2961 -871.2975 0.846 -0.202 0.493 160 70 43
-1155.1908 2736.0967 -884.0454 0.341 -0.296 0.893 114 66 51
-1052.1619 2702.1592 -952.7560 0.693 -0.293 0.659 152 67 42
-1027.0869 2710.6609 -979.8257 0.816 -0.382 0.434 165 63 42
-1025.7386 2733.4836 -995.0878 0.960 -0.227 0.162 165 63 42
-1024.1954 2742.5610 -1002.0342 0.866 -0.297 0.402 166 63 41
-1007.0187 2775.4170 -1037.2646 0.671 -0.297 0.679 151 69 59
-1003.8463 2780.1362 -1042.9387 0.643 -0.303 0.704 138 69 55
-999.1362 2780.3274 -1047.1556 0.643 -0.303 0.704 103 48 33
-992.8013 2775.6641 -1049.7899 0.678 -0.346 0.648 78 36 21
-1048.6432 2957.3960 -1113.3784 0.680 -0.388 -0.622 49 17 3
-1063.3425 3016.9285 -1137.3363 0.667 -0.232 -0.708 32 5 0
-1052.7478 3031.7583 -1155.7111 0.857 -0.271 -0.439 15 5 0
-1056.7942 3300.2488 -1317.9314 0.967 -0.213 0.140 20 7 0
-1045.8831 4011.0420 -1766.2063 -0.194 -0.976 0.103 213 11 33
-3228.1814 3069.2021 703.1171 0.762 -0.555 0.334 107 59 50
-3275.4116 3129.5637 706.7532 0.668 -0.556 0.495 82 40 31
-3257.9316 3118.6489 698.3206 0.649 -0.565 0.510 74 35 27
-3249.7007 3116.9941 692.1887 0.642 -0.570 0.512 77 42 32
-3234.4524 3114.8779 680.2396 0.806 -0.552 0.212 92 57 47
-3282.1143 3190.1716 674.9891 0.760 -0.526 0.383 100 68 55
-3294.7751 3223.7488 665.1732 0.182 -0.414 0.892 73 39 25
-3241.5010 3210.4707 627.0760 0.071 -0.859 0.506 82 51 35
-3240.0439 3236.9934 609.3574 0.383 -0.450 0.807 101 70 55
-3164.2793 3199.5012 566.7194 0.524 -0.316 0.791 106 67 60
-3163.6758 3205.9160 562.2156 0.798 -0.455 0.395 100 61 53
-3184.9014 3235.5884 562.2708 0.785 -0.468 0.407 94 55 47
-2482.6648 2734.2715 262.4810 0.063 -0.749 -0.660 79 31 8
-2742.7407 3348.1653 107.8894 0.356 -0.738 0.574 104 68 55
-2656.0630 3253.7688 91.0563 -0.339 -0.881 0.330 113 79 68
-2644.4548 3247.0781 85.1107 -0.339 -0.881 0.330 114 82 71
-2633.1130 3240.6934 79.2068 -0.327 -0.884 0.334 116 84 73
-2606.9966 3231.6060 62.1297 0.822 -0.513 0.248 58 26 15
-2625.1675 3263.5720 58.1054 -0.196 -0.974 0.110 55 27 16
-2759.3086 3447.2356 60.8476 -0.380 -0.925 -0.013 39 22 14
-2534.7627 3441.6851 -130.9998 0.744 -0.666 -0.047 21 23 20
-2525.1365 3437.3855 -136.7049 0.742 -0.670 0.000 20 22 20
-2359.1096 3598.9170 -381.2946 0.008 -0.984 -0.180 214 167 151
-2353.0886 3600.0525 -387.2355 0.008 -0.984 -0.180 214 167 151
-2352.5564 3609.9924 -393.8639 0.299 -0.953 0.041 218 171 155
-2347.2742 3612.3428 -399.9156 0.318 -0.947 0.041 209 162 146
-2341.5608 3614.0044 -405.9154 0.318 -0.947 0.041 196 148 134
-2330.6006 3607.1799 -411.2146 0.298 -0.955 0.009 204 156 142
-2326.1387 3610.8542 -417.3744 0.230 -0.826 -0.514 222 174 160
-2321.6252 3636.4934 -437.2030 0.863 -0.495 -0.102 219 171 157
-2284.6133 3586.8291 -438.5872 0.854 -0.484 0.190 218 170 156
-2053.8064 3482.6538 -574.7057 0.645 -0.724 0.243 51 28 13
-1498.7092 2625.7664 -525.9747 0.610 -0.789 -0.072 158 55 19
-1502.1681 2678.0554 -555.3999 0.887 -0.461 -0.017 159 64 27
-1428.9159 2678.2573 -619.2337 0.502 -0.681 0.533 193 91 51
-1421.6127 2673.3870 -622.5643 0.515 -0.672 0.532 168 66 26
-1417.1815 2674.2417 -626.9483 0.522 -0.673 0.525 165 63 23
-1360.7139 2687.7788 -684.4557 0.286 -0.533 0.797 180 78 47
-1367.3040 2722.2283 -700.0924 0.859 -0.185 0.477 176 77 47
-1367.1970 2732.4045 -706.4974 0.854 -0.191 0.484 178 82 51
-1364.0380 2778.6458 -737.9272 0.807 -0.563 -0.178 82 24 11
-1369.6010 2823.4661 -760.8900 0.916 -0.376 -0.141 58 13 11
-1351.2184 2827.4128 -779.3256 0.722 -0.266 0.639 43 19 15
-1234.4297 2598.9700 -739.2007 0.752 -0.657 0.058 32 11 6
-1226.0309 2590.4998 -741.2514 0.880 -0.444 0.168 44 20 16
-1222.3052 2592.5381 -745.7561 0.877 -0.453 0.161 61 36 31
-1215.6659 2587.9648 -748.6936 0.793 -0.455 0.406 77 48 40
-1215.3662 2597.8137 -755.0632 0.801 -0.451 0.394 129 77 51
-1220.4084 2630.6948 -771.0733 0.442 -0.683 -0.581 150 83 54
-1213.1027 2624.6362 -773.6693 0.474 -0.776 -0.416 140 68 39
-1191.7196 2640.2026 -801.9218 -0.498 -0.729 0.469 118 44 20
-1144.8398 2639.6797 -842.3693 0.845 -0.271 0.460 151 61 35
-1055.1748 2697.6885 -956.3336 0.193 -0.393 0.899 160 71 47
-1043.0278 2690.0325 -962.1492 0.225 -0.383 0.896 157 67 42
-1005.5983 2757.4773 -1036.5365 0.672 -0.356 0.649 146 58 45
-1001.8080 2760.2827 -1041.5730 0.673 -0.356 0.648 144 66 49
-994.9531 2754.0500 -1043.6689 0.653 -0.343 0.675 145 79 60
-988.4072 2748.6667 -1046.0228 0.703 -0.354 0.617 116 62 43
-990.4702 2768.9146 -1056.7877 0.675 -0.326 0.662 83 37 19
-1025.8364 2889.2261 -1100.6556 0.896 -0.216 -0.389 59 20 6
-991.8000 2921.7935 -1150.4583 0.229 -0.733 0.641 25 11 7
-985.0279 2916.1257 -1152.8325 0.217 -0.745 0.631 24 10 7
-1091.2040 3767.6675 -1588.6801 0.951 0.026 -0.308 139 4 8
-1096.9370 3834.7449 -1625.3005 0.994 0.045 0.094 190 6 28
-3229.5564 3063.4441 696.6719 0.762 -0.555 0.334 89 43 37
-3241.1975 3081.5427 695.5101 0.856 -0.442 0.269 76 33 26
-3243.2371 3096.6619 687.8602 0.761 -0.613 0.213 57 24 15
-3250.2856 3110.3152 685.4774 0.642 -0.570 0.512 58 30 19
-3244.2742 3117.5022 675.7729 0.767 -0.535 0.356 66 41 29
-3243.9907 3219.3784 612.0330 0.199 -0.778 0.596 73 45 32
-3190.6870 3191.6521 582.9827 0.302 -0.445 0.843 101 73 61
-2491.5056 2731.0933 262.3094 0.210 -0.703 -0.680 79 31 8
-2647.4927 3217.7480 94.5860 0.455 -0.707 0.541 108 68 53
-2635.0698 3209.9958 88.6198 0.480 -0.668 0.569 113 75 61
-2637.8652 3229.8650 78.6661 0.157 -0.779 0.607 113 83 69
-2770.1313 3451.9880 55.1925 -0.091 -0.658 0.747 41 24 13
-2548.3494 3386.3201 -96.6486 -0.114 -0.993 -0.023 15 7 8
-2529.0383 3433.0635 -142.5658 0.742 -0.670 0.000 26 27 22
-2525.9575 3438.0701 -148.3638 0.759 -0.648 -0.058 32 26 23
-2522.5300 3442.6023 -154.1675 0.759 -0.648 -0.058 38 23 23
-2529.6602 3462.2732 -160.2299 0.227 -0.948 -0.222 38 17 19
-2583.6846 3639.1089 -223.4846 0.684 -0.603 -0.411 196 147 140
-2592.1389 3672.0808 -236.6859 0.659 -0.519 -0.545 207 158 144
-2390.2039 3573.2666 -350.6181 0.824 -0.544 -0.158 219 172 156
-2392.1304 3586.8115 -357.3855 0.813 -0.558 -0.168 219 172 156
-2370.7153 3606.2434 -388.1096 0.452 -0.891 -0.041 204 155 138
-2358.1980 3607.8101 -399.9658 0.400 -0.916 -0.034 211 162 145
-2353.0063 3610.3018 -406.0313 0.400 -0.916 -0.034 190 141 124
-2347.8108 3612.7957 -412.1014 0.400 -0.916 -0.034 195 146 131
-2343.4546 3616.6514 -418.2909 0.230 -0.837 -0.496 207 158 143
-2334.2058 3612.6082 -423.8097 0.230 -0.826 -0.514 207 158 143
-2323.6980 3617.4326 -435.9498 0.392 -0.710 -0.584 210 161 146
-2293.8618 3579.7363 -438.3889 0.845 -0.531 -0.061 211 162 147
-2198.2793 3552.9673 -504.7834 0.422 -0.734 -0.532 216 172 162
-2145.3804 3485.3198 -508.6013 -0.039 -0.635 0.771 216 172 162
-2119.5308 3463.1294 -517.2390 0.317 -0.520 0.793 222 179 169
-2057.6914 3411.1809 -538.6119 -0.018 -0.878 -0.478 38 10 3
-1588.8053 2718.7905 -514.6303 0.581 -0.768 -0.269 153 54 23
-1510.4749 2620.4810 -521.4427 0.621 -0.782 -0.058 142 43 13
-1503.4202 2634.3425 -536.2136 0.584 -0.709 0.394 148 52 24
-1503.8776 2671.8062 -559.1650 0.892 -0.452 -0.021 149 54 27
-1490.4519 2655.6582 -560.7701 0.702 -0.685 0.194 149 54 28
-1427.4214 2665.4502 -621.6577 0.535 -0.677 0.506 187 87 51
-1424.0720 2668.4424 -626.4337 0.515 -0.672 0.532 168 69 31
-1419.6520 2669.3079 -630.8150 0.522 -0.673 0.525 166 66 29
-1375.2974 2708.0469 -693.5109 0.448 -0.332 0.830 174 74 46
-1367.7501 2712.7173 -702.9816 0.859 -0.185 0.477 176 84 62
-1367.4845 2775.2388 -742.1785 0.801 -0.571 -0.180 53 24 22
-1373.4789 2820.8223 -765.3779 0.627 -0.706 -0.330 46 22 23
-1368.4000 2820.7463 -769.7449 0.237 -0.949 -0.206 46 21 23
-1360.8059 2826.2249 -779.7602 0.678 -0.696 -0.238 40 18 14
-1239.2352 2599.2605 -743.9728 0.751 -0.659 0.041 42 18 14
-1235.6694 2601.6912 -748.5870 0.752 -0.654 0.076 42 17 13
-1231.6379 2603.0842 -752.9593 0.762 -0.643 0.074 65 37 33
-1219.9784 2587.2126 -753.2017 0.841 -0.506 0.194 96 63 57
-1216.8409 2590.5806 -758.0278 0.841 -0.506 0.194 129 71 53
-1219.4672 2628.4846 -779.3685 0.681 -0.713 0.164 139 67 48
-1214.3508 2638.3064 -789.9368 -0.288 -0.825 0.486 123 52 33
-1229.7090 2684.9456 -805.6553 -0.322 -0.947 0.007 117 45 28
-1134.5441 2708.0378 -902.7627 0.873 -0.290 0.392 26 13 8
-1126.2721 2723.3975 -919.5253 0.542 -0.381 0.749 30 9 1
-1051.8077 2688.6067 -962.5650 0.192 -0.392 0.900 136 48 27
-1033.3455 2702.2058 -987.0875 0.934 -0.052 0.354 131 42 25
-1013.2365 2711.5522 -1010.3908 0.636 -0.290 0.715 132 41 25
-1007.6486 2736.0635 -1030.5243 0.856 -0.345 0.385 143 50 37
-1006.3326 2745.9678 -1037.8408 0.861 -0.346 0.373 150 57 45
-1000.0708 2755.3628 -1049.1389 0.861 -0.347 0.372 166 76 60
-989.7065 2738.7380 -1047.7860 0.717 -0.358 0.598 152 65 50
-985.2631 2739.5286 -1052.1409 0.743 -0.334 0.580 133 53 39
-1026.3186 2890.8926 -1110.7928 0.885 -0.225 -0.408 83 36 34
-996.9910 2922.7297 -1156.1261 0.225 -0.748 0.624 30 17 9
-985.1452 2916.7773 -1162.7123 0.546 -0.699 -0.462 19 6 1
-1092.6536 3773.5308 -1603.2336 0.998 0.049 0.042 149 3 19
-3234.8694 3055.1689 695.2490 0.763 -0.564 0.315 69 26 19
-3241.3162 3068.0227 692.7999 0.801 -0.549 0.239 64 23 15
-3251.8557 3084.9998 691.3237 0.862 -0.437 0.258 59 19 11
-3252.4170 3098.6340 683.2734 0.708 -0.640 0.298 51 20 10
-3261.9373 3114.7439 681.4550 0.722 -0.625 0.297 46 18 7
-3260.6616 3120.0767 677.0075 0.744 -0.663 0.085 44 17 6
-3259.6050 3125.6475 672.6012 0.713 -0.697 0.078 43 16 7
-3247.1418 3208.0496 610.1740 0.244 -0.752 0.613 66 38 26
-3196.0654 3182.7200 581.6683 -0.199 -0.809 0.553 78 52 39
-3167.6423 3159.9331 571.2482 -0.172 -0.810 0.561 76 48 37
-3156.2903 3154.9436 564.5117 -0.175 -0.822 0.542 73 42 32
-3137.8850 3170.2534 538.9370 0.639 -0.658 0.397 87 55 48
-3142.7051 3182.3677 535.5380 0.647 -0.646 0.404 66 33 28
-3140.1912 3186.7251 530.6254 0.150 -0.735 0.661 50 18 10
-2451.1250 2709.4133 230.9713 -0.544 -0.721 0.429 126 69 49
-2530.0964 3424.7239 -148.3667 0.772 -0.634 -0.045 26 27 21
-2566.9314 3583.8403 -216.0108 0.748 -0.478 -0.460 180 133 127
-2579.8218 3612.6958 -222.8835 0.697 -0.566 -0.440 189 139 133
-2507.7717 3526.9739 -231.7890 0.587 -0.708 -0.393 208 158 147
-2387.7251 3600.6697 -382.2161 0.834 -0.418 -0.362 218 169 152
-2376.1689 3603.7593 -394.1890 0.452 -0.891 -0.041 220 171 154
-2369.5955 3604.0437 -400.0769 0.025 -0.984 -0.179 222 173 156
-2363.8132 3605.5847 -406.0646 0.400 -0.916 -0.034 217 168 151
-2369.1931 3624.9768 -413.5351 0.213 -0.976 -0.038 209 160 143
-2363.3562 3626.4871 -419.5510 0.213 -0.976 -0.038 210 161 146
-2355.2136 3624.2913 -425.2490 0.379 -0.925 -0.041 212 163 148
-2206.7898 3555.8630 -511.3257 0.493 -0.682 -0.540 202 161 151
-2086.6470 3494.7405 -577.4113 -0.127 -0.821 -0.556 55 27 16
-1561.9491 2669.7817 -516.5876 -0.170 -0.706 -0.688 145 50 20
-1454.6014 2596.5764 -563.9924 0.158 -0.616 0.772 147 54 27
-1415.4624 2641.5342 -626.1432 0.288 -0.647 0.706 167 67 31
-1404.9373 2630.1438 -628.1531 0.649 -0.557 0.518 166 66 30
-1364.7990 2737.5425 -730.2733 0.788 -0.398 -0.470 55 24 22
-1377.8127 2819.1755 -770.0884 0.627 -0.706 -0.330 43 23 24
-1228.0029 2574.0549 -746.7224 0.900 -0.408 0.152 42 17 13
-1225.2621 2578.2461 -751.7277 0.900 -0.408 0.152 65 37 33
-1220.8828 2578.7681 -755.8586 0.880 -0.445 0.165 96 63 57
-1218.8085 2584.5066 -761.2540 0.849 -0.493 0.190 118 61 45
-1216.4354 2589.6042 -766.5076 0.842 -0.499 0.202 122 59 42
-1224.1764 2617.8098 -777.4460 0.585 -0.786 0.198 125 58 41
-1222.0593 2623.6509 -782.9427 0.629 -0.749 0.209 125 58 41
-1219.2666 2627.9775 -788.0782 0.624 -0.753 0.210 119 53 36
-1233.6239 2682.9263 -810.0164 -0.317 -0.948 0.012 108 42 24
-1229.4586 2684.3262 -814.5110 -0.310 -0.951 0.006 103 37 20
-1167.6431 2572.4529 -798.1503 0.670 -0.202 0.714 90 39 18
-1058.2450 2680.8250 -961.0421 0.167 -0.416 0.894 137 50 31
-1015.8381 2705.7737 -1013.5018 0.871 -0.015 0.491 132 50 33
-1000.3224 2784.4568 -1076.2515 0.849 -0.276 -0.450 129 47 40
-1028.0774 2881.5732 -1112.9579 0.861 -0.232 -0.453 86 35 34
-1092.3718 3400.0813 -1381.8049 0.867 -0.290 0.405 34 17 10
-3313.9058 3132.8906 703.7549 0.495 -0.679 0.542 44 8 1
-3315.3174 3140.8982 699.9423 0.264 -0.600 0.755 42 8 0
-3299.4956 3131.7759 691.9467 0.262 -0.603 0.754 43 11 2
-3278.0764 3123.6294 678.4783 0.469 -0.681 0.562 38 9 2
-3184.4016 3169.8977 568.0473 -0.202 -0.797 0.570 56 28 17
-3145.9114 3157.2280 542.6050 0.532 -0.809 -0.249 94 68 59
-3138.9089 3156.7805 536.8079 0.501 -0.832 -0.238 105 78 69
-3134.9524 3159.5461 531.6329 0.606 -0.717 0.345 82 54 46
-3139.3750 3171.1956 528.1427 0.644 -0.663 0.382 48 23 13
-3121.3079 3194.1921 497.9892 0.666 -0.389 0.637 59 39 26
-2461.9556 2715.1074 227.0324 -0.545 -0.719 0.432 121 64 44
-2630.0955 3243.4695 40.5595 0.779 -0.546 0.308 56 26 14
-2672.4622 3340.7158 16.1527 0.060 -0.752 0.656 14 5 0
-2592.7520 3503.4600 -155.4403 0.855 -0.414 0.313 31 25 21
-2587.8645 3506.0813 -161.3324 0.851 -0.416 0.319 37 25 21
-2572.3337 3581.2603 -222.1162 0.748 -0.478 -0.460 182 134 128
-2583.1628 3607.0308 -228.9295 0.657 -0.628 -0.417 189 139 132
-2596.0291 3635.9128 -235.9325 0.669 -0.612 -0.422 195 147 138
-2620.3086 3691.9912 -250.1388 0.706 -0.573 -0.416 207 158 144
-2381.6223 3601.2759 -400.2678 0.452 -0.891 -0.041 229 180 163
-2378.5303 3607.0806 -406.6041 0.037 -0.982 -0.187 221 172 155
-2352.1692 3618.9836 -436.9775 0.299 -0.825 -0.480 220 171 156
-2342.3433 3614.0422 -442.3985 0.397 -0.707 -0.585 219 170 155
-2123.5188 3491.3547 -555.1687 -0.108 -0.859 -0.500 45 15 5
-2121.8271 3533.3152 -583.0382 0.055 -0.807 -0.588 54 28 15
-1515.5635 2602.8127 -523.8841 0.670 -0.616 0.414 135 46 16
-1458.6024 2594.9263 -568.3704 0.162 -0.883 0.441 144 56 27
-1414.2679 2620.0171 -622.6442 0.306 -0.759 0.575 176 76 40
-1365.4867 2738.8982 -739.7896 0.690 -0.516 -0.508 49 25 25
-1366.7786 2752.2004 -747.0377 0.684 -0.564 -0.463 48 26 25
-1384.8010 2801.5286 -762.4285 0.834 -0.517 -0.193 46 26 27
-1382.4875 2807.3752 -768.1157 0.834 -0.517 -0.193 43 23 24
-1236.0266 2591.9456 -759.7147 0.949 -0.284 -0.139 65 37 33
-1251.0004 2668.1003 -794.6313 0.317 -0.655 -0.685 107 47 29
-1249.6072 2675.7742 -800.6689 0.313 -0.661 -0.682 108 47 28
-1067.4342 2680.5166 -961.7985 0.142 -0.418 0.897 129 46 28
-1013.9550 2687.3323 -1012.5126 0.652 -0.293 0.700 135 57 40
-1045.5383 2948.9851 -1149.7223 0.938 -0.339 -0.071 66 27 25
-998.4003 2927.6702 -1177.2323 0.217 -0.897 -0.385 30 17 11
-994.4645 2930.9829 -1182.7333 0.217 -0.897 -0.385 26 13 7
-829.1126 2492.6072 -1050.4581 0.114 -0.857 -0.503 28 11 4
-1054.0725 3426.0608 -1442.4818 0.537 -0.614 -0.579 67 38 34
-3247.0774 3046.6892 688.7837 0.836 -0.505 0.214 41 12 4
-3315.0430 3126.7664 697.1275 0.495 -0.679 0.542 39 13 1
-3244.0703 3196.6255 591.3917 0.245 -0.749 0.616 80 52 40
-3236.9109 3196.1462 585.4835 0.135 -0.663 0.736 77 47 36
-3225.1709 3190.9099 578.6083 0.135 -0.663 0.736 66 36 25
-3134.8154 3151.8267 524.9252 0.592 -0.726 0.351 44 23 9
-3085.8755 3169.6394 471.2057 0.097 -0.609 0.787 62 49 39
-2521.6802 2751.5017 246.0538 0.168 -0.748 -0.642 79 31 8
-2598.5964 3445.4634 -125.9077 0.854 -0.396 0.337 23 19 18
-2604.0146 3490.3726 -149.5967 0.861 -0.399 0.315 32 23 22
-2600.7876 3495.2927 -155.5068 0.721 -0.286 0.631 26 14 13
-2651.3669 3706.0186 -244.8371 0.830 -0.378 -0.410 199 151 142
-2378.7236 3564.5156 -391.9229 0.882 -0.377 -0.283 225 176 159
-2394.3091 3599.5383 -400.5413 0.034 -0.984 -0.176 224 175 158
-2392.0593 3606.6477 -406.9873 0.037 -0.982 -0.187 225 176 159
-2386.1489 3608.0061 -412.9737 0.037 -0.982 -0.187 210 161 144
-2375.8425 3602.3982 -418.3702 0.477 -0.878 -0.033 194 145 128
-2369.8586 3603.6228 -424.3358 0.400 -0.916 -0.034 209 160 143
-2368.1536 3611.6689 -430.9015 0.331 -0.851 -0.408 221 172 157
-2363.4390 3614.9438 -437.0620 0.299 -0.825 -0.480 221 172 157
-2359.7930 3619.9448 -443.3864 0.299 -0.825 -0.480 221 172 157
-2352.0723 3618.4160 -449.1184 0.370 -0.826 -0.426 221 172 157
-2061.5740 3299.9949 -499.8547 0.481 -0.757 0.443 215 177 166
-2055.7576 3300.5334 -505.2414 0.481 -0.757 0.443 214 176 165
-2050.1028 3301.3428 -510.6589 0.464 -0.781 0.417 129 89 77
-2043.0254 3299.7380 -515.7848 0.451 -0.786 0.423 70 30 18
-2027.5894 3294.2954 -525.7360 0.465 -0.780 0.418 49 13 5
-2136.8228 3536.3972 -584.0142 -0.060 -0.923 -0.379 58 31 20
-1418.5099 2609.4116 -621.2030 0.662 -0.676 0.325 166 66 30
-1346.7151 2541.5073 -640.5640 0.400 -0.904 -0.152 169 71 36
-1340.8004 2538.9106 -644.0540 0.416 -0.897 -0.149 173 75 40
-1334.8617 2536.2419 -647.5191 0.383 -0.911 -0.152 168 70 35
-1390.1461 2791.3625 -760.8320 0.815 -0.576 0.063 46 25 26
-1248.1698 2587.9148 -755.3959 0.844 -0.520 0.133 42 17 13
-1234.9506 2589.4702 -767.8478 0.949 -0.289 -0.128 90 59 52
-1227.1938 2582.4583 -770.1447 0.756 -0.635 0.161 91 42 23
-1225.8131 2610.8059 -789.2627 0.772 -0.617 0.152 97 41 20
-1190.4882 2540.8525 -775.6882 0.608 -0.781 -0.146 98 43 22
-985.3279 2726.3762 -1070.9595 0.688 -0.360 0.630 88 37 36
-1006.8974 2923.3108 -1176.7397 0.159 -0.972 -0.175 40 27 21
-999.4980 2947.0562 -1198.1700 0.683 -0.644 -0.344 24 11 5
-1060.0061 3427.1377 -1449.1614 0.507 -0.645 -0.572 57 28 24
-3237.2415 3029.9817 679.6666 0.773 -0.564 0.291 32 13 2
-3295.6650 3100.4070 685.5927 -0.096 -0.831 -0.548 31 12 0
-3317.9219 3128.9468 686.7637 0.502 -0.642 0.580 34 13 0
-3197.8130 3161.8887 561.7024 -0.179 -0.828 0.532 80 51 37
-3171.9976 3148.7920 547.6377 0.085 -0.955 0.283 58 38 24
-3164.4727 3147.8127 541.7354 0.126 -0.965 0.228 40 25 10
-3154.0764 3143.8225 535.2556 0.199 -0.962 0.185 37 25 11
-3147.7266 3144.0513 529.6047 0.199 -0.962 0.185 37 25 11
-3149.7205 3153.0378 525.6259 0.518 -0.825 -0.227 37 23 8
-3133.7520 3143.1577 518.0558 0.520 -0.794 0.317 35 21 6
-3197.1667 3245.4001 508.1016 0.763 -0.450 0.464 46 33 27
-3184.4526 3239.0320 501.1224 0.787 -0.451 0.420 51 39 35
-3119.1416 3176.4641 484.2342 0.763 -0.308 0.568 56 45 41
-3114.3567 3178.3992 478.8565 0.763 -0.308 0.568 58 47 42
-2502.6338 2741.9573 225.6684 -0.514 -0.748 0.419 98 42 21
-2634.9248 3159.6775 75.0625 0.552 -0.801 -0.232 114 72 56
-2755.5818 3396.0283 29.5626 -0.283 -0.699 0.657 38 19 7
-2666.6384 3384.0896 -39.9718 0.022 -0.650 0.759 7 6 2
-2687.2473 3502.0603 -97.0301 -0.331 -0.616 0.714 8 8 6
-2659.0017 3472.7595 -102.9101 -0.346 -0.565 0.749 12 8 9
-2609.2722 3487.8047 -155.5830 0.539 -0.221 0.813 23 12 11
-2600.6965 3485.2166 -161.3747 0.521 -0.220 0.825 40 24 25
-2559.9460 3513.3330 -214.5644 0.747 -0.635 -0.194 181 130 126
-2722.4795 3798.6604 -254.8623 0.186 -0.676 -0.713 203 155 146
-2694.7241 3779.2476 -266.5975 0.148 -0.694 -0.705 209 160 146
-2044.8461 3302.4912 -527.2626 0.544 -0.824 -0.158 57 17 7
-1988.4531 3237.4482 -534.8465 0.324 -0.843 -0.429 61 31 21
-1589.6139 2665.4854 -517.3833 0.311 -0.660 -0.684 119 48 10
-1490.2671 2582.3450 -550.7157 0.747 -0.626 0.222 110 37 4
-1482.8792 2586.3467 -559.6628 0.769 -0.615 0.177 110 37 5
-1453.4292 2612.0195 -601.5026 0.275 -0.884 -0.378 123 36 6
-1450.2053 2615.0342 -606.2125 0.275 -0.884 -0.378 128 41 11
-1359.6727 2558.0659 -648.5253 0.144 -0.928 -0.344 165 67 30
-1356.1124 2560.2856 -653.0219 0.144 -0.928 -0.344 166 66 30
-1366.4827 2590.6648 -663.3253 0.706 -0.706 0.048 158 58 22
-1391.3459 2670.2981 -692.3455 0.419 -0.300 0.857 174 78 44
-1385.3887 2668.0142 -696.0602 0.419 -0.300 0.857 143 70 41
-1250.6306 2583.0249 -758.9209 0.844 -0.520 0.133 40 15 11
-1095.4535 2608.7158 -909.7822 0.870 -0.141 0.472 100 52 30
-1092.3635 2612.5398 -914.8901 0.901 -0.137 0.412 103 52 27
-1024.8511 2917.3655 -1167.0299 0.127 -0.985 -0.113 31 17 6
-1067.8080 3434.5293 -1458.2515 0.220 -0.705 -0.674 47 16 13
-3294.4468 3085.5662 682.6136 -0.092 -0.894 -0.438 28 13 0
-3303.1147 3100.5808 680.5435 -0.093 -0.835 -0.543 35 19 5
-3304.6038 3108.5659 676.7382 -0.098 -0.842 -0.530 46 28 14
-3293.0354 3103.6660 669.8411 0.415 -0.770 0.485 52 33 19
-3283.2427 3100.5015 663.3750 0.270 -0.601 0.752 57 35 22
-3184.7876 3147.7373 547.9220 0.085 -0.955 0.283 86 62 49
-3177.1570 3146.6611 541.9968 0.085 -0.955 0.283 67 49 35
-3170.9688 3147.0779 536.3688 0.145 -0.953 0.265 37 24 11
-3160.8992 3143.4429 529.9629 0.209 -0.945 0.252 35 27 12
-3152.8599 3141.9111 523.9743 0.199 -0.962 0.185 34 27 13
-3146.5115 3142.1399 518.3275 0.199 -0.962 0.185 35 28 13
-3136.7500 3138.7825 512.0115 0.520 -0.794 0.317 37 30 15
-3133.5369 3156.1423 498.1499 0.430 -0.642 -0.635 37 29 21
-3167.3594 3220.1736 486.5984 0.452 -0.570 -0.686 50 42 43
-3090.7588 3159.5337 458.9186 0.061 -0.704 0.707 48 41 41
-3072.3728 3146.8193 451.1004 0.134 -0.736 0.663 41 38 39
-2692.6389 3199.7573 88.2809 0.451 -0.516 0.728 111 69 56
-2656.1748 3378.4370 -57.3321 -0.192 -0.832 0.520 6 6 2
-2633.3816 3446.3826 -120.4390 -0.113 -0.926 0.360 16 10 10
-2627.5881 3447.6082 -126.2412 -0.093 -0.879 0.468 24 17 18
-2622.1702 3449.3516 -132.0484 0.900 -0.409 0.149 27 22 21
-2609.9758 3469.5400 -155.4971 0.814 -0.259 0.520 45 36 35
-2606.2949 3473.7573 -161.3776 0.539 -0.221 0.813 69 56 56
-2577.7471 3538.3870 -227.3550 0.286 -0.931 -0.229 186 137 132
-2576.4705 3546.3130 -233.5188 0.276 -0.933 -0.233 186 137 132
-2302.1746 3413.4702 -386.4283 0.404 -0.895 -0.190 219 170 153
-2048.3643 3277.1143 -519.3450 0.486 -0.808 -0.333 54 14 4
-2041.6433 3276.0662 -524.5000 0.282 -0.855 -0.435 59 16 7
-2103.6709 3412.6338 -557.8979 0.482 -0.704 -0.522 59 28 18
-1495.0593 2582.1650 -555.3314 0.670 -0.699 0.249 101 33 1
-1486.2051 2583.4536 -563.8259 0.750 -0.610 0.257 100 32 1
-1367.9531 2565.1438 -654.6075 0.647 -0.749 0.140 160 64 26
-1391.6676 2660.9482 -695.1925 0.692 -0.721 0.037 159 66 34
-1383.2858 2673.4993 -710.4642 0.697 -0.715 0.058 80 32 14
-1028.3484 2913.0725 -1170.8909 0.628 -0.687 0.365 31 18 6
-1028.2290 2927.8354 -1180.4147 0.122 -0.983 -0.140 29 18 6
-1022.1291 2939.8420 -1193.3617 0.142 -0.978 -0.155 32 19 13
-1094.7852 3409.5686 -1430.1414 0.068 -0.629 -0.774 38 18 12
-1092.7932 3421.9978 -1439.7986 0.105 -0.630 -0.770 45 16 12
-1081.4091 3441.8530 -1462.3326 0.226 -0.683 -0.695 61 30 27
-1058.7699 3463.5369 -1495.7863 0.341 -0.584 -0.737 19 10 0
-865.0517 3400.4016 -1623.3558 0.308 -0.595 0.742 203 4 27
-3253.7141 3019.5017 678.3378 0.612 -0.783 0.115 31 15 0
-3245.9175 3018.1946 672.4243 0.736 -0.646 0.201 34 13 0
-3306.5688 3083.8828 682.8342 -0.060 -0.905 -0.421 36 16 2
-3313.3315 3096.9727 680.2989 -0.085 -0.884 -0.459 47 28 14
-3315.4153 3112.0295 672.4504 0.524 -0.702 0.482 74 54 39
-3298.3579 3101.7371 664.2777 0.296 -0.550 0.781 82 58 44
-3175.4414 3137.4045 534.9707 0.247 -0.603 0.759 66 48 36
-3173.2368 3141.9453 530.1505 0.169 -0.820 0.546 37 25 14
-3165.2476 3140.4802 524.1714 0.219 -0.942 0.255 34 26 15
-3213.4727 3232.8245 506.7319 0.451 -0.602 -0.659 33 34 29
-3208.2241 3234.3945 501.1805 0.432 -0.634 -0.641 30 30 31
-3192.5220 3232.0198 489.1052 0.570 -0.752 -0.330 43 42 48
-3180.6448 3226.5388 482.3339 0.384 -0.601 -0.701 42 42 47
-3022.5417 3099.5703 426.8202 0.022 -0.712 0.702 22 33 37
-2484.4041 2719.8386 204.2534 -0.558 -0.702 0.442 132 75 55
-2854.7268 3318.7449 140.9889 0.561 -0.661 0.498 112 65 56
-2717.0979 3182.2002 109.3441 -0.042 -0.997 0.064 112 65 57
-2695.3167 3194.6174 82.5219 0.449 -0.521 0.726 117 75 65
-2685.5684 3190.4001 76.7838 0.712 -0.691 0.124 116 73 63
-2709.5520 3318.6836 15.3119 0.413 -0.843 -0.344 39 18 7
-2669.6326 3440.5283 -97.3695 0.711 -0.155 0.686 10 9 7
-2603.3372 3459.8010 -167.1346 0.539 -0.221 0.813 127 103 103
-2568.7361 3505.6426 -226.4860 0.741 -0.649 -0.172 182 134 125
-2580.4182 3541.7256 -239.5020 0.379 -0.879 -0.289 187 137 130
-2767.7705 3831.5659 -263.0747 0.636 -0.468 -0.613 198 149 142
-1634.7068 2700.5840 -519.2093 -0.697 -0.508 0.506 121 50 27
-1502.5781 2578.2170 -555.1801 0.815 -0.552 0.179 95 29 0
-1497.7667 2578.1533 -559.3058 0.670 -0.699 0.249 93 28 0
-1485.4742 2581.8940 -572.3486 0.506 -0.733 0.455 95 30 2
-1462.7162 2629.4133 -622.5203 0.864 -0.474 0.171 146 60 26
-1464.3943 2651.2349 -635.0566 0.507 -0.546 -0.667 162 62 29
-1396.1567 2650.3303 -693.5679 0.965 -0.182 0.187 144 56 23
-1392.5593 2652.8088 -698.2721 0.911 -0.396 0.117 138 54 23
-1393.3885 2664.3059 -704.9247 0.674 -0.739 -0.014 91 37 13
-1388.2660 2663.7258 -708.9887 0.524 -0.790 0.318 77 33 14
-1169.0552 2575.6484 -842.3521 0.843 -0.335 0.422 78 29 7
-1160.9982 2589.1868 -858.0082 -0.583 -0.810 -0.059 77 27 5
-1035.0107 2948.6211 -1197.5372 0.620 -0.780 -0.083 26 13 5
-1028.7485 2960.3499 -1210.4791 0.597 -0.798 -0.082 26 13 7
-975.3099 2934.7756 -1240.3597 0.923 -0.357 0.147 28 13 6
-937.8460 2830.1836 -1205.7496 0.797 -0.367 0.480 34 17 10
-1091.0651 3416.6792 -1449.0618 0.189 -0.660 -0.727 60 32 28
-1089.8691 3451.1885 -1472.2208 0.218 -0.687 -0.693 59 30 26
-1085.8329 3457.1497 -1479.5377 0.228 -0.685 -0.692 46 17 13
-3261.1826 3013.5437 677.4946 0.612 -0.783 0.115 35 14 4
-3257.1846 3015.9355 672.4939 0.612 -0.783 0.115 46 26 9
-3329.9236 3099.5952 681.5616 0.574 -0.583 0.575 69 43 32
-3296.2786 3092.5195 657.0017 0.296 -0.550 0.781 87 61 48
-3174.2107 3128.6816 528.0702 0.524 -0.247 0.815 47 30 20
-3149.3740 3123.3198 510.0293 0.541 -0.408 0.736 39 35 28
-3109.5425 3157.3101 453.6661 0.008 -0.728 0.685 25 32 38
-3089.9241 3143.3794 445.6601 0.073 -0.712 0.698 21 32 38
-3055.6880 3113.7505 435.1142 -0.131 -0.740 0.660 19 35 41
-3058.8052 3124.0278 431.1925 0.042 -0.710 0.703 16 37 43
-2495.0867 2712.4080 208.4464 0.149 -0.947 -0.284 102 48 27
-2701.3850 3162.3425 97.1945 -0.300 -0.952 0.067 127 81 76
-2699.4277 3183.3892 81.9454 0.572 -0.806 0.154 129 86 80
-2693.4399 3183.8430 76.4709 0.567 -0.810 0.148 132 90 83
-2688.8333 3186.0120 71.0873 0.712 -0.691 0.124 135 92 85
-2684.9341 3189.0681 65.7444 0.712 -0.691 0.124 126 83 76
-2679.2048 3189.8479 60.2841 0.705 -0.698 0.122 116 73 67
