ply
format ascii 1.0
element vertex 780
property float x
property float y
property float z
property float nx
property float ny
property float nz
property uchar diffuse_red
property uchar diffuse_green
property uchar diffuse_blue
end_header
-1977.2534 5223.6392 -262.2562 0.733 -0.535 -0.419 217 172 167
-1883.3179 5300.6396 -376.2964 -0.390 -0.688 -0.612 245 208 210
-1867.5284 5305.3022 -392.4298 -0.388 -0.690 -0.611 254 214 217
-1859.7932 5308.1147 -400.5273 -0.388 -0.690 -0.611 254 214 218
-1844.7135 5314.9370 -416.8043 -0.344 -0.881 -0.325 255 214 218
-282.1360 3597.8472 -1214.8616 -0.344 -0.926 -0.155 242 43 64
-204.4050 3118.9968 -1110.3419 -0.225 -0.804 -0.551 198 2 16
-204.0820 3658.5117 -1308.4049 0.817 -0.371 -0.442 240 65 70
-216.2426 4131.3018 -1470.6046 0.422 -0.683 0.596 245 83 84
-4293.6221 5098.5923 1882.8303 -0.431 -0.893 -0.134 186 154 131
-3828.1829 4705.7178 1602.9822 0.102 -0.816 -0.569 146 106 80
-3625.1814 4535.7524 1480.4144 0.725 -0.543 0.425 143 103 68
-3721.0898 4705.8647 1505.1483 0.883 -0.430 -0.189 155 115 80
-3696.5715 4685.4268 1490.3113 0.901 -0.427 -0.080 158 118 83
-3365.7571 4472.9106 1266.7621 0.146 -0.917 0.370 185 113 88
-3375.2505 4497.5190 1266.3406 0.312 -0.947 -0.074 199 98 83
-3365.1699 4506.8398 1253.6936 -0.128 -0.760 -0.637 201 78 71
-3347.6501 4505.8765 1238.0533 -0.025 -0.751 -0.660 213 112 98
-3348.8530 4519.2788 1234.2012 -0.041 -0.779 -0.626 218 146 121
-3343.8728 4524.0947 1227.8751 -0.041 -0.779 -0.626 208 158 129
-3338.8853 4528.9185 1221.5398 -0.041 -0.779 -0.626 197 159 128
-2408.2986 3374.7605 798.1882 0.191 -0.590 0.785 200 161 132
-3110.4194 5249.7007 746.7091 0.469 -0.168 0.867 158 113 92
-3081.3818 5231.4673 726.9313 0.473 -0.169 0.865 194 151 132
-3047.7295 5188.7065 712.0001 0.441 -0.239 0.865 201 158 139
-2944.3779 6403.1523 169.0601 -0.200 -0.395 0.897 194 125 94
-2167.3516 5287.0513 -128.1422 0.277 -0.483 0.831 196 149 129
-2154.9971 5278.1592 -136.1380 -0.103 -0.555 0.825 200 153 133
-2008.1643 5237.4014 -255.1470 0.789 -0.440 -0.428 225 180 175
-1909.1061 5300.2070 -368.7890 0.555 -0.597 0.580 237 196 200
-1894.3032 5307.7422 -385.0878 0.896 -0.426 0.126 237 196 200
-1886.4421 5310.2075 -393.1759 0.940 -0.339 0.024 237 196 200
-1882.9227 5325.3384 -401.9782 0.894 -0.430 0.126 240 199 203
-1875.0858 5327.9526 -410.0990 -0.385 -0.693 -0.610 240 199 203
-1867.3247 5330.7998 -418.2369 -0.385 -0.693 -0.610 240 199 203
-1855.8110 5322.5664 -425.7080 -0.344 -0.881 -0.325 240 199 203
-1845.2058 5316.9390 -433.3124 -0.353 -0.884 -0.305 241 199 203
-1836.2179 5316.0703 -441.1979 -0.353 -0.884 -0.305 243 198 203
-1826.6412 5313.4136 -448.9606 -0.312 -0.911 -0.269 243 198 203
-1818.8761 5316.1763 -457.0707 0.807 -0.479 -0.345 243 198 203
-493.6841 2493.0278 -624.2413 -0.582 -0.422 -0.695 248 137 128
-710.2532 4407.8945 -1133.7943 -0.324 -0.554 -0.766 254 15 57
-696.9049 4501.1255 -1180.4183 -0.048 -0.451 -0.891 255 111 123
-693.5057 4525.1323 -1192.3893 -0.055 -0.452 -0.890 255 130 133
-714.4168 4716.6577 -1244.0399 -0.522 -0.566 -0.638 255 139 137
-208.9496 3652.7979 -1312.5950 0.819 -0.370 -0.439 244 69 74
-221.6645 4123.6562 -1474.9054 0.633 -0.558 0.536 248 87 88
-3865.3215 4706.9321 1620.8936 -0.494 -0.693 0.525 163 123 98
-3614.6570 4510.7573 1465.1654 0.745 -0.536 0.397 148 108 73
-3725.8215 4700.1147 1496.1332 0.883 -0.430 -0.189 160 120 85
-3328.9419 4410.7041 1241.6793 0.257 -0.879 0.403 186 107 84
-3354.8245 4457.6240 1247.8357 0.432 -0.751 0.500 206 89 79
-3349.5122 4531.7271 1215.4093 0.822 -0.481 -0.305 197 160 128
-2417.2466 3387.6997 790.4625 0.611 -0.635 0.473 195 156 127
-2410.4673 3396.2959 781.0770 0.791 -0.582 0.187 195 156 127
-2710.8623 4966.0156 470.9950 0.425 -0.904 -0.046 193 147 131
-2770.6501 5164.1172 451.8258 0.839 -0.323 0.439 178 130 110
-2730.0278 5120.3672 431.0393 0.037 -0.253 0.967 161 113 93
-2974.3899 5746.5864 420.9672 0.843 -0.511 -0.169 203 151 129
-2824.0205 6158.3481 130.5063 -0.268 -0.400 0.877 199 130 99
-2009.4304 5217.9395 -262.8388 0.518 -0.643 -0.565 221 176 171
-1919.6047 5281.0166 -368.2827 0.483 -0.616 0.623 227 182 185
-1897.1877 5291.4668 -392.6280 0.892 -0.435 0.127 224 182 186
-1885.9220 5309.2021 -409.5088 0.454 -0.794 -0.404 226 185 189
-1874.5934 5327.0293 -426.4813 -0.398 -0.703 -0.589 226 185 189
-1865.3743 5325.5869 -434.3571 -0.339 -0.882 -0.326 227 185 189
-1856.0872 5323.9155 -442.2098 -0.374 -0.894 -0.247 245 197 203
-1847.2544 5323.5635 -450.1390 -0.353 -0.884 -0.305 247 197 203
-1834.3296 5310.9805 -457.2503 -0.306 -0.912 -0.272 247 196 203
-1825.6143 5310.8877 -465.1686 0.096 -0.771 -0.630 247 196 203
-1775.7938 5344.5073 -523.1434 -0.370 -0.757 -0.539 252 200 202
-789.8646 4646.5596 -1163.0765 -0.288 -0.868 0.403 253 17 57
-717.0042 4409.4170 -1141.3065 -0.184 -0.648 -0.739 254 15 57
-709.0609 4446.5259 -1162.3658 -0.171 -0.628 -0.759 247 27 60
-486.8474 4468.0874 -1373.1663 -0.517 -0.818 0.253 253 62 93
-427.6475 4412.6426 -1406.5530 0.667 -0.353 -0.656 243 85 99
-1804.0404 2019.6406 733.0698 0.105 -0.778 0.620 186 154 133
-1797.5220 2016.6675 728.2397 0.105 -0.778 0.620 185 154 134
-4037.4409 4807.2217 1724.7090 -0.758 -0.618 -0.209 199 166 147
-3839.7468 4674.4502 1594.1937 -0.543 -0.696 0.470 157 117 91
-3750.0603 4583.7461 1546.4093 -0.551 -0.695 0.462 145 106 79
-3793.3013 4660.8008 1556.9526 -0.276 -0.599 0.752 144 103 71
-3958.6045 4894.1392 1620.2170 -0.729 -0.678 -0.100 146 103 68
-3724.8545 4686.9790 1484.7119 0.715 -0.504 -0.485 167 127 92
-3340.6162 4495.5752 1206.0504 0.788 -0.614 -0.042 212 157 129
-2304.3357 3170.0000 757.9965 0.473 -0.503 0.724 195 159 133
-2411.5688 3360.8511 784.2314 -0.588 -0.745 -0.315 189 150 121
-3212.5056 5393.6226 752.4692 0.016 -0.281 0.960 156 111 90
-2761.5242 5045.0400 471.8740 0.352 -0.842 -0.409 191 145 129
-2762.8870 5064.2915 465.8983 0.250 -0.938 -0.238 184 138 122
-2759.3889 5142.4849 433.3877 0.834 -0.331 0.442 171 123 103
-3080.2837 5876.1089 450.9616 0.707 -0.702 -0.084 207 155 134
-2660.7183 5927.8384 48.9129 0.091 -0.461 0.883 203 136 107
-2428.9048 5503.9028 -3.5413 0.302 -0.922 -0.244 196 137 105
-2423.6743 5513.3911 -11.8696 0.307 -0.909 -0.281 196 137 105
-2018.7371 5220.0562 -271.1875 0.550 -0.670 -0.499 214 169 164
-2013.8674 5230.2012 -279.4328 0.550 -0.670 -0.499 214 169 164
-1977.2413 5224.8247 -310.8204 -0.403 -0.847 -0.348 198 153 149
-1915.5291 5269.9243 -384.0143 0.587 -0.581 0.564 224 182 186
-1901.8395 5280.3735 -400.4175 0.885 -0.447 0.131 224 182 186
-1892.9390 5279.7383 -408.2968 0.938 -0.346 0.003 223 182 186
-1887.9939 5315.7188 -426.2984 0.451 -0.793 -0.409 226 185 189
-1884.8752 5332.0562 -435.2687 -0.229 -0.861 -0.453 226 185 189
-1873.8563 5325.3896 -442.8185 -0.365 -0.896 -0.253 227 185 189
-1865.9761 5327.8843 -450.9408 -0.369 -0.896 -0.246 248 196 203
-1858.3313 5331.0845 -459.1130 -0.353 -0.884 -0.305 249 195 203
-1844.9281 5317.1929 -466.1280 -0.306 -0.912 -0.272 250 194 203
-1771.9618 5360.3042 -548.8400 -0.376 -0.782 -0.497 239 187 189
-905.4874 3447.3518 -621.7781 0.499 -0.741 0.449 238 171 165
-939.7360 4872.0327 -1124.7576 0.883 -0.230 0.409 248 137 128
-491.8318 4454.2793 -1376.6088 -0.601 -0.763 0.239 255 63 92
-316.5502 3698.0999 -1252.9231 -0.470 -0.537 -0.701 245 74 85
-307.4049 3724.4246 -1271.1348 -0.395 -0.506 -0.767 240 41 62
-212.0120 3258.4338 -1183.4016 0.566 -0.493 -0.661 217 24 35
-178.0862 3267.4893 -1217.7382 0.316 -0.919 -0.234 236 111 94
-3773.5271 4601.9482 1545.7665 -0.551 -0.695 0.462 148 107 79
-3789.5061 4633.2241 1548.5161 -0.522 -0.703 0.482 145 104 74
-3739.8892 4581.6230 1522.7833 -0.528 -0.712 0.463 146 103 70
-3589.9648 4456.4229 1433.4236 0.699 -0.560 0.444 159 119 84
-3569.4243 4440.9077 1420.5619 0.611 -0.756 0.236 164 124 89
-3301.5659 4317.0815 1223.1852 0.350 -0.746 0.566 170 124 90
-3255.9607 4310.1558 1184.2318 0.341 -0.746 0.572 222 67 70
-3335.6711 4442.2114 1207.0013 0.179 -0.569 -0.803 225 60 67
-3349.2371 4484.0020 1203.5793 0.160 -0.944 -0.289 234 135 120
-3360.7964 4511.6733 1203.6622 0.020 -0.941 -0.337 214 155 128
-2345.2756 3318.1780 728.8787 0.753 -0.474 0.456 190 153 126
-2336.9998 3315.0593 722.5133 0.751 -0.489 0.444 191 156 128
-2298.1067 3266.3613 705.4589 0.856 -0.497 0.139 191 156 129
-3189.2681 5337.0024 735.5235 0.016 -0.281 0.960 162 117 96
-2810.9353 5038.2544 503.5293 -0.167 -0.881 0.442 198 155 138
-2716.8721 4944.6030 453.1689 0.628 -0.778 0.009 188 142 125
-2762.6304 5097.4497 437.1363 0.769 -0.259 0.585 181 134 116
-2758.5225 5106.5957 429.9370 0.768 -0.260 0.585 181 134 116
-2967.8762 6529.9067 83.0727 -0.188 -0.508 0.841 207 142 114
-2483.7935 5676.7207 -35.8605 0.440 -0.896 -0.049 199 143 114
-2094.2695 5147.5098 -190.9921 0.778 -0.606 -0.167 193 147 129
-2089.2537 5156.6304 -199.0099 0.813 -0.521 -0.260 183 139 127
-2084.8840 5167.4673 -207.0867 0.813 -0.521 -0.260 190 146 137
-2029.1814 5225.1548 -279.6530 0.558 -0.661 -0.502 209 164 158
-2022.1611 5229.5615 -287.7169 0.550 -0.670 -0.499 209 164 159
-2020.9453 5249.5366 -296.3712 0.584 -0.646 -0.492 195 150 145
-1989.1455 5234.0601 -319.5104 -0.403 -0.847 -0.348 195 150 145
-1928.5698 5258.2402 -383.8603 0.483 -0.616 0.623 227 185 187
-1912.2878 5261.1978 -399.8188 0.590 -0.568 0.573 237 197 198
-1905.7769 5267.3213 -408.0669 0.899 -0.422 0.119 238 197 198
-1894.4219 5259.6211 -415.5082 0.938 -0.345 0.018 238 196 199
-1896.6250 5315.9404 -434.7760 0.454 -0.794 -0.404 242 199 202
-1896.1066 5339.7695 -444.2507 -0.229 -0.861 -0.453 242 199 202
-1876.9088 5334.8521 -459.8918 -0.369 -0.896 -0.246 249 195 202
-725.3591 3918.4238 -974.4482 -0.312 -0.857 -0.411 231 115 102
-572.1582 4044.7163 -1161.8026 -0.161 -0.880 -0.447 251 79 97
-216.4616 3337.0032 -1218.6667 0.221 -0.492 -0.842 228 41 50
-223.2054 3630.7551 -1323.4919 0.800 -0.403 -0.444 245 69 75
-183.5930 3284.3823 -1228.7479 0.309 -0.918 -0.247 234 111 94
-3601.1162 4191.0889 1529.8394 -0.325 -0.606 0.726 194 165 153
-4389.4814 5189.8511 1867.9307 -0.763 -0.610 -0.215 204 171 153
-3926.3384 4771.1343 1605.3628 -0.563 -0.699 0.440 154 110 78
-3419.2776 4419.8188 1277.1343 0.433 -0.842 0.323 166 124 95
-3400.8357 4417.4258 1261.2443 0.281 -0.668 -0.689 175 141 105
-3406.6594 4436.4751 1259.2999 0.316 -0.624 -0.714 178 138 98
-3276.6033 4293.9634 1195.0560 -0.385 -0.915 0.123 186 87 56
-3352.2124 4453.2461 1203.3162 0.160 -0.597 -0.786 206 58 58
-3366.0732 4495.4102 1199.8965 0.105 -0.936 -0.335 238 129 115
-3370.8999 4513.7285 1197.3219 0.020 -0.941 -0.337 225 149 128
-3330.4148 4469.2524 1177.3666 0.634 -0.754 -0.170 207 160 133
-2348.3096 3313.3765 722.5728 0.619 -0.599 0.509 164 124 101
-2344.9216 3317.4949 717.9189 0.615 -0.595 0.517 170 132 108
-2339.4204 3318.4937 712.5271 0.615 -0.595 0.517 171 133 110
-3098.2598 5101.9185 725.0933 0.270 -0.687 0.675 201 159 137
-3001.5417 5237.1909 585.5012 0.664 -0.436 0.608 197 155 133
-3003.2268 5256.8691 579.5471 0.660 -0.438 0.610 199 157 135
-2820.5217 5039.5610 495.8059 -0.157 -0.885 0.437 190 147 128
-2782.7585 5035.1328 463.0892 0.468 -0.827 0.312 179 132 112
-2771.6038 5047.3252 448.2867 0.333 -0.908 -0.256 182 135 116
-2770.3145 5112.0449 422.4813 0.827 -0.395 0.400 191 144 124
-2690.9563 5061.8872 369.2750 0.784 -0.565 0.256 204 156 136
-2506.1814 5618.1680 -10.7643 0.107 -0.941 -0.320 202 153 132
-2520.4529 5673.1562 -18.6904 0.158 -0.556 0.816 202 153 132
-2519.4951 5693.1772 -27.1826 0.139 -0.557 0.819 202 153 132
-2511.4590 5696.8345 -35.8955 0.074 -0.921 -0.382 202 153 132
-2217.6951 5112.5117 -81.1327 0.123 -0.953 -0.275 205 159 138
-2224.7961 5150.0327 -88.9433 0.253 -0.960 0.120 205 159 139
-2228.7563 5201.2910 -104.8434 0.116 -0.427 0.897 204 159 139
-2120.4617 5127.2119 -175.3068 0.081 -0.660 0.747 214 168 153
-2055.8123 5227.0356 -272.1934 0.383 -0.600 -0.703 226 179 173
-2048.8384 5231.5591 -280.2680 0.383 -0.638 -0.668 226 179 173
-2040.2693 5231.8911 -288.2009 0.315 -0.675 -0.667 226 179 173
-2031.8005 5232.4795 -296.1399 0.549 -0.665 -0.507 226 179 173
-2028.9287 5247.9839 -304.6567 0.578 -0.651 -0.493 219 172 166
-2021.8646 5252.3833 -312.7664 -0.504 -0.806 -0.309 219 172 166
-1998.8142 5237.1572 -327.9707 -0.445 -0.842 -0.304 219 171 166
-2004.8167 5276.9780 -337.6574 -0.065 -0.399 -0.915 232 185 181
-1997.5765 5304.9609 -354.9030 -0.380 -0.503 -0.776 232 186 182
-1988.3815 5327.9907 -372.0443 -0.376 -0.503 -0.778 245 199 195
-1952.1603 5251.9282 -376.0940 0.355 -0.689 0.632 246 200 196
-1916.8802 5274.6919 -416.8974 0.898 -0.420 0.129 247 200 199
-1938.0140 5384.8955 -439.5859 0.957 -0.278 0.087 249 202 201
-1933.5432 5397.4902 -448.4521 0.957 -0.278 0.087 249 202 201
-1929.0544 5410.1357 -457.3540 0.957 -0.278 0.087 249 202 201
-1920.2257 5436.1719 -475.3058 0.948 -0.304 0.094 252 203 200
-1916.4148 5451.1191 -484.4663 0.951 -0.295 0.094 253 203 200
-1819.5590 5427.2778 -563.6285 -0.788 -0.583 -0.196 242 186 186
-1880.6836 5643.3706 -590.1844 -0.474 -0.681 -0.558 232 176 176
-512.1331 2619.1965 -685.9927 -0.586 -0.432 -0.685 232 122 111
-587.5200 4067.8853 -1168.6576 -0.581 -0.632 0.513 249 79 99
-331.2589 3747.2966 -1280.1017 -0.496 -0.552 -0.670 244 71 83
-322.4405 3778.7615 -1300.1102 -0.420 -0.515 -0.748 237 37 58
-230.8544 3180.3674 -1155.8081 -0.242 -0.780 -0.577 197 1 18
-226.9491 3269.4128 -1193.2548 0.476 -0.398 -0.784 199 12 25
-226.5594 3341.7910 -1221.1554 0.533 -0.369 -0.762 214 25 37
-189.5243 3308.3655 -1242.1732 0.243 -0.770 -0.589 225 115 93
-3428.0171 4420.0737 1270.4537 0.451 -0.892 -0.005 171 129 105
-3431.5674 4435.9712 1267.5914 0.035 -0.904 -0.425 168 131 105
-3418.6865 4429.9175 1258.1844 0.039 -0.908 -0.417 166 136 102
-3432.8796 4460.2036 1259.4960 0.422 -0.792 -0.441 175 135 98
-3361.4253 4454.1704 1196.7505 0.154 -0.594 -0.789 205 64 62
-3371.9343 4491.6333 1191.9562 0.131 -0.937 -0.324 240 128 115
-3380.0759 4514.4814 1190.6093 0.023 -0.945 -0.325 228 149 128
-2388.4487 3246.8354 773.7405 -0.106 -0.846 0.523 207 171 147
-2358.7358 3319.4744 718.8383 -0.031 -0.921 0.389 152 111 89
-2350.3525 3316.2314 712.4487 -0.029 -0.922 0.386 147 106 84
-2264.1309 3422.2732 593.2898 0.296 -0.629 0.719 199 164 139
-2990.6338 5135.9766 597.7532 0.812 -0.294 0.505 192 150 128
-2999.0356 5167.0146 593.5033 0.460 -0.379 0.803 193 151 129
-2974.5784 5155.9619 575.4728 0.470 -0.409 0.782 193 151 129
-2422.6997 5221.5171 47.8595 0.031 -0.999 0.039 205 153 132
-2415.6367 5225.5874 39.8683 0.018 -0.999 0.037 204 155 135
-2492.3992 5652.6143 -53.9565 0.405 -0.727 -0.555 207 160 140
-2399.1172 5456.5737 -63.7296 -0.425 -0.710 0.561 208 161 141
-2373.7478 5440.1523 -80.5325 -0.291 -0.895 0.339 208 161 141
-2339.4167 5445.7031 -113.9186 -0.543 -0.466 0.698 209 164 145
-2301.7412 5377.1035 -121.9216 -0.429 -0.498 0.754 216 171 152
-2273.0657 5329.6841 -129.8506 -0.471 -0.481 0.739 217 172 153
-2249.6726 5294.6851 -137.7314 -0.471 -0.481 0.739 217 172 153
-2177.6780 5183.4731 -160.6449 0.048 -0.647 0.761 221 175 160
-2162.2939 5188.4463 -176.5585 0.289 -0.621 0.729 221 175 160
-2144.6868 5166.3188 -184.1063 0.416 -0.569 0.709 219 173 158
-2060.5059 5239.6934 -288.8829 0.383 -0.597 -0.705 231 184 178
-2042.1440 5237.2134 -304.6504 0.585 -0.641 -0.497 231 184 178
-2037.2896 5247.4253 -312.9854 0.584 -0.646 -0.492 237 190 184
-2037.9514 5272.4219 -321.9662 -0.460 -0.782 -0.422 237 190 184
-2028.5367 5270.6362 -329.8536 -0.469 -0.770 -0.432 237 190 184
-2008.0247 5358.2222 -382.1089 -0.376 -0.503 -0.778 247 199 195
-1093.0811 6055.1270 -1482.3401 -0.110 -0.991 -0.071 244 84 86
-584.0544 4044.7942 -1175.0696 -0.606 -0.615 0.504 249 65 91
-466.4883 4771.5674 -1560.7473 0.670 -0.583 -0.460 238 81 96
-350.0761 3905.9919 -1334.8898 -0.395 -0.775 -0.493 244 71 83
-304.4559 3558.5349 -1243.2162 -0.522 -0.850 0.073 238 26 52
-236.7980 3200.5203 -1167.5602 0.211 -0.958 0.192 197 1 18
-233.9865 3230.8965 -1181.7657 -0.116 -0.637 -0.762 193 3 18
-3689.3674 4266.8896 1552.8855 -0.329 -0.608 0.723 199 169 159
-3694.8767 4458.8594 1483.7615 0.182 -0.426 0.886 156 110 77
-3642.1921 4424.8799 1448.9421 0.262 -0.305 0.916 160 116 77
-3284.5486 4024.0149 1278.3048 -0.541 -0.665 0.514 178 137 93
-3672.6240 4617.8853 1402.0972 0.336 -0.696 -0.634 183 144 103
-3427.8562 4419.5786 1255.9481 -0.012 -0.924 -0.382 184 151 128
-3425.1140 4427.0630 1250.5620 -0.014 -0.924 -0.381 178 147 118
-3299.9539 4292.2153 1188.7463 0.804 -0.578 0.140 190 101 73
-3373.1919 4458.5693 1191.1466 0.154 -0.594 -0.789 205 62 62
-3376.2661 4474.2422 1187.8914 0.150 -0.589 -0.794 229 85 86
-3378.1221 4488.3125 1184.1462 -0.150 -0.880 -0.451 240 128 116
-3384.6482 4508.8784 1182.1425 0.122 -0.935 -0.334 227 147 127
-2393.4431 3245.0801 768.2359 -0.200 -0.740 0.642 213 177 153
-2363.5032 3317.2222 713.1302 -0.031 -0.921 0.389 140 98 76
-2357.0801 3316.8750 707.4196 -0.227 -0.934 0.275 119 78 56
-2349.2681 3314.4702 701.2394 -0.237 -0.931 0.279 129 88 66
-2252.0203 3463.0928 555.3488 0.655 -0.656 -0.373 170 140 120
-2250.9333 3481.7695 547.1467 0.242 -0.221 -0.945 190 160 140
-2283.8948 3577.0962 540.3265 0.627 -0.236 -0.742 197 164 147
-2981.4199 5135.6685 573.1503 0.525 -0.389 0.757 186 144 122
-2973.3801 5137.5273 565.1165 0.470 -0.409 0.782 186 144 122
-2973.2783 5169.8682 552.5341 0.325 -0.223 0.919 184 142 120
-2954.8792 5153.2104 542.2241 0.289 -0.231 0.929 179 137 115
-2811.1279 5104.6753 430.1574 0.347 -0.823 0.449 194 147 127
-2785.4753 5073.3076 418.9280 -0.083 -0.680 0.728 194 147 127
-2457.5100 5339.3149 17.7558 -0.206 -0.967 0.149 211 163 143
-2392.2986 5253.3481 -8.3857 -0.274 -0.936 -0.221 211 163 143
-2393.8303 5277.0791 -16.1565 -0.259 -0.942 -0.211 211 163 143
-2389.7268 5288.1328 -24.1594 -0.227 -0.949 -0.218 210 162 142
-2380.0847 5455.3315 -97.5046 -0.334 -0.913 0.236 216 171 152
-2371.8362 5501.4561 -122.8237 -0.513 -0.442 0.736 216 171 152
-2339.2515 5445.5566 -130.8871 -0.508 -0.440 0.741 223 178 159
-2194.0276 5181.1401 -160.9221 0.041 -0.648 0.761 228 182 167
-2182.0103 5173.0493 -168.7330 0.042 -0.723 0.690 228 182 167
-2148.2351 5132.6367 -183.8609 0.562 -0.728 0.393 228 182 167
-2144.6836 5145.1592 -191.9287 0.578 -0.723 0.378 226 180 165
-2091.1558 5251.6240 -281.7539 0.424 -0.603 -0.676 237 193 184
-2041.3093 5235.3730 -320.8373 0.316 -0.665 -0.677 243 196 190
-2039.4907 5253.6431 -329.5479 -0.464 -0.766 -0.445 243 196 190
-2042.1426 5355.0049 -366.2800 -0.377 -0.494 -0.783 245 197 193
-2038.0309 5367.9121 -375.0061 -0.363 -0.515 -0.776 245 197 193
-1932.1899 5173.6733 -396.3057 0.381 -0.449 0.808 247 199 195
-898.3149 5080.0366 -1300.9500 -0.134 -0.916 -0.379 255 12 48
-745.1044 4466.2607 -1203.3323 0.542 -0.671 -0.507 249 50 73
-745.4097 4601.4360 -1255.2584 0.864 -0.197 -0.463 255 133 130
-337.4819 3694.5010 -1276.2124 0.506 -0.357 0.785 245 72 84
-309.6933 3560.0579 -1249.5784 -0.491 -0.868 0.072 238 26 52
-3458.8489 4104.8237 1392.0203 0.242 -0.665 0.707 167 124 96
-3479.3501 4139.8809 1397.0283 -0.194 -0.552 0.811 165 120 89
-3365.0312 4008.4338 1344.1918 -0.094 -0.488 0.868 161 116 83
-3688.2393 4626.4473 1397.7317 -0.003 -0.556 0.831 187 148 107
-3284.2734 4206.5879 1193.6626 0.822 -0.563 0.092 212 184 167
-3380.9771 4457.5059 1184.0043 0.149 -0.594 -0.791 204 62 61
-3390.3264 4493.2417 1178.6060 -0.150 -0.880 -0.451 237 125 113
-3390.6609 4505.2715 1174.2306 -0.164 -0.880 -0.446 228 147 129
-2398.0251 3234.1152 765.9394 -0.340 -0.619 0.708 219 183 159
-2381.8496 3228.4453 753.4338 -0.096 -0.808 0.582 201 165 141
-2369.7822 3219.9172 745.7764 -0.120 -0.811 0.572 186 149 125
-2357.2095 3210.6191 737.9587 -0.092 -0.871 0.483 162 127 102
-2341.1958 3204.9609 725.5958 0.797 -0.421 0.434 134 92 68
-2350.3716 3288.7629 701.3418 -0.108 -0.983 -0.146 128 86 64
-2355.8103 3305.7642 699.6747 -0.159 -0.983 -0.087 99 58 36
-2352.2407 3309.5886 694.9404 -0.118 -0.988 -0.094 111 70 48
-2314.7288 3272.3364 675.3157 0.156 -0.913 -0.378 200 158 136
-2473.7183 3688.9600 657.8447 -0.520 -0.558 0.646 198 166 141
-2990.6450 5135.8223 565.1426 0.286 -0.513 0.809 184 142 120
-2977.5403 5128.6997 555.9949 0.286 -0.513 0.809 184 142 120
-2962.5117 5134.2593 540.1642 0.319 -0.261 0.911 181 139 117
-2947.5159 5123.6514 530.6524 0.291 -0.232 0.928 172 130 108
-2816.9478 5098.8013 421.5712 0.772 -0.537 0.341 199 152 132
-2466.8145 5360.2925 1.4149 -0.115 -0.990 0.082 216 168 148
-2459.8530 5365.1221 -6.7952 0.527 -0.844 -0.101 216 168 148
-2420.0754 5484.3979 -89.3703 -0.224 -0.719 0.658 220 173 153
-2380.4321 5522.2207 -140.1378 -0.471 -0.360 0.805 228 183 164
-2214.4375 5362.4473 -228.9527 -0.046 -0.991 0.123 230 184 169
-2196.5203 5362.5190 -245.2760 0.028 -0.986 0.164 239 195 186
-2187.4316 5362.2085 -253.4210 -0.207 -0.777 0.595 245 201 192
-2165.3862 5329.0337 -260.5657 -0.281 -0.686 0.671 250 206 197
-2177.2957 5404.9761 -279.2760 0.414 -0.811 0.413 241 197 188
-2064.6018 5344.2563 -358.1479 -0.000 -0.467 -0.884 234 187 181
-1953.4841 5725.9941 -607.7024 -0.502 -0.686 -0.526 247 191 190
-934.2902 5198.4932 -1329.4307 -0.400 -0.742 -0.538 252 15 49
-852.2983 5187.9185 -1399.8864 -0.629 -0.777 0.017 255 121 126
-771.9285 4726.9980 -1293.6815 0.694 -0.409 -0.592 255 132 129
-809.0901 5384.8735 -1515.7987 0.769 -0.629 -0.113 255 121 134
-341.0917 3551.3589 -1228.1893 0.873 -0.412 0.260 232 77 84
-249.0616 3176.0095 -1165.8765 0.856 -0.431 0.284 201 0 19
-3678.9802 4234.0659 1527.7805 -0.330 -0.612 0.719 197 165 156
-3617.2434 4189.6084 1489.0831 -0.212 -0.597 0.774 183 153 142
-3574.5398 4148.0347 1466.5564 -0.322 -0.666 0.673 184 152 138
-3530.3079 4104.4243 1443.4384 -0.363 -0.673 0.644 191 158 141
-3543.3779 4198.5469 1418.4403 0.108 -0.897 0.429 159 118 88
-3641.8672 4381.5732 1436.2515 0.269 -0.312 0.911 167 124 89
-3523.5024 4285.4551 1366.3225 -0.356 -0.674 0.647 181 142 99
-3400.5474 4506.9785 1167.7660 0.124 -0.939 -0.321 229 148 130
-2411.9719 3244.9934 763.6497 -0.367 -0.606 0.706 218 182 158
-2383.4490 3221.9255 746.7617 -0.090 -0.821 0.564 175 139 115
-2366.6995 3206.7634 737.4775 -0.127 -0.858 0.498 158 122 98
-2358.7600 3221.2993 724.5657 0.827 -0.444 0.345 118 73 50
-2350.5259 3279.8496 694.1406 0.046 -0.989 -0.141 111 69 47
-2358.7727 3300.9009 693.3885 -0.049 -0.993 -0.104 85 44 22
-2359.0771 3310.3972 689.9445 -0.115 -0.988 -0.102 96 55 33
-2322.4663 3274.5930 670.6951 0.164 -0.910 -0.380 199 157 135
-2294.5916 3594.3464 520.0753 0.449 -0.559 0.697 200 163 145
-2292.7024 3601.9614 515.3745 0.511 -0.409 0.756 204 167 149
-2280.8464 3593.2380 508.0158 0.458 -0.439 0.773 196 160 144
-3140.7563 5189.2192 664.3169 0.007 -0.362 0.932 206 164 140
-2997.0815 5131.0405 556.5172 0.271 -0.507 0.819 195 153 131
-2983.1721 5122.5142 547.2149 0.267 -0.509 0.818 195 153 131
-2933.2112 5081.8652 517.7291 0.289 -0.231 0.929 187 145 123
-2902.9983 5043.8457 505.1632 0.252 -0.221 0.942 187 144 125
-2830.6101 5041.6133 440.2398 0.759 -0.524 0.386 208 161 141
-2827.3479 5051.9429 433.2275 0.756 -0.525 0.390 208 161 141
-2820.2683 5088.3018 412.5466 0.772 -0.537 0.341 209 162 142
-2448.8198 5444.2334 -64.5433 0.618 -0.731 0.290 223 176 156
-2426.7148 5478.5078 -98.0648 -0.224 -0.719 0.658 226 179 159
-2399.0078 5500.4365 -131.8414 -0.548 -0.466 0.694 227 182 163
-2367.0508 5468.5396 -148.3916 -0.294 -0.354 0.888 232 187 168
-2243.5049 5367.9307 -221.2703 0.351 -0.777 0.523 233 187 172
-2233.9973 5366.6777 -229.4212 0.350 -0.787 0.509 233 187 172
-2222.1401 5359.5645 -237.4120 0.361 -0.803 0.474 233 187 172
-2207.0703 5344.3691 -245.1560 0.390 -0.791 0.471 236 192 181
-2192.2822 5352.1699 -261.6543 -0.199 -0.777 0.597 236 192 183
-2184.7092 5355.6479 -269.9005 -0.200 -0.774 0.601 236 192 183
-347.4355 3564.5818 -1238.1505 0.711 -0.602 0.363 233 78 85
-235.4709 3419.4460 -1283.0562 -0.116 -0.923 -0.366 254 72 79
-230.1185 3416.4517 -1286.7480 -0.309 -0.862 -0.403 245 85 85
-3567.9243 4130.1001 1453.7462 -0.330 -0.668 0.667 184 152 137
-3531.2227 4095.6150 1434.0133 -0.369 -0.682 0.632 186 153 135
-3224.8035 3834.5139 1258.6827 -0.006 -0.426 0.905 173 129 96
-3129.6404 3725.8062 1215.1301 -0.258 -0.569 0.781 174 129 96
-3597.5286 4326.0669 1403.3075 0.417 -0.342 0.842 175 133 95
-3604.4512 4345.0762 1402.0951 0.323 -0.426 0.845 181 139 99
-3520.5564 4271.1201 1355.0656 0.008 -0.690 0.724 183 141 99
-3511.0139 4353.2729 1313.9774 -0.674 -0.676 0.297 187 148 107
-3305.1299 4265.8438 1161.4434 0.806 -0.553 0.212 189 74 73
-3300.4446 4270.3657 1155.4026 0.806 -0.553 0.212 204 64 67
-3398.3479 4457.8042 1170.3757 0.935 -0.311 0.169 213 67 66
-3406.8823 4503.8120 1159.9731 0.347 -0.895 -0.281 227 148 130
-3391.4238 4505.7866 1145.1506 0.134 -0.901 -0.413 201 164 138
-2382.6077 3203.4507 742.6208 0.096 -0.983 0.157 173 137 113
-2374.3823 3208.9114 732.9935 -0.092 -0.876 0.474 128 92 68
-2365.2793 3230.4517 716.2237 0.855 -0.426 0.295 101 56 33
-2371.1389 3247.5601 714.7955 0.847 -0.457 0.271 101 56 33
-2373.3276 3286.0435 701.5975 0.922 -0.308 -0.234 96 51 28
-2353.7502 3275.4463 687.9942 0.530 -0.711 0.461 93 52 30
-2365.1309 3301.0134 688.2436 -0.045 -0.996 -0.082 82 41 19
-2361.4731 3304.6902 683.4698 0.633 -0.742 -0.223 89 48 26
-2320.2048 3280.1245 655.6738 0.757 -0.649 0.079 198 157 135
-2326.9749 3299.2390 654.2809 0.867 -0.491 0.086 199 159 137
-2414.7390 3506.6145 652.1757 0.660 -0.718 0.221 203 167 141
-2280.4875 3581.8384 500.5300 0.460 -0.434 0.774 192 158 143
-2272.3555 3579.1780 494.1923 0.540 -0.468 0.700 197 164 147
-3105.2786 5144.3457 633.2130 -0.086 -0.393 0.915 205 165 140
-3065.0574 5091.2031 617.6452 -0.044 -0.378 0.925 205 165 140
-3008.7881 5119.5703 555.3332 0.775 -0.309 0.551 208 166 144
-2999.6731 5119.5122 547.0754 0.291 -0.513 0.808 200 158 136
-2943.3833 5067.9180 516.2991 0.291 -0.268 0.918 201 159 137
-2742.3540 4911.2671 395.4920 0.397 -0.735 0.550 209 162 142
-2655.5547 5449.6997 104.1622 -0.771 -0.623 0.134 219 165 141
-2422.6274 5469.2231 -115.1450 0.225 -0.903 0.365 226 179 159
-2422.3030 5490.0269 -123.6493 0.223 -0.899 0.376 227 182 163
-2411.1809 5485.6992 -132.0454 -0.612 -0.743 0.270 227 182 163
-1515.8300 4660.4053 -619.7485 0.044 -0.998 -0.049 247 186 183
-327.2917 3463.0874 -1226.9893 0.441 -0.889 0.123 233 46 62
-315.8275 3452.4194 -1233.1941 0.530 -0.818 -0.224 235 21 47
-319.9835 3563.9692 -1273.4385 -0.611 -0.734 0.297 234 13 41
-251.3433 3283.1113 -1224.9622 0.678 -0.293 -0.674 209 22 35
-2996.1824 3484.6304 1177.3408 0.011 -0.441 0.898 167 130 111
-2969.0171 3484.6184 1152.6812 0.397 -0.624 0.673 174 128 95
-2972.7192 3497.4827 1150.9298 0.404 -0.625 0.668 174 128 94
-3630.3606 4495.0957 1351.5443 -0.675 -0.678 0.290 186 149 107
-3438.2363 4270.0542 1266.5461 -0.658 -0.688 0.305 184 148 110
-3397.4392 4388.9536 1182.2502 0.485 -0.193 0.853 203 64 72
-3395.0144 4430.3828 1163.5834 0.935 -0.289 0.205 214 83 78
-3404.2700 4454.1958 1162.5229 0.934 -0.314 0.173 211 68 67
-3410.0957 4473.4673 1160.1532 0.832 -0.435 0.344 211 70 72
-3405.9597 4490.7559 1149.5266 0.124 -0.877 -0.464 227 150 131
-3399.8074 4493.8735 1142.7018 0.077 -0.778 -0.623 207 159 135
-3388.5295 4489.9780 1134.0106 0.080 -0.827 -0.556 200 165 140
-2386.2773 3208.4399 733.3510 -0.097 -0.857 0.506 98 62 40
-2375.2993 3210.0325 722.7507 -0.082 -0.995 0.064 84 49 27
-2365.5198 3292.4226 681.1269 0.624 -0.768 -0.147 77 39 18
-2366.1851 3302.3872 677.7707 0.633 -0.742 -0.223 79 41 20
-2351.0576 3400.3940 625.0848 0.489 -0.808 0.329 201 167 142
-2404.4709 3490.8975 637.6118 0.623 -0.620 0.478 198 166 141
-2398.8740 3492.2061 632.0101 0.623 -0.620 0.478 198 166 143
-2281.7478 3400.0811 562.2800 0.771 -0.619 -0.150 12 4 1
-2282.8145 3411.5244 558.7006 0.779 -0.616 -0.116 22 12 5
-2978.7844 5051.1504 538.9585 0.466 -0.378 0.800 211 169 147
-2969.3362 5050.3135 530.7127 0.720 -0.260 0.644 207 165 143
-1527.6113 4674.1870 -628.8013 0.027 -1.000 0.015 227 166 163
-1495.9324 4670.3916 -656.0554 0.017 -0.996 -0.089 244 183 182
-1491.8553 4681.8716 -664.3198 0.129 -0.991 0.032 248 187 186
-788.9426 4486.6138 -1224.9203 -0.806 -0.576 -0.135 253 11 47
-724.5018 4708.4922 -1371.6102 -0.643 -0.759 -0.103 249 84 101
-632.0040 4126.0225 -1224.1002 -0.524 -0.627 0.577 251 75 96
-336.8616 3455.2493 -1225.4846 0.449 -0.882 0.143 234 60 72
-255.8366 3148.0891 -1176.9749 0.337 -0.679 -0.653 198 1 19
-257.6596 3375.6592 -1265.7635 0.637 -0.280 -0.718 225 36 48
-219.5220 3255.8936 -1252.7914 -0.021 -0.743 -0.669 228 114 95
-2976.1809 3451.9128 1160.5590 -0.173 -0.605 0.777 166 126 105
-2955.0989 3434.5093 1148.3942 -0.057 -0.579 0.813 168 125 104
-2991.9028 3520.7605 1147.2697 0.383 -0.897 0.220 180 131 97
-2985.9570 3521.8647 1141.4321 0.383 -0.897 0.220 184 134 100
-2985.3733 3529.5808 1137.8142 0.519 -0.832 0.195 187 136 104
-3161.5591 3923.6182 1139.9788 0.585 -0.700 0.409 192 170 154
-3158.7773 3929.7185 1135.0129 0.643 -0.658 0.392 198 179 169
-3323.0779 4172.8398 1186.7957 -0.360 -0.576 0.734 229 209 197
-3233.8982 4066.8669 1148.2866 -0.357 -0.571 0.740 227 209 194
-3404.6143 4376.1533 1179.4091 0.477 -0.167 0.863 181 82 90
-3405.7483 4444.5967 1153.0442 0.934 -0.314 0.173 203 80 74
-3411.7305 4464.0161 1150.6998 0.829 -0.432 0.354 209 84 84
-2390.3738 3205.5051 727.6042 -0.097 -0.857 0.506 68 34 12
-2372.9131 3303.0237 672.7285 0.691 -0.717 -0.091 76 41 20
-2370.5601 3308.6099 668.3575 0.696 -0.709 -0.112 115 77 57
-2315.4309 3272.7456 632.6863 0.697 -0.703 0.142 198 166 141
-2421.1443 3476.9495 646.8820 0.619 -0.744 0.253 199 169 141
-2353.8228 3385.4353 622.4206 0.459 -0.805 0.375 201 170 143
-2417.3132 3490.6125 637.9370 0.255 -0.926 0.278 202 173 147
-2404.6602 3491.0305 626.2880 0.254 -0.930 0.267 190 161 138
-2291.3325 3405.1023 557.8434 0.823 -0.563 -0.076 18 12 7
-2288.3066 3410.1614 553.0729 0.823 -0.563 -0.076 22 15 8
-2290.9465 3484.0337 525.9013 0.669 -0.428 -0.608 14 7 5
-2286.2866 3496.9768 516.4926 0.455 -0.257 -0.853 18 10 8
-2286.4517 3507.4893 512.4346 0.468 -0.250 -0.848 26 18 16
-2587.0022 5247.9727 88.5431 -0.546 -0.794 -0.268 219 168 145
-872.9241 4603.7446 -1209.0116 -0.255 -0.415 -0.873 240 49 62
-879.9836 5074.2275 -1390.9141 0.220 -0.848 -0.483 254 73 96
-769.4811 4719.4048 -1349.1711 0.946 -0.310 -0.093 255 130 131
-730.4290 4750.7686 -1397.1614 0.135 -0.970 0.204 251 73 96
-2994.5652 3473.8975 1156.7417 -0.137 -0.607 0.783 166 114 84
-2970.3518 3452.7478 1143.3068 -0.093 -0.632 0.770 169 115 84
-2960.7112 3449.2180 1135.9862 0.275 -0.605 0.747 179 124 89
-2958.4163 3462.8462 1128.4120 0.753 -0.512 -0.413 181 124 88
-2959.8721 3472.8872 1125.6851 0.751 -0.513 -0.415 181 123 87
-2957.6633 3478.4722 1121.4308 0.780 -0.542 -0.312 183 126 90
-2924.4492 3504.4788 1080.8262 0.624 -0.498 0.601 197 142 103
-2869.4841 3564.5144 1006.7796 0.654 -0.528 0.542 217 195 187
-2865.3562 3568.0271 1001.6201 0.664 -0.522 0.535 225 206 196
-2439.6121 3206.2639 761.3169 0.163 -0.672 -0.722 203 162 138
-2361.2363 3122.8496 723.8571 0.608 -0.655 -0.450 162 129 108
-2358.9075 3127.8457 719.7313 0.608 -0.655 -0.450 82 52 30
-2364.5725 3144.0068 718.3553 0.607 -0.651 -0.457 62 30 7
-2400.2856 3219.2478 720.4177 0.047 -0.998 0.032 50 17 1
-2373.5295 3250.4700 683.5677 0.487 -0.815 0.313 59 27 9
-2368.2202 3251.6162 678.2905 0.487 -0.815 0.313 59 27 11
-2358.0610 3245.7737 671.4320 0.371 -0.806 0.461 58 26 10
-2375.2500 3306.2595 662.6415 0.699 -0.705 -0.122 95 63 47
-2279.0369 3209.8728 614.2336 0.242 -0.833 -0.497 194 169 142
-2345.8518 3450.1021 578.0028 -0.290 -0.749 0.596 18 4 0
-2317.5730 3536.4734 517.5436 0.708 -0.294 -0.642 24 19 18
-2306.3936 3560.1384 497.8665 0.583 -0.534 0.613 27 21 17
-2294.6077 3551.6033 490.6176 0.539 -0.408 0.737 27 20 15
-2591.6912 5257.8521 72.3301 -0.604 -0.790 -0.108 222 178 161
-1560.9127 4567.3428 -584.1858 -0.090 -0.879 0.469 242 186 182
-1548.9213 4694.2168 -646.1986 0.130 -0.902 0.411 141 87 82
-1005.8034 4836.4463 -1196.0886 -0.251 -0.729 -0.637 245 137 127
-1001.4222 4852.5371 -1206.5476 -0.275 -0.729 -0.627 242 134 124
-347.8090 3641.5239 -1311.2119 0.309 -0.946 -0.095 232 15 42
-343.0840 3650.7585 -1319.2191 0.356 -0.698 0.621 233 7 35
-331.7139 3583.9395 -1302.5990 0.173 -0.522 0.835 231 1 30
-265.0037 3149.1626 -1187.8591 0.255 -0.522 -0.814 197 2 18
-2962.2278 3442.6226 1128.4196 0.280 -0.636 0.719 171 111 75
-2965.4829 3454.7522 1126.4468 0.777 -0.549 -0.307 171 110 73
-2963.0745 3460.0305 1122.1217 0.809 -0.512 -0.288 173 111 73
-2961.3728 3466.1912 1118.0787 0.783 -0.545 -0.300 174 112 74
-2959.3735 3472.0107 1113.9047 0.784 -0.545 -0.296 182 120 82
-2955.5728 3475.6414 1108.9860 0.787 -0.539 -0.299 187 125 87
-2956.2913 3484.8425 1105.9027 0.762 -0.560 -0.326 193 131 93
-2913.1565 3498.5710 1061.2330 0.658 -0.564 0.499 194 137 95
-2858.7314 3532.7786 998.0179 0.101 -0.641 -0.761 228 199 188
-2848.2480 3527.9998 990.4552 0.120 -0.630 -0.767 226 198 186
-2817.3491 3496.7549 975.1296 0.305 -0.900 0.312 224 199 188
-2803.4517 3487.4250 966.3197 0.082 -0.880 0.468 224 198 187
-3313.5557 4243.8071 1121.6863 0.411 -0.127 0.903 208 136 134
-3369.6892 4373.1143 1120.0839 0.886 -0.439 0.148 216 135 114
-2403.7549 3198.4470 721.3203 0.378 -0.684 -0.624 66 36 16
-2396.7163 3239.8157 698.1501 0.548 -0.422 0.722 55 24 6
-2366.6074 3231.6587 674.1699 0.337 -0.463 0.820 59 28 10
-2371.7188 3247.7009 672.2917 0.456 -0.801 0.387 59 28 10
-2360.2019 3239.9187 665.0114 0.516 -0.792 0.325 58 27 9
-2361.6853 3250.8269 661.9286 0.643 -0.636 0.427 58 27 9
-2373.7739 3312.9697 647.6636 -0.139 -0.888 -0.438 174 143 125
-2325.7871 3260.7175 625.3758 0.523 -0.852 0.032 190 162 139
-2298.0994 3228.9404 613.1770 0.328 -0.813 -0.482 194 169 140
-2274.6506 3437.8635 507.1266 0.459 -0.881 -0.118 12 11 7
-2295.8503 3512.0000 496.2521 0.836 -0.153 0.527 21 20 16
-2312.7930 3559.8469 492.1893 0.569 -0.537 0.623 25 21 18
-2303.1689 3554.8247 485.5043 0.565 -0.529 0.633 25 21 18
-2284.8040 3535.6526 476.6396 0.531 -0.426 0.732 25 21 18
-2270.9048 3523.5977 468.9341 0.430 -0.398 0.810 24 19 16
-2259.0645 3525.2549 457.5295 0.505 -0.451 0.735 37 32 29
-2527.5083 4997.5698 103.2755 -0.090 -0.944 -0.318 211 173 154
-2528.1885 5016.6558 96.1457 -0.106 -0.938 -0.330 216 175 157
-1570.8743 4575.2363 -592.4102 -0.678 -0.728 -0.098 229 174 169
-1556.3453 4553.9893 -596.9555 -0.691 -0.722 -0.046 175 120 115
-1550.5957 4559.2686 -604.3098 -0.300 -0.699 0.649 144 91 85
-1537.7115 4565.6846 -618.5921 -0.021 -0.879 0.476 97 44 38
-1572.6342 4696.7969 -640.1530 0.054 -0.915 0.399 97 44 38
-1567.6520 4705.2192 -648.0874 -0.387 -0.726 0.568 97 44 38
-1557.9761 4699.0581 -654.3571 0.201 -0.901 0.384 97 44 38
-1065.7751 5057.8945 -1246.1333 0.023 -0.558 -0.830 245 137 127
-236.4681 3226.7964 -1254.6292 0.189 -0.556 -0.809 232 102 92
-3042.0652 3505.9626 1163.2528 -0.204 -0.615 0.762 161 100 66
-2979.1694 3454.7195 1127.2184 0.279 -0.593 0.755 161 98 57
-2970.0422 3451.8337 1120.1293 0.777 -0.549 -0.307 162 97 56
-2968.1069 3457.6746 1115.9891 0.783 -0.545 -0.300 163 97 55
-2965.8914 3463.1956 1111.7256 0.783 -0.545 -0.300 165 100 58
-2959.7126 3463.8962 1105.8419 0.773 -0.557 -0.304 177 112 70
-2949.5349 3476.2683 1091.5658 0.494 -0.721 0.486 193 128 84
-2860.3560 3508.5337 997.5925 -0.176 -0.473 -0.864 228 191 168
-2845.7043 3498.4023 988.4601 -0.120 -0.435 -0.892 225 191 174
-2835.6909 3494.1816 981.1141 0.485 -0.851 0.202 227 190 173
-2810.9546 3488.2349 961.1359 0.092 -0.877 0.472 227 188 170
-2793.0859 3482.4045 947.3315 0.096 -0.883 0.460 211 194 169
-2799.5710 3499.5718 946.1903 0.501 -0.495 0.710 204 197 168
-3289.8718 4201.5449 1103.4630 0.420 -0.256 0.871 211 152 138
-3280.9839 4200.3262 1095.9095 0.425 -0.255 0.869 214 145 127
-2398.3284 3182.2949 712.3738 0.571 -0.641 -0.513 64 36 15
-2377.0710 3246.4480 666.8984 0.464 -0.758 0.458 60 27 10
-2360.7344 3240.5129 654.5247 0.584 -0.659 0.473 58 25 8
-2411.7146 3452.7188 613.9813 0.537 -0.826 -0.169 125 106 90
-2408.7148 3457.8369 609.1721 0.527 -0.837 -0.146 67 58 52
-2407.4468 3465.5798 604.8588 0.192 -0.980 -0.055 30 27 25
-2397.6313 3460.4761 598.0529 0.728 -0.627 -0.277 15 10 8
-2389.4202 3457.7639 591.7230 0.771 -0.599 -0.215 18 10 6
-2389.0298 3466.8826 587.6426 0.794 -0.603 0.073 17 10 8
-2226.6409 3381.5500 475.4096 0.713 -0.701 0.005 21 20 16
-1569.6877 4572.1445 -606.3037 -0.695 -0.713 -0.090 143 90 84
-1578.9572 4693.0952 -647.3378 -0.249 -0.917 -0.310 88 35 29
-1574.4989 4703.0967 -655.4639 -0.387 -0.726 0.568 88 35 29
-1566.3970 4701.8623 -662.2990 0.083 -0.823 0.562 88 35 29
-1554.6469 4689.2114 -667.7731 0.151 -0.904 0.400 67 12 7
-1504.4528 4725.2446 -727.9702 -0.442 -0.767 0.465 250 179 177
-1028.5347 5195.8569 -1351.4362 0.799 -0.563 -0.211 236 113 100
-504.6216 4078.5427 -1369.4127 -0.102 -0.609 -0.787 253 54 80
-356.3297 3395.8613 -1224.7455 0.281 -0.298 0.912 230 62 73
-353.0614 3415.7471 -1235.8333 0.888 -0.387 0.247 226 47 61
-363.2548 3634.8232 -1316.1331 0.234 -0.856 0.461 232 25 49
-261.0833 3298.1733 -1271.1047 -0.587 -0.749 0.308 247 60 66
-2987.4451 3464.4646 1119.0488 0.674 -0.545 0.498 161 91 45
-2893.5845 3481.9836 1026.8597 0.158 -0.595 -0.788 183 120 71
-2857.0798 3495.4783 988.2559 0.103 -0.573 -0.813 215 165 135
-2851.3979 3496.8247 982.5575 0.264 -0.633 -0.728 214 166 141
-2812.3721 3489.8311 950.1021 0.417 -0.530 0.738 218 176 146
-3179.1160 4116.6738 1024.1969 0.275 -0.174 0.946 194 138 98
-2389.8682 3170.3477 699.0432 0.142 -0.971 0.190 69 38 17
-2395.7656 3238.1121 676.4971 0.304 -0.876 0.374 61 30 12
-2382.9856 3281.1809 647.2032 -0.013 -0.512 -0.859 80 49 31
-2378.7627 3319.9197 627.4385 -0.057 -0.481 -0.875 193 160 138
-2366.1584 3310.5605 619.8782 0.022 -0.518 -0.855 201 165 139
-2417.9399 3452.2708 608.4459 0.021 -0.990 -0.139 92 67 50
-2415.1069 3457.6306 603.6754 0.180 -0.984 0.013 31 20 14
-2413.7087 3465.1643 599.3091 0.159 -0.986 -0.042 13 9 6
-2404.6382 3461.2004 592.7280 0.282 -0.959 0.009 16 10 5
-2387.0051 3463.6614 575.7506 0.798 -0.600 0.056 19 14 14
-2370.9990 3449.0901 567.2551 -0.278 -0.882 0.381 12 9 8
-2238.1006 3490.8865 429.7316 0.581 -0.600 0.550 40 26 20
-2252.1487 3524.2329 428.7282 0.796 -0.577 0.182 47 27 19
-2244.3999 3522.0618 422.6061 0.713 -0.613 0.339 46 28 17
-2195.1082 3514.6099 381.0446 -0.417 -0.871 -0.260 206 168 150
-2191.6226 3519.4575 375.8941 -0.141 -0.989 -0.046 203 168 149
-1564.6163 4602.9897 -637.6668 0.129 -0.925 0.356 68 18 11
-1563.3119 4692.8179 -675.8125 0.151 -0.631 0.761 75 15 12
-1545.4679 4685.0439 -688.7691 0.215 -0.911 0.352 99 29 29
-1035.5725 5191.9048 -1358.9962 0.803 -0.550 -0.231 236 113 100
-951.3483 5312.3086 -1484.7985 -0.350 -0.403 -0.845 255 86 106
-356.9925 3405.2527 -1238.1545 0.888 -0.387 0.247 225 46 60
-355.2219 3440.7288 -1254.3562 0.920 -0.369 0.131 228 35 54
-283.2941 3205.3433 -1222.6160 0.334 -0.786 -0.521 196 2 18
-244.9102 3215.0842 -1261.3767 0.463 -0.548 -0.697 231 101 91
-2905.0686 3255.9578 1119.2097 0.319 -0.469 0.823 40 20 17
-2807.1340 3185.3569 1059.8429 0.569 -0.802 0.179 169 98 55
-2783.6423 3164.8496 1047.0828 0.505 -0.818 0.275 157 85 42
-3000.5874 3471.8833 1116.1790 0.641 -0.568 0.516 167 89 40
-2989.1414 3466.2458 1108.1576 0.805 -0.519 -0.288 168 90 40
-2970.2908 3484.5752 1083.5060 0.869 -0.475 -0.140 172 97 44
-2963.8582 3485.0105 1077.5050 0.854 -0.500 -0.148 175 100 46
-2958.7502 3487.0715 1072.0291 0.640 -0.518 0.568 175 100 45
-2952.4360 3487.6504 1066.0756 0.649 -0.527 0.549 175 100 45
-2944.5720 3486.3125 1059.5139 0.586 -0.762 0.274 175 100 45
-2933.2654 3480.7007 1051.6080 0.116 -0.929 0.352 176 101 46
-2924.7134 3478.4766 1044.7910 0.014 -0.961 0.277 176 101 46
-2906.5083 3472.6096 1030.7485 0.006 -0.950 0.311 176 101 48
-2903.1873 3476.8738 1025.9767 0.177 -0.964 0.196 175 100 50
-2889.6736 3485.2874 1010.2627 0.345 -0.624 -0.701 183 108 57
-2872.2695 3488.8435 993.0408 0.147 -0.527 -0.837 197 123 73
-2868.6238 3492.7686 988.1156 0.095 -0.590 -0.802 195 126 80
-2864.8479 3496.5413 983.1357 0.127 -0.552 -0.824 194 131 93
-2403.5378 3172.4336 699.9944 0.030 -0.941 0.337 63 31 12
-2397.3386 3172.1851 694.4879 0.042 -0.941 0.336 83 51 30
-2389.8833 3229.6082 663.9501 0.172 -0.970 0.173 77 48 32
-2384.2190 3238.8770 654.9844 0.168 -0.488 0.857 79 47 32
-2393.8459 3287.7600 643.4423 -0.013 -0.512 -0.859 82 50 35
-2390.5422 3327.8555 623.8403 -0.057 -0.481 -0.875 190 154 134
-2429.3188 3449.9287 608.3504 0.003 -0.853 -0.522 108 65 41
-2422.9221 3449.9670 602.5463 -0.029 -0.867 -0.497 57 26 8
-2421.5654 3457.5149 598.1914 -0.004 -0.873 -0.488 29 13 2
-2419.7600 3464.4265 593.6940 0.159 -0.986 -0.042 25 15 5
-2409.3679 3458.4983 586.7468 0.216 -0.976 -0.004 26 14 2
-2400.7788 3455.2422 580.3238 0.231 -0.972 -0.034 31 15 3
-2383.3853 3458.0234 563.4326 0.300 -0.953 0.036 16 5 2
-2251.2629 3512.2107 421.4276 0.801 -0.552 0.231 33 18 14
-2246.9038 3515.5559 416.0973 0.713 -0.613 0.339 31 20 13
-2244.9846 3522.9104 411.3134 0.375 -0.843 0.387 31 19 13
-2187.2361 3512.0095 363.5750 -0.291 -0.955 0.050 201 164 148
-2176.6902 3504.9890 356.9409 0.403 -0.914 -0.036 207 169 151
-2161.8152 3490.6216 349.4337 0.556 -0.809 -0.192 204 168 149
-2154.2517 3488.5286 343.4570 0.579 -0.781 -0.235 205 168 150
-1597.8470 4635.0977 -635.0684 -0.621 -0.547 -0.562 85 32 26
-1585.7664 4715.1040 -679.1484 0.339 -0.771 0.539 80 25 20
-1568.2654 4684.8901 -682.4663 0.306 -0.514 0.801 87 23 21
-1102.0421 5121.9541 -1285.4244 0.044 -0.586 -0.809 237 129 119
-1049.9496 5399.2031 -1447.4323 0.005 -0.425 -0.905 244 16 41
-1062.9849 5514.1123 -1483.2467 -0.004 -0.421 -0.907 251 8 40
-868.7808 4628.5317 -1292.0598 0.235 -0.749 -0.620 251 4 39
-2927.0034 3251.2324 1129.9552 0.778 -0.171 0.605 18 6 4
-2825.1956 3199.0686 1059.6440 0.394 -0.858 0.330 171 96 50
-2811.4937 3190.2798 1050.9188 0.370 -0.894 0.251 163 85 39
-2971.7222 3436.7600 1093.0055 0.902 -0.306 0.304 171 89 35
-2962.1479 3482.6460 1065.2062 0.652 -0.530 0.542 179 99 41
-2958.5496 3486.5593 1060.3195 0.642 -0.535 0.550 179 99 41
-2950.4226 3484.9048 1053.6600 0.647 -0.529 0.549 180 99 42
-2948.6177 3491.0469 1049.4655 -0.009 -0.946 0.324 181 99 42
-2917.4128 3485.9475 1023.3721 0.778 -0.614 0.134 183 98 45
-2915.8113 3500.8696 1015.6993 -0.022 -0.454 -0.891 183 98 45
-2911.3674 3503.8013 1010.4574 0.276 -0.508 -0.816 182 97 44
-2880.7690 3482.3052 991.7524 0.304 -0.449 -0.840 182 97 45
-2881.0942 3491.2288 988.3242 0.169 -0.520 -0.838 183 97 45
-2878.7439 3496.7983 983.8752 0.166 -0.522 -0.837 181 100 50
-2849.4094 3493.7888 958.6017 0.482 -0.496 0.722 179 108 61
-2845.7288 3497.6992 953.6418 0.506 -0.441 0.742 180 110 66
-2837.8513 3496.2285 947.1313 0.474 -0.352 0.807 180 110 65
-2413.5488 3177.7476 696.2610 -0.049 -0.841 0.539 65 36 17
-2402.2952 3170.5281 689.0952 0.054 -0.936 0.347 84 55 36
-2423.3596 3208.0833 692.4791 -0.363 -0.879 0.308 89 61 43
-2403.3892 3197.1995 678.9587 0.305 -0.833 -0.460 101 69 52
-2397.4258 3197.3281 673.5119 0.185 -0.864 -0.468 97 65 47
-2381.7456 3226.5283 647.1509 0.169 -0.484 0.858 91 59 43
-2417.1143 3330.0127 635.9691 -0.101 -0.518 -0.850 102 70 55
-2412.2717 3350.1892 623.1734 -0.098 -0.524 -0.846 184 145 126
-2382.0564 3426.9453 563.8296 0.338 -0.941 0.018 46 19 1
-2369.5720 3427.3083 552.3876 0.455 -0.889 0.045 31 9 0
-2213.1750 3379.5071 430.8884 0.617 -0.785 -0.064 34 30 27
-2210.5847 3385.2871 426.1347 0.616 -0.783 -0.089 23 19 16
-2210.4155 3394.9817 421.9377 0.638 -0.770 -0.010 21 17 14
-2219.6790 3419.9128 419.9153 0.729 -0.591 -0.344 21 17 14
-2248.4932 3507.5876 409.4009 0.706 -0.621 0.341 27 20 18
-2255.6104 3529.6643 406.6283 0.672 -0.638 0.376 27 20 18
-2243.8467 3520.9370 399.6302 0.281 -0.834 0.475 38 28 27
-2197.5161 3518.4417 358.7717 -0.315 -0.947 0.065 204 167 151
-2168.9980 3502.6423 339.5715 0.129 -0.918 0.375 206 169 151
-2161.7898 3501.1873 333.6596 0.224 -0.867 0.444 206 168 149
-1606.2554 4707.3379 -671.8798 -0.514 -0.832 -0.207 84 31 25
-1572.2793 4650.6318 -678.9521 0.356 -0.934 -0.023 86 29 25
-581.5339 2660.9336 -744.9555 0.623 -0.782 0.002 219 111 101
-1069.1726 5283.8389 -1398.0792 0.821 -0.508 -0.261 233 110 97
-1079.7054 5559.1499 -1503.3975 -0.577 -0.790 -0.209 251 8 40
-659.2437 3872.1914 -1179.9446 0.967 0.055 0.247 254 93 119
-657.8487 3901.0569 -1193.2472 0.968 0.056 0.246 253 84 111
-422.7567 4142.8369 -1506.7119 -0.440 -0.653 0.616 231 11 39
-2862.7727 3235.7961 1067.3182 0.217 -0.796 0.565 169 91 45
-2816.8357 3188.8960 1045.4946 0.377 -0.892 0.247 168 86 39
-2930.7393 3510.7891 1013.2631 -0.020 -0.452 -0.892 188 95 41
-2929.9900 3518.3711 1009.4016 -0.020 -0.452 -0.892 186 94 40
-2930.7510 3527.8796 1006.0962 0.200 -0.575 -0.793 182 90 36
-2932.7146 3538.9409 1003.2256 0.373 -0.371 -0.850 182 90 37
-2884.5024 3495.2859 977.9827 0.282 -0.652 -0.704 181 93 40
-2884.3259 3503.6213 974.3226 0.106 -0.593 -0.798 180 100 51
-2876.8035 3502.6599 967.9272 0.290 -0.632 -0.718 176 100 51
-2873.5977 3507.1851 963.1293 0.255 -0.693 -0.675 179 100 47
-2855.5562 3492.7922 952.8669 0.501 -0.523 0.689 178 98 46
-2843.8455 3486.4250 944.9562 0.502 -0.433 0.748 174 96 47
-2832.5835 3480.5981 937.2242 0.474 -0.352 0.807 175 96 46
-2818.5454 3471.1699 928.4954 0.444 -0.321 0.837 174 96 45
-2805.2234 3462.6145 920.0473 0.475 -0.340 0.811 181 95 47
-2795.9004 3459.1777 913.0640 0.431 -0.526 0.733 186 94 48
-2787.1345 3456.4404 906.2905 0.493 -0.355 0.794 185 94 47
-2785.9414 3463.5125 902.2422 0.484 -0.378 0.789 186 93 47
-2539.7954 3291.3127 752.0809 0.226 -0.727 -0.649 181 108 60
-2537.9995 3297.3909 747.9052 0.232 -0.728 -0.645 158 89 41
-2525.4265 3288.8098 740.1450 0.176 -0.794 -0.582 122 60 21
-2487.3169 3245.2988 723.9725 0.158 -0.920 -0.359 83 44 10
-2479.8567 3243.5356 717.9699 0.271 -0.936 -0.226 72 41 15
-2440.2686 3197.6548 701.4567 0.024 -0.744 0.668 69 35 14
-2425.4900 3185.6821 693.1272 -0.035 -0.813 0.581 64 32 11
-2440.9006 3215.2957 694.6194 -0.362 -0.876 0.320 91 60 39
-2429.4792 3207.9407 687.3849 -0.362 -0.876 0.320 99 69 48
-2408.0691 3195.0964 673.4277 0.185 -0.864 -0.468 124 90 70
-2400.9729 3193.6475 667.6223 0.132 -0.848 -0.513 118 83 64
-2391.0071 3222.2310 646.6106 0.234 -0.804 0.548 106 71 52
-2435.9348 3347.8979 634.4430 -0.227 -0.601 -0.767 109 76 57
-2433.0278 3352.7671 629.7709 -0.227 -0.601 -0.767 132 99 80
-2450.5588 3452.4600 603.7488 -0.685 -0.697 -0.210 153 97 71
-2374.2468 3424.6123 546.4693 0.455 -0.889 0.045 69 28 3
-2321.6873 3412.1221 504.2090 -0.021 -0.702 0.712 16 9 0
-2260.3315 3336.8579 480.3608 -0.200 -0.734 0.648 17 8 1
-2251.0889 3332.0989 474.0056 0.782 -0.511 0.357 14 8 4
-2215.4395 3392.9412 416.2324 0.630 -0.776 -0.033 21 17 14
-2221.7861 3413.1201 413.4943 0.811 -0.551 -0.197 21 17 14
-2248.0029 3506.6768 397.9001 0.658 -0.609 0.442 24 21 22
-2240.4275 3504.7573 391.8593 0.620 -0.527 0.581 31 24 26
-2244.3481 3521.6492 388.3089 0.414 -0.821 -0.393 24 18 20
-1681.3975 4678.4199 -606.3130 0.295 -0.423 0.857 241 182 176
-1631.1016 4712.6812 -666.1613 -0.567 -0.425 -0.705 92 39 33
-1520.6949 4404.2910 -636.4399 0.594 -0.671 0.443 91 38 32
-1586.6726 4648.4458 -679.3420 0.354 -0.935 -0.032 92 37 32
-1082.1133 5267.3394 -1395.2988 -0.307 -0.727 0.613 227 115 99
-1076.4128 5280.2407 -1405.8693 0.818 -0.504 -0.279 233 110 97
-922.1010 4970.1260 -1415.1072 0.600 -0.731 -0.326 253 49 79
-916.0394 4979.5708 -1424.5524 0.601 -0.731 -0.323 255 90 110
-884.5652 4844.6895 -1396.3552 0.531 -0.605 -0.594 255 101 117
-870.9589 4809.9019 -1394.0437 0.418 -0.603 -0.680 255 114 124
-394.8841 3329.9856 -1202.8341 -0.438 -0.820 -0.369 241 104 114
-387.5056 3666.5674 -1350.8550 0.691 -0.480 0.541 231 22 46
-298.7708 3223.2195 -1244.8683 0.574 -0.725 -0.381 193 0 13
-289.9181 3295.3252 -1283.1515 0.849 -0.424 -0.315 232 46 57
-2864.7839 3230.3684 1060.4371 0.217 -0.796 0.565 162 84 40
-2489.6174 3239.8196 717.5403 0.149 -0.925 -0.349 125 71 33
-2482.1948 3238.1055 711.5598 0.294 -0.953 0.075 108 62 30
-2447.2122 3215.3845 689.5646 -0.189 -0.789 0.584 97 51 28
-2437.6875 3210.6724 682.9531 -0.153 -0.787 0.598 108 65 44
-2406.4119 3226.5776 647.9761 0.520 -0.773 0.363 120 81 62
-2394.6372 3218.5901 640.7167 0.215 -0.836 0.505 119 80 60
-2460.4148 3447.8438 603.2112 -0.508 -0.836 -0.209 167 109 78
-2447.3811 3447.6157 591.5338 -0.490 -0.846 -0.209 142 79 46
-2408.8909 3438.1331 560.7734 0.000 -1.000 0.028 133 66 25
-2401.0598 3435.9902 554.6051 -0.000 -0.927 -0.375 129 62 21
-2323.8206 3405.5750 497.6913 -0.021 -0.702 0.712 36 13 2
