ply
format ascii 1.0
element vertex 788
property float x
property float y
property float z
property float nx
property float ny
property float nz
property uchar diffuse_red
property uchar diffuse_green
property uchar diffuse_blue
end_header
-3396.5674 4404.3506 1724.8751 0.678 -0.629 -0.380 113 86 65
-3443.4451 4478.1626 1746.0117 0.293 -0.955 0.049 118 91 68
-3858.6555 5149.6841 1928.0074 0.105 -0.390 -0.915 120 86 59
-4314.9863 6404.9326 1975.8657 0.364 -0.464 0.807 83 41 7
-4309.1025 6413.7812 1967.8840 0.353 -0.457 0.817 115 72 38
-4282.7788 6391.6138 1950.3424 0.414 -0.330 0.848 145 105 70
-4268.4575 6387.5996 1938.4325 0.306 -0.412 0.858 167 124 90
-4277.1592 6418.7192 1937.2316 0.148 -0.454 0.878 162 119 84
-4262.2212 6413.7900 1925.0269 0.284 -0.530 0.799 155 112 79
-3989.4448 6168.0562 1747.9702 -0.831 -0.467 -0.304 87 56 33
-3921.5959 6078.6050 1712.2642 -0.789 -0.535 -0.302 90 60 39
-3734.4321 6059.6221 1546.7596 0.379 -0.579 -0.721 118 81 55
-3767.6892 6132.7842 1555.6368 -0.173 -0.489 -0.855 119 79 54
-3786.7754 6182.8081 1558.3676 -0.158 -0.461 -0.873 115 78 52
-3668.0583 6187.8071 1448.3759 -0.813 -0.480 -0.329 92 60 35
-3510.7864 6362.1206 1253.3304 0.193 -0.414 0.890 29 23 12
-3369.8274 6202.6675 1171.3872 -0.024 -0.320 0.947 137 118 101
-3347.2710 6180.7080 1157.2283 -0.036 -0.315 0.948 140 121 104
-3272.7268 6060.6460 1124.4072 -0.006 -0.322 0.947 140 121 104
-3213.8284 6009.1021 1085.7311 0.028 -0.669 0.743 143 118 97
-3250.3235 6201.9556 1062.3566 0.367 -0.240 -0.899 153 127 104
-3250.7754 6223.8379 1056.3322 0.367 -0.240 -0.899 148 125 104
-3137.5396 6278.5835 936.7161 -0.640 -0.666 0.383 25 12 3
-3117.8679 6260.5381 924.0427 -0.657 -0.669 0.347 24 11 3
-3063.7964 6237.8926 881.2773 0.703 -0.600 -0.381 22 15 9
-2993.4480 6136.0176 846.9412 0.304 -0.763 -0.571 22 15 9
-2808.7888 6031.0894 709.0106 0.475 -0.579 -0.663 31 24 18
-1895.2095 5299.9478 88.9889 -0.513 -0.800 0.312 59 35 25
-1882.4875 5288.5547 80.7113 -0.513 -0.800 0.312 74 50 40
-1903.7643 5557.1899 21.1312 0.900 -0.375 -0.221 208 179 175
-1839.5968 5446.3755 -4.9248 0.371 -0.707 0.602 254 233 228
-1633.4424 5651.2041 -253.6316 0.526 -0.086 -0.846 83 55 41
-1763.4509 6354.4585 -341.6785 0.645 -0.090 -0.759 118 62 51
-1755.7200 6363.1992 -351.3168 0.676 -0.087 -0.732 121 58 49
-1747.1820 6369.0488 -360.8424 0.559 -0.386 -0.734 138 68 61
-1747.9926 6447.4492 -383.1660 -0.718 -0.637 0.282 148 67 61
-1735.3004 6438.2754 -392.0691 -0.714 -0.641 0.282 153 68 54
-1719.3473 6416.6943 -400.3032 -0.690 -0.668 0.279 155 67 53
-1695.0945 6480.0601 -441.1145 0.876 -0.277 -0.394 150 60 44
-1679.3503 6498.6377 -460.9718 0.788 -0.599 0.141 167 73 58
-1622.5323 6559.5952 -530.8430 0.121 -0.905 -0.409 204 84 78
-1613.5833 6565.2344 -540.6825 0.121 -0.905 -0.409 206 83 78
-1592.6206 6521.3735 -546.9412 0.835 -0.476 -0.275 232 94 94
-1586.4535 6538.3384 -557.5696 0.835 -0.476 -0.275 234 93 94
-1560.6676 6516.2979 -574.6567 0.963 -0.165 -0.214 231 94 94
-1121.5784 5910.3530 -797.7722 0.015 -0.986 -0.167 239 143 129
-1120.5267 5953.3921 -811.3949 0.064 -0.986 -0.153 234 138 124
-1216.3595 6682.9438 -938.4187 -0.541 -0.836 0.093 232 131 115
-1209.0858 6699.5405 -949.9503 -0.501 -0.860 -0.102 233 132 114
-1195.0421 6678.4990 -956.5977 -0.114 -0.978 0.173 233 132 114
-389.1834 4522.9053 -1059.0930 -0.828 -0.533 -0.174 246 135 131
-125.7182 5424.5869 -1565.1945 -0.490 -0.817 0.305 223 7 30
-31.1297 3146.3381 -981.4243 0.327 -0.406 -0.853 216 32 40
-3556.9504 4642.2085 1786.5466 -0.182 -0.848 -0.497 127 97 71
-3879.1677 5151.9014 1929.5853 0.106 -0.378 -0.920 119 85 58
-3871.4878 5154.6943 1921.7399 0.106 -0.390 -0.915 120 85 57
-3897.3411 5230.2109 1922.9374 -0.574 -0.756 -0.315 117 83 56
-4289.8569 6350.3823 1948.9434 -0.012 -0.439 0.898 78 37 6
-4267.5415 6334.2388 1933.3497 -0.021 -0.464 0.885 118 77 45
-3968.3022 6135.7539 1718.9028 -0.242 -0.469 0.850 103 70 48
-3913.1780 6066.2915 1689.1665 0.147 -0.558 0.816 115 83 60
-3838.4097 5965.3203 1650.8389 0.006 -0.456 0.890 121 88 65
-3787.2366 5901.2417 1623.1136 0.011 -0.482 0.876 108 77 53
-3812.8799 6398.3779 1498.9369 -0.813 -0.479 -0.330 92 61 33
-3760.0950 6327.5332 1471.7482 -0.813 -0.479 -0.330 97 65 40
-3425.6558 6166.3940 1214.0553 0.029 -0.967 -0.253 30 21 12
-3501.7576 6326.1191 1236.1564 0.185 -0.411 0.893 29 23 12
-3472.1824 6333.0688 1207.0739 -0.240 -0.426 0.872 132 115 98
-3408.8079 6235.8267 1178.0481 -0.239 -0.426 0.873 128 109 92
-3324.4380 6098.7661 1141.6642 -0.034 -0.305 0.952 138 119 102
-3306.4209 6105.0771 1123.3302 -0.383 -0.775 0.504 140 121 104
-3229.7026 6000.4478 1084.3076 -0.402 -0.834 0.377 141 120 101
-3108.2871 6710.8096 762.4725 0.911 -0.329 -0.251 39 30 23
-2662.1458 6024.9819 558.5152 0.819 -0.451 0.356 32 24 14
-2654.7842 6031.5088 549.8519 0.819 -0.451 0.356 33 25 14
-2736.6448 6394.4219 516.8860 -0.065 -0.915 -0.398 34 24 14
-2730.9722 6406.5000 508.1176 -0.062 -0.925 -0.376 35 25 15
-1895.9830 5278.6885 80.1460 -0.467 -0.839 0.279 76 49 40
-1872.4585 5236.5850 71.1553 -0.382 -0.821 0.424 121 94 85
-1855.3661 5212.4316 62.7114 -0.381 -0.825 0.417 181 154 145
-1923.7660 5617.7437 4.8596 -0.789 -0.524 0.321 255 236 231
-1664.3906 5793.5400 -284.2956 0.509 -0.092 -0.856 112 78 56
-1753.7308 6177.3975 -316.6467 0.297 -0.841 0.453 124 80 67
-1768.9240 6339.3965 -350.8655 0.679 -0.085 -0.729 133 75 70
-1772.3508 6388.6196 -362.3495 0.680 -0.085 -0.728 129 66 62
-1762.2655 6388.9395 -371.6582 0.509 -0.393 -0.765 129 59 57
-1763.6262 6469.2144 -394.2495 -0.679 -0.697 0.229 154 78 75
-1754.3383 6472.9087 -403.8314 -0.678 -0.648 0.348 160 86 71
-1697.8616 6492.6265 -461.2818 0.908 -0.311 -0.282 162 86 68
-1686.3918 6487.9912 -470.3841 0.785 -0.600 0.150 176 99 81
-1657.0405 6534.3296 -510.9571 0.128 -0.991 -0.048 204 113 97
-1622.6395 6562.0361 -550.6113 0.277 -0.919 -0.281 207 113 99
-1616.2087 6578.0137 -561.2303 0.611 -0.680 -0.404 232 124 114
-1631.0583 6681.9634 -578.5275 0.525 -0.714 -0.464 236 122 114
-1585.7297 6537.3613 -577.0052 0.957 -0.194 -0.216 237 122 114
-1565.3395 6495.0835 -583.0808 0.966 -0.170 -0.195 235 122 114
-1562.3625 6525.4673 -594.8216 0.966 -0.170 -0.195 239 127 119
-1613.8624 6832.1270 -638.8221 0.975 -0.222 0.003 253 144 136
-1601.9690 6827.0103 -648.1685 0.962 -0.274 -0.023 252 152 142
-1525.8290 6544.4644 -633.8382 -0.352 -0.934 -0.056 246 161 148
-1531.0975 6611.8896 -649.0441 -0.203 -0.924 0.323 242 163 148
-1239.3021 6698.4902 -941.3347 -0.315 -0.945 0.091 240 145 130
-1228.1665 6693.9219 -950.1514 -0.315 -0.945 0.091 238 139 122
-1219.8756 6704.9072 -960.9875 -0.309 -0.946 0.096 239 140 121
-1203.4167 6670.6992 -965.8672 -0.091 -0.979 0.182 239 140 121
-1168.0217 6529.8774 -956.3923 0.471 -0.624 0.624 239 140 121
-1108.2134 6590.7173 -1029.0958 0.687 -0.152 0.711 235 130 109
-1102.8660 6619.0757 -1042.4010 0.666 -0.149 0.731 234 129 108
-1027.4709 6653.4971 -1121.5001 0.500 -0.728 -0.469 225 115 92
-538.7934 3758.0522 -708.2640 0.065 -0.767 -0.639 207 95 73
-597.7626 5564.5669 -1190.7603 0.766 -0.587 0.262 253 84 105
-408.3759 4587.6006 -1073.7104 -0.633 -0.726 0.268 254 162 139
-150.1692 5459.1768 -1568.3807 -0.532 -0.828 0.176 243 15 42
-142.0872 5454.8677 -1574.4849 -0.524 -0.820 0.229 234 9 35
-44.4209 3123.9771 -971.6500 0.328 -0.363 -0.872 204 16 27
-3849.9941 4922.3091 1955.2218 0.331 -0.878 -0.345 115 84 59
-3850.5127 4935.3281 1951.7943 0.289 -0.879 -0.379 118 87 63
-3850.0405 4947.0991 1947.8364 -0.265 -0.921 -0.287 121 90 66
-3919.5408 5051.2393 1980.0900 -0.663 -0.732 -0.155 124 93 69
-3893.2468 5041.8726 1958.8888 -0.706 -0.605 -0.368 129 97 71
-3884.3914 5042.8462 1950.5116 -0.705 -0.602 -0.376 129 96 69
-3943.8589 5227.1685 1949.5800 0.219 -0.338 -0.915 121 87 59
-4019.5571 5630.0225 1897.9895 0.222 -0.327 -0.919 107 78 52
-4088.9875 5885.2222 1884.9178 -0.643 -0.611 0.462 81 51 27
-4253.0205 6278.5000 1916.8499 -0.044 -0.459 0.887 86 46 17
-4214.9810 6238.5107 1894.1002 -0.035 -0.458 0.888 119 78 49
-3912.5081 6048.8638 1674.7527 0.154 -0.556 0.817 127 91 68
-3850.7942 6003.1455 1632.1036 -0.399 -0.743 -0.538 125 91 67
-3773.6599 6332.4966 1462.9940 -0.337 -0.673 -0.658 109 75 50
-3744.7881 6321.6748 1439.8751 0.106 -0.462 0.880 98 67 41
-3522.7810 6070.2236 1312.5148 -0.192 -0.677 -0.710 102 79 56
-3449.3933 6190.9966 1209.3217 0.063 -0.968 -0.243 29 20 11
-3515.2878 6331.6401 1227.3455 0.199 -0.408 0.891 27 20 10
-3342.3945 6113.3516 1134.8917 -0.259 -0.393 0.883 133 114 98
-3296.7239 6067.9727 1106.7892 -0.292 -0.452 0.843 135 116 100
-3274.1174 6085.5000 1080.8967 -0.324 -0.749 0.578 130 106 87
-3261.4475 6101.8828 1064.4199 0.525 -0.819 0.233 127 102 79
-3266.3711 6193.4932 1041.4663 0.415 -0.455 -0.788 118 92 71
-2822.3445 5930.2471 714.9264 0.191 -0.980 -0.060 43 35 28
-2826.2605 5960.4116 709.4637 0.128 -0.992 -0.003 43 35 28
-3082.1768 6581.2642 757.1021 0.074 -0.696 -0.714 47 35 28
-3066.6631 6620.9321 731.0515 0.333 -0.736 -0.589 47 34 27
-2720.8333 6209.3730 538.6082 0.752 -0.649 0.111 35 27 13
-2716.9780 6224.7827 530.4713 0.764 -0.635 0.114 35 26 12
-2750.7356 6429.1484 500.0597 -0.076 -0.993 -0.086 38 25 13
-2632.1121 6222.2866 453.7327 0.564 -0.574 -0.594 40 25 13
-2653.5498 6299.0762 450.2982 0.618 -0.424 -0.662 41 26 14
-1835.2544 5409.4263 -30.2778 -0.419 -0.733 -0.535 248 239 233
-1653.4379 5477.4521 -216.6666 0.799 -0.588 -0.129 251 248 249
-1768.5486 6196.5923 -327.0398 0.623 -0.497 -0.604 148 101 93
-1768.5410 6231.8042 -337.5972 0.672 -0.205 -0.712 150 100 93
-1766.0463 6258.4883 -347.8702 0.697 -0.075 -0.713 153 98 95
-1783.3721 6356.7754 -361.5007 0.690 -0.083 -0.719 157 96 95
-1782.7738 6391.2852 -372.3870 0.680 -0.085 -0.728 149 82 83
-1780.3967 6419.6904 -383.0683 0.569 -0.391 -0.724 137 67 68
-1773.8881 6433.2759 -393.0815 -0.397 -0.795 0.458 147 74 75
-1771.9012 6463.6392 -403.9933 -0.669 -0.707 0.232 172 99 98
-1765.8851 6479.4131 -414.2126 -0.678 -0.648 0.348 193 125 109
-1742.7312 6431.5337 -421.0072 -0.681 -0.676 0.282 193 125 107
-1724.5010 6401.5161 -428.6581 0.836 -0.540 0.092 193 125 106
-1715.1556 6404.5947 -438.1133 0.828 -0.266 -0.494 194 125 104
-1706.2507 6409.3564 -447.6706 0.861 -0.271 -0.431 198 129 109
-1702.4060 6433.4390 -458.3967 0.862 -0.271 -0.428 185 116 95
-1675.6332 6369.8755 -463.7961 0.797 -0.594 0.112 184 116 97
-1664.9484 6367.5820 -472.8647 0.790 -0.604 0.104 198 129 111
-1662.7557 6398.1895 -484.0374 0.619 -0.656 0.432 202 131 113
-1659.3655 6424.4678 -495.0066 0.632 -0.656 0.414 208 137 119
-1659.2871 6464.0488 -506.9376 0.807 -0.556 0.199 219 145 128
-1667.6935 6537.6128 -521.3041 -0.269 -0.925 0.269 224 151 133
-1658.1432 6540.6714 -530.9405 0.261 -0.915 -0.309 220 146 129
-1648.5834 6543.7061 -540.5782 0.272 -0.919 -0.286 220 146 129
-1639.6816 6549.4028 -550.4128 0.272 -0.919 -0.286 220 146 129
-1633.0951 6564.5225 -560.9569 0.253 -0.924 -0.287 220 146 129
-1625.4828 6575.6274 -571.2346 0.611 -0.680 -0.404 230 144 131
-1576.5464 6459.0635 -580.9899 0.956 -0.217 -0.196 236 141 129
-1630.7720 6815.2949 -638.2164 0.961 -0.248 0.124 247 150 140
-1623.0671 6827.9180 -649.0334 0.369 -0.663 -0.651 251 154 144
-1304.3873 6313.2925 -785.8060 0.040 -0.305 -0.952 233 151 136
-1166.3391 6523.0376 -974.6956 0.777 -0.475 0.413 236 141 123
-1155.1514 6516.3965 -982.9206 0.316 -0.674 0.668 236 141 123
-1143.9933 6509.7778 -991.1252 0.313 -0.673 0.671 236 141 123
-1133.3788 6506.1362 -999.7256 0.313 -0.673 0.671 237 141 122
-157.3319 5445.2026 -1573.0140 -0.383 -0.846 0.372 242 14 41
-148.6034 5419.9365 -1573.4131 -0.353 -0.854 0.383 233 8 34
-3342.6853 4153.6548 1708.8204 -0.036 -0.417 -0.908 103 70 46
-4132.7646 5333.3467 2073.0984 -0.699 -0.624 -0.348 132 96 67
-4112.0430 5332.7476 2054.3708 -0.694 -0.608 -0.385 132 96 67
-4171.0693 5990.3862 1909.3982 -0.644 -0.610 0.461 75 47 23
-4226.3350 6222.1958 1889.7413 -0.038 -0.458 0.888 99 62 36
-3919.1121 6025.7363 1668.7966 0.128 -0.598 0.791 110 71 45
-3910.5745 6029.5342 1659.8578 0.388 -0.531 0.754 118 77 52
-3887.3708 6010.2397 1644.5179 0.187 -0.560 0.807 121 80 55
-3862.2507 6005.0142 1623.1754 -0.395 -0.748 -0.534 139 98 73
-3539.8618 6082.2808 1305.6313 -0.192 -0.677 -0.710 106 82 60
-3518.4197 6318.1304 1214.7568 0.204 -0.400 0.893 26 18 8
-3551.6982 6440.8960 1208.0059 0.068 -0.402 0.913 101 83 69
-3491.4143 6350.3154 1180.3829 -0.217 -0.442 0.870 116 97 83
-3379.3694 6183.2466 1128.6538 -0.267 -0.408 0.873 110 92 79
-3336.7024 6123.8276 1107.6851 -0.241 -0.421 0.874 110 92 78
-3317.4165 6127.9121 1088.8516 0.079 -0.504 0.860 111 93 77
-3300.6816 6116.5869 1077.0049 0.160 -0.603 0.782 108 88 72
-3181.8594 5991.3276 1006.4503 -0.315 -0.930 -0.190 81 61 45
-3289.6008 6389.2305 984.4605 -0.682 -0.629 0.373 60 43 29
-2955.2039 5995.2725 798.4326 -0.271 -0.812 0.517 50 40 31
-2941.9385 5989.1836 788.1686 -0.279 -0.804 0.526 52 42 34
-2876.2310 6024.4819 717.5375 -0.103 -0.697 -0.709 58 49 40
-2734.2573 6217.4106 529.6539 -0.534 -0.803 0.266 50 37 21
-2720.0076 6208.7212 519.2781 0.776 -0.619 0.125 47 35 18
-2702.8999 6193.3027 508.3289 0.826 -0.555 0.100 46 33 17
-2703.1216 6218.2158 500.9988 0.817 -0.562 0.132 46 33 17
-2766.0439 6441.0942 491.0294 -0.407 -0.825 -0.391 50 30 16
-2351.8645 5759.8550 319.0575 -0.103 -0.935 -0.339 45 26 13
-1902.4357 5274.8140 55.6006 0.635 -0.385 0.670 208 174 167
-1671.2228 5755.7915 -300.8055 0.448 -0.108 -0.888 151 109 109
-1791.1877 6243.1060 -338.6745 0.811 -0.463 0.358 159 104 102
-1780.2034 6239.5508 -347.6228 0.670 -0.205 -0.714 156 100 97
-1780.9559 6277.7144 -358.4747 0.683 -0.088 -0.725 151 92 91
-1792.9893 6356.6616 -371.3638 0.684 -0.089 -0.724 147 86 85
-1800.4990 6420.1904 -383.7188 0.685 -0.088 -0.723 115 53 52
-1788.8605 6415.1006 -392.8002 0.551 -0.380 -0.743 141 79 78
-1783.3613 6432.2808 -403.0126 -0.397 -0.795 0.458 178 115 115
-1773.4629 6433.5288 -412.4224 -0.755 -0.645 0.116 205 140 139
-1766.2211 6444.5508 -422.3631 -0.775 -0.632 0.012 216 151 142
-1749.0936 6419.0698 -430.2879 -0.751 -0.651 0.109 217 150 141
-1729.5035 6384.1001 -437.5910 0.833 -0.547 0.085 217 151 141
-1724.1392 6401.9937 -447.8961 0.831 -0.267 -0.488 217 150 141
-1721.6699 6430.9834 -458.9143 0.827 -0.270 -0.493 205 138 129
-1721.4705 6468.8940 -470.5585 0.824 -0.269 -0.498 210 143 133
-1692.1687 6396.2759 -475.3406 0.731 -0.561 -0.389 216 150 140
-1681.5176 6394.3013 -484.4629 0.714 -0.564 -0.415 221 154 145
-1675.9888 6412.0425 -494.8720 0.601 -0.680 0.420 227 157 148
-1673.4554 6441.6001 -506.1204 0.370 -0.819 0.440 227 157 148
-1676.7162 6494.1157 -519.0228 0.417 -0.814 0.404 227 157 148
-1685.8456 6570.2983 -533.7258 -0.242 -0.889 0.388 227 157 148
-1676.1764 6573.0898 -543.3929 -0.212 -0.891 0.402 231 161 152
-1662.3795 6600.8755 -564.3838 -0.338 -0.920 -0.200 232 161 152
-1349.8972 7242.7935 -1043.6086 -0.186 -0.859 -0.478 229 150 136
-1187.9584 6479.3892 -960.5662 0.317 -0.409 -0.856 230 150 136
-1211.8844 6722.9834 -1012.3835 0.411 -0.830 -0.376 232 152 138
-1144.1252 6628.8760 -1045.7611 -0.628 -0.765 -0.141 236 146 130
-1045.3643 6644.4019 -1140.5757 -0.150 -0.595 -0.790 230 128 110
-3640.7417 4502.1650 1860.8062 0.120 -0.611 0.783 103 73 47
-4438.7954 5914.9634 2157.6138 0.169 -0.600 -0.782 134 95 66
-4216.9160 5914.0205 1955.5531 0.497 -0.341 -0.798 110 79 51
-4344.3677 6145.2134 2001.2565 0.732 -0.651 0.200 91 63 39
-4285.4795 6076.5601 1968.4958 0.853 -0.508 0.116 86 58 34
-4274.9604 6077.6230 1958.5784 0.865 -0.488 0.113 81 53 29
-4141.8164 6130.1479 1821.1307 0.035 -0.459 0.888 135 98 72
-3885.4709 5957.0132 1640.1680 -0.144 -0.650 -0.746 91 51 25
-3889.0244 5979.5630 1636.5293 -0.051 -0.603 -0.796 93 51 26
-3482.0974 6212.9287 1194.2305 0.486 -0.867 -0.110 26 18 7
-3517.1421 6296.6621 1200.6462 0.201 -0.404 0.893 26 18 7
-3563.1765 6400.9805 1210.8044 0.093 -0.438 0.894 28 16 6
-3556.1682 6408.7593 1202.0399 0.105 -0.402 0.910 52 38 26
-3509.7441 6344.1309 1179.4185 -0.228 -0.439 0.869 79 61 47
-3458.8853 6270.9038 1155.3755 -0.269 -0.450 0.852 94 75 60
-3356.6541 6142.0586 1101.4495 -0.327 -0.451 0.831 87 69 55
-3327.3396 6107.4302 1085.2794 0.069 -0.513 0.856 88 70 55
-3301.9316 6099.9023 1064.4047 0.160 -0.603 0.782 83 66 50
-3258.6995 6078.6182 1031.4709 0.650 -0.698 0.300 67 48 33
-3254.7148 6091.2559 1023.9819 0.649 -0.700 0.296 63 44 29
-3234.8027 6073.5425 1011.2263 0.551 -0.757 0.352 63 44 29
-3278.9500 6178.4497 1019.4838 0.555 -0.364 -0.748 63 44 29
-3273.7273 6189.1201 1011.4656 0.539 -0.373 -0.755 64 45 30
-3271.7551 6206.1172 1004.4817 0.539 -0.373 -0.755 69 50 35
-3281.4443 6352.5566 968.6444 -0.724 -0.574 0.383 66 49 34
-3003.5854 5989.6338 825.9598 -0.290 -0.624 0.726 64 51 42
-2982.9819 5968.7578 813.5383 -0.313 -0.634 0.707 55 42 33
-2941.1887 5946.3452 782.2615 0.244 -0.716 0.654 55 45 36
-2919.4648 5922.6665 769.6732 0.163 -0.893 0.419 57 47 38
-2912.7534 5929.8921 761.3483 0.244 -0.713 0.657 57 47 38
-2911.6226 5970.0835 748.0560 -0.007 -0.851 -0.524 58 48 39
-2906.7104 5981.2773 740.1614 -0.006 -0.863 -0.505 60 50 41
-2897.2295 5982.9443 731.0065 -0.010 -0.853 -0.522 58 48 39
-2868.1521 5964.8872 709.9973 -0.227 -0.577 -0.784 59 49 40
-2848.0198 6009.3828 678.0630 -0.359 -0.389 -0.849 66 48 38
-2847.5264 6030.4443 671.1880 -0.359 -0.389 -0.848 70 49 36
-2854.5615 6067.9062 666.1754 -0.361 -0.392 -0.846 74 48 36
-2789.2556 6176.6489 573.4443 0.578 -0.661 -0.480 56 43 21
-2775.1836 6192.2212 555.8605 0.500 -0.630 -0.595 58 42 21
-2773.9146 6310.2334 518.7017 -0.455 -0.890 0.038 55 39 20
-2764.2803 6387.4517 486.3589 0.419 -0.566 0.710 56 34 18
-2654.0771 6202.5327 442.2689 -0.473 -0.780 0.410 59 33 18
-2618.5764 6293.6865 382.0853 0.806 -0.574 0.145 53 31 17
-2389.8225 5807.1465 321.8945 -0.394 -0.823 0.408 52 30 16
-2220.9058 5646.3882 216.8885 0.490 -0.846 -0.209 34 21 9
-2221.6941 5797.6099 171.4751 -0.249 -0.773 -0.583 30 17 8
-1880.0992 5286.7148 15.8059 0.935 -0.347 -0.068 239 206 200
-1807.5437 6267.1152 -349.4497 0.620 -0.492 -0.611 161 105 105
-1802.0636 6283.1113 -359.3274 0.554 -0.352 -0.754 158 100 98
-1800.1829 6312.0088 -369.8582 0.687 -0.088 -0.721 153 93 92
-1809.3531 6380.5547 -382.4060 0.686 -0.088 -0.723 148 88 87
-1814.9275 6436.9688 -394.5325 0.686 -0.088 -0.723 145 85 84
-1805.5150 6440.0342 -404.0515 0.556 -0.349 -0.754 164 103 102
-1802.5974 6466.6294 -414.8255 -0.544 -0.816 0.195 191 130 129
-1784.2592 6437.3525 -422.6182 -0.749 -0.653 0.114 210 148 146
-1781.3790 6464.3286 -433.4743 -0.768 -0.640 0.011 220 155 148
-1766.2188 6446.3638 -441.8197 -0.753 -0.650 0.108 222 155 147
-1750.4257 6425.8262 -449.9572 0.889 -0.343 -0.302 222 155 147
-1723.7758 6558.2808 -514.6686 0.334 -0.649 0.684 232 161 154
-1685.8649 6452.0352 -516.8304 0.367 -0.827 0.427 232 162 154
-1683.4984 6482.4868 -528.2783 0.359 -0.830 0.426 232 162 154
-1707.4795 6616.1895 -547.1964 0.725 -0.622 0.295 232 162 154
-1699.6987 6626.6846 -557.4940 0.733 -0.618 0.284 236 166 158
-1693.6564 6644.1562 -568.3345 -0.284 -0.929 -0.237 236 166 158
-1656.2618 6578.3799 -582.3712 -0.334 -0.887 -0.319 236 166 158
-1550.8185 6235.1211 -573.8160 0.257 -0.871 0.418 243 170 164
-1691.6953 7680.8286 -886.3765 0.427 -0.606 -0.671 243 179 169
-1685.4574 7706.9697 -900.0401 0.418 -0.600 -0.682 241 177 167
-1674.6288 7712.2129 -911.5148 0.426 -0.611 -0.667 241 177 167
-1324.8782 6229.0122 -778.0043 -0.355 -0.444 -0.823 238 171 162
-1308.2798 6196.1357 -783.1121 -0.232 -0.695 -0.680 247 180 171
-1206.1477 6809.8271 -1063.4703 -0.265 -0.791 0.551 231 152 138
-1189.2410 6772.9326 -1067.6337 -0.363 -0.901 0.238 232 148 131
-1178.1447 6768.7764 -1076.4852 -0.368 -0.897 0.246 234 146 132
-1179.3495 6835.8511 -1095.8488 -0.021 -0.999 0.031 235 146 132
-1167.5067 6827.7363 -1104.1735 0.044 -0.969 0.241 235 146 132
-628.9394 5628.2490 -1229.4100 -0.662 -0.690 -0.293 254 106 112
-444.8256 4837.7305 -1156.1567 -0.428 -0.834 0.347 250 105 110
-42.6659 3297.6184 -1053.0801 0.013 -0.522 -0.853 239 58 65
-3628.5815 4476.3931 1843.0337 -0.128 -0.572 0.810 103 73 49
-4267.6055 5471.6982 2119.1255 0.719 -0.607 -0.339 144 107 78
-4275.4688 5523.2803 2110.4160 0.717 -0.546 -0.434 144 107 78
-4441.0918 5858.9233 2158.0657 0.111 -0.451 -0.885 141 102 73
-4453.3120 5920.4321 2150.2722 0.169 -0.600 -0.782 138 99 70
-4282.9565 5883.9458 2006.2334 0.666 -0.559 -0.494 119 83 51
-4136.1616 5723.1636 1921.9248 0.344 -0.640 -0.687 118 82 50
-4136.4043 5738.6191 1917.3893 0.101 -0.513 -0.852 116 80 48
-4234.0444 6003.1489 1924.9637 0.799 -0.598 -0.068 83 53 29
-4127.4707 6075.8486 1805.4526 0.210 -0.428 0.879 93 56 30
-4127.0288 6091.9580 1800.0914 0.199 -0.439 0.876 115 75 50
-3902.0706 6000.9673 1623.0615 0.392 -0.831 0.395 87 43 18
-3775.7510 6151.2344 1461.6788 0.799 -0.527 -0.290 103 64 39
-3511.9053 6248.1348 1191.3749 -0.033 -0.968 0.249 27 17 7
-3498.3787 6243.5684 1180.4518 0.154 -0.415 0.896 26 17 8
-3519.9121 6302.8057 1181.8457 -0.035 -0.460 0.887 28 16 5
-3379.4756 6125.5693 1108.3970 -0.245 -0.408 0.879 82 64 50
-3312.6038 6080.9922 1061.1676 0.079 -0.505 0.860 80 62 48
-3299.3589 6076.1460 1050.5873 0.178 -0.603 0.778 76 59 43
-3265.9441 6053.2646 1027.1742 0.040 -0.526 0.850 65 46 31
-3218.9722 6024.2920 993.2795 0.649 -0.694 0.312 62 43 28
-3044.9629 5769.7397 913.0280 -0.335 -0.878 0.342 76 58 44
-3138.2651 6113.7280 892.1928 -0.683 -0.614 0.395 76 62 49
-3108.5923 6075.8159 876.8168 -0.589 -0.808 0.001 76 62 49
-3085.5801 6050.9180 863.5056 -0.595 -0.804 -0.014 75 61 48
-3069.1138 6038.9375 852.1849 -0.595 -0.804 -0.014 71 57 44
-3049.1807 6019.9023 839.8758 -0.584 -0.812 0.004 71 57 44
-3031.5100 6005.2837 828.2696 -0.591 -0.806 0.005 73 58 45
-3019.5854 6002.1680 818.3600 -0.550 -0.703 0.452 68 54 45
-2995.9128 5975.1885 805.0878 -0.446 -0.723 0.528 63 50 41
-2973.0867 5949.7349 792.1175 -0.452 -0.724 0.520 60 50 41
-2962.1689 5948.4136 782.5732 -0.583 -0.812 0.037 61 51 42
-2946.1694 5936.6567 771.6093 -0.637 -0.722 -0.271 62 52 43
-2883.8611 5999.2510 695.5533 0.156 -0.722 -0.674 59 49 40
-2890.7102 6057.6387 683.8250 0.172 -0.381 -0.908 60 48 39
-2895.3313 6089.6826 678.1742 0.166 -0.380 -0.910 70 51 40
-2761.8032 5978.8940 590.5705 0.778 -0.534 0.332 75 54 36
-2783.0627 6357.4141 493.4444 0.825 -0.544 0.153 63 43 24
-2791.5327 6402.0762 487.4181 0.877 -0.410 0.250 64 42 24
-2662.0037 6222.6172 424.5950 -0.405 -0.895 0.186 66 39 22
-2666.4424 6359.7798 386.4241 0.570 -0.483 -0.665 60 37 23
-2640.3213 6322.2148 374.1780 0.334 -0.713 -0.617 61 38 24
-2397.7205 5827.8721 305.2134 -0.372 -0.889 -0.268 61 38 24
-2754.0728 6791.2583 333.4911 -0.094 -0.954 0.286 52 35 19
-1851.4202 5230.6528 -8.8911 0.834 -0.512 0.205 245 224 221
-1818.9900 5186.5679 -24.8807 0.788 -0.535 0.304 254 236 234
-1817.2688 6302.8896 -370.0364 0.543 -0.365 -0.756 179 121 119
-1815.5519 6332.3403 -380.6657 0.697 -0.087 -0.712 173 113 112
-1826.5090 6443.4141 -404.8658 0.688 -0.088 -0.721 188 128 127
-1822.0844 6464.3809 -415.3520 0.578 -0.312 -0.754 198 137 136
-1817.1857 6483.8550 -425.8106 -0.524 -0.825 0.210 210 149 148
-1797.1613 6448.7446 -433.2552 -0.748 -0.654 0.109 219 158 156
-1777.0540 6412.9126 -440.5532 -0.747 -0.658 0.100 227 162 157
-1715.2548 6527.4941 -532.1460 0.457 -0.664 0.592 239 168 162
-1708.6246 7652.0850 -884.3210 0.397 -0.591 -0.702 243 179 170
-1704.1571 7685.7568 -898.7565 0.427 -0.606 -0.671 243 179 170
-1292.4114 6168.4028 -807.0193 -0.411 -0.896 -0.168 224 157 149
-1281.8052 6163.4810 -815.1711 -0.422 -0.889 -0.177 243 176 168
-1126.4037 5495.4565 -751.2024 -0.290 -0.825 -0.486 243 176 168
-1207.3202 6481.2241 -980.8563 0.352 -0.470 -0.810 239 163 149
-1190.1678 6840.6660 -1107.1205 -0.022 -0.999 -0.024 235 146 132
-479.1263 4968.0981 -1178.8438 -0.514 -0.804 -0.298 255 156 141
-465.0704 4900.0874 -1170.7220 -0.665 -0.737 0.122 255 142 134
-139.3961 3611.0530 -1070.8092 -0.773 -0.623 0.121 250 57 74
-3283.7766 3990.9387 1665.1409 -0.758 -0.614 -0.221 99 71 47
-3397.5525 4267.7812 1682.8192 0.578 -0.302 -0.758 145 110 82
-3389.1106 4267.4868 1675.2208 0.588 -0.298 -0.752 146 109 80
-4402.3750 5677.3984 2160.4258 0.927 -0.374 0.015 148 111 82
-4701.5278 6132.5054 2291.6128 0.191 -0.540 -0.820 143 106 77
-4726.7988 6212.9126 2289.6658 0.593 -0.553 0.585 143 106 77
-4274.7856 5873.3853 1983.3492 0.299 -0.557 -0.775 123 87 55
-4163.7305 5732.7471 1925.8574 0.658 -0.581 -0.479 123 87 55
-4276.2158 5953.1582 1959.8822 0.345 -0.732 -0.588 117 82 52
-4244.3672 5923.5933 1940.0510 0.402 -0.745 -0.532 114 81 54
-4212.4888 5893.8237 1920.2566 0.731 -0.606 -0.313 110 80 54
-4251.5908 5997.2925 1923.7474 0.831 -0.555 -0.040 94 66 42
-4270.3140 6072.7598 1917.3693 0.809 -0.587 0.012 67 39 15
-4302.2446 6152.0200 1921.8447 0.607 -0.418 -0.675 62 36 13
-4005.7629 5878.0020 1736.8619 0.818 -0.434 0.377 96 59 33
-4100.4468 6036.2593 1773.9702 0.450 -0.384 0.806 103 63 38
-4100.2261 6069.3442 1763.4965 0.841 -0.528 -0.121 127 90 64
-3848.1375 5934.3149 1575.7944 0.120 -0.324 0.938 97 55 31
-3679.5908 5887.2422 1436.8809 -0.487 -0.457 -0.744 86 44 20
-3467.6780 6015.1216 1204.1414 0.479 -0.500 0.722 46 28 9
-3592.5503 6314.5259 1224.9220 -0.178 -0.562 0.808 27 18 9
-3514.6396 6234.2739 1178.8715 -0.236 -0.943 -0.235 24 15 6
-3527.6023 6277.6338 1177.2157 -0.535 -0.701 0.472 27 18 10
-3497.9326 6243.8467 1160.6805 -0.535 -0.701 0.472 31 19 9
-3237.0271 6019.6738 992.6271 0.142 -0.539 0.830 68 49 34
-3188.3728 5967.1001 964.6319 0.227 -0.955 -0.189 68 49 35
-3149.8369 5913.3906 946.2062 0.394 -0.909 -0.137 71 52 37
-3063.3970 5767.4946 912.7689 0.018 -0.869 -0.494 79 60 45
-3181.0442 6115.4746 911.8854 -0.276 -0.733 0.621 77 59 45
-3167.4668 6109.6851 901.3154 -0.201 -0.824 0.529 77 61 46
-3100.6829 6040.3921 861.9973 -0.634 -0.764 0.122 78 64 51
-3085.5359 6031.1011 851.0847 -0.556 -0.831 -0.022 73 59 46
-3070.0378 6021.0347 840.0931 -0.556 -0.831 -0.022 63 49 36
-3054.7852 6011.3784 829.1976 -0.455 -0.859 -0.236 62 48 35
-3035.9199 5994.3896 817.2882 -0.450 -0.857 -0.249 63 49 36
-3021.2869 5985.8003 806.6259 -0.462 -0.883 -0.083 62 49 40
-2997.7996 5959.2383 793.4788 -0.304 -0.770 0.562 64 51 42
-2987.6638 5959.5688 784.1436 -0.638 -0.766 0.074 61 51 42
-2972.7854 5950.2339 773.4891 -0.646 -0.713 -0.272 62 52 43
-2957.6782 5940.3555 762.7953 -0.641 -0.718 -0.270 63 53 44
-2938.4690 5921.9878 751.0007 -0.635 -0.715 -0.292 65 55 46
-2899.5876 5990.1802 694.4096 -0.229 -0.569 -0.790 59 49 40
-2898.6147 6009.8013 687.4308 -0.031 -0.775 -0.631 54 44 35
-2906.6868 6048.6802 682.7118 -0.327 -0.361 -0.873 54 44 35
-2927.8696 6183.0210 660.2939 -0.373 -0.396 -0.839 90 62 50
-2932.4329 6215.5986 654.3352 -0.365 -0.396 -0.842 87 59 47
-2833.6384 6069.8350 609.6030 0.607 -0.366 0.705 85 59 46
-2851.1194 6294.2695 555.8389 0.715 -0.640 -0.281 79 51 35
-2788.4060 6346.2617 482.5690 0.825 -0.544 0.153 74 46 32
-2798.3428 6394.1333 476.7562 0.878 -0.411 0.247 73 46 32
-2686.8557 6257.8931 417.5052 0.320 -0.931 -0.177 70 44 29
-2413.9268 5726.7466 333.8157 0.178 -0.978 -0.114 65 43 29
-2472.9087 6167.2158 250.7754 0.031 -0.308 0.951 49 31 17
-2418.2522 6080.1963 228.0085 0.023 -0.310 0.950 48 31 17
-1941.3723 5218.1401 61.2878 0.475 -0.778 -0.412 99 73 64
-1842.0736 5180.6069 -17.5097 0.796 -0.560 0.231 244 223 222
-1817.2229 6269.2969 -378.1884 0.687 -0.090 -0.721 206 148 146
-1828.7662 6380.6294 -402.2428 0.686 -0.090 -0.722 196 136 135
-1834.3611 6436.5615 -414.5135 0.686 -0.090 -0.722 218 158 157
-1844.4929 6509.2568 -427.8564 0.691 -0.098 -0.716 221 160 159
-1839.9352 6530.1182 -438.4856 0.717 -0.538 -0.443 224 163 162
-1806.2388 6446.2202 -443.1293 -0.658 -0.706 0.261 226 165 163
-1834.8772 6587.1807 -460.8110 -0.695 -0.681 0.229 231 166 161
-1682.2849 6176.9307 -472.4240 0.691 -0.610 -0.388 221 154 148
-1675.9601 6189.9722 -482.2348 0.641 -0.652 -0.406 226 159 153
-1674.2399 6220.4082 -493.2522 0.299 -0.605 0.738 232 165 159
-1479.7194 7573.9053 -1090.7075 -0.601 -0.785 0.154 243 173 165
-1082.6134 6759.0947 -1199.4316 0.023 -0.557 -0.830 224 123 105
-470.8175 4887.1152 -1175.4633 -0.714 -0.651 0.260 253 138 129
-151.4971 4172.8608 -1244.5551 -0.542 -0.840 -0.032 243 29 52
-3571.2590 4394.2700 1787.4856 0.060 -0.512 0.857 140 108 83
-3443.7156 4285.3638 1705.4855 0.192 -0.775 0.601 143 108 86
-4466.0630 5791.0503 2164.5857 0.697 -0.476 -0.536 148 111 82
-4465.3496 5804.6641 2159.6726 0.691 -0.477 -0.543 148 111 82
-4477.0361 5864.3306 2151.6226 0.278 -0.708 0.649 147 110 81
-4450.7393 5843.9424 2134.0686 0.441 -0.878 0.187 148 109 80
-4418.0557 5814.8652 2113.4219 0.773 -0.632 0.050 148 109 80
-4403.4863 5810.0269 2101.6738 0.767 -0.641 0.014 148 109 80
-4381.6631 5795.3628 2086.3999 0.804 -0.586 0.101 146 107 78
-4305.2065 5979.4243 1959.1438 0.417 -0.756 -0.504 121 87 57
-4231.1138 5905.6318 1914.8057 0.714 -0.699 -0.039 109 81 54
-4177.2393 5891.2705 1870.2582 0.752 -0.629 -0.200 91 63 39
-4321.7539 6181.3994 1910.9449 -0.157 -0.524 0.837 63 37 14
-3972.3359 5734.0068 1732.9788 -0.423 -0.588 0.689 102 77 54
-4040.7244 5931.2407 1733.4596 0.183 -0.537 -0.823 94 57 31
-4084.1436 6029.3506 1742.2570 0.804 -0.590 -0.070 115 78 52
-3815.6565 5867.4395 1548.5483 0.120 -0.324 0.938 90 48 23
-3590.3215 6136.5923 1259.1055 0.442 -0.411 0.797 64 46 28
-3562.7314 6107.4775 1243.1078 0.428 -0.449 0.784 48 31 12
-3594.2974 6298.8389 1211.9058 -0.153 -0.564 0.811 25 18 9
-3546.7168 6273.2749 1176.5969 -0.561 -0.755 -0.340 26 17 10
-3517.1711 6239.9253 1160.1454 -0.552 -0.773 -0.312 33 24 17
-3495.3748 6220.3843 1146.4233 -0.574 -0.756 -0.316 39 28 19
-3470.8594 6195.7715 1131.8145 -0.674 -0.737 -0.060 51 37 26
-3453.7678 6184.5161 1119.7804 -0.672 -0.738 -0.068 77 59 47
-3226.2339 6040.2871 957.8159 0.201 -0.971 -0.127 67 48 33
-3216.8877 6103.6040 929.4752 -0.174 -0.914 0.366 75 57 43
-3202.6299 6096.5820 918.6949 -0.174 -0.914 0.366 74 56 42
-3175.0781 6104.9238 890.9996 -0.201 -0.824 0.529 73 57 42
-3158.7168 6093.6353 879.6406 -0.201 -0.824 0.529 73 57 42
-3137.0769 6092.6816 860.2390 -0.824 -0.551 -0.132 71 57 44
-3103.5144 6047.1138 843.9575 -0.823 -0.553 -0.131 66 52 39
-3073.6174 6008.5151 828.8300 -0.823 -0.557 -0.109 56 42 29
-3045.3845 5972.9634 814.2632 -0.824 -0.556 -0.104 56 42 29
-3052.6509 6008.2188 809.8356 -0.450 -0.860 -0.240 56 42 29
-3039.3862 6002.4639 799.5625 -0.472 -0.878 -0.085 54 41 32
-3005.4524 5955.0015 783.5364 -0.304 -0.770 0.562 51 38 29
-2995.0107 5954.7090 774.1223 -0.304 -0.759 0.576 50 40 31
-2996.4907 5978.5923 767.9888 -0.545 -0.839 0.014 49 39 30
-2990.4563 5987.3267 759.7594 -0.119 -0.895 -0.430 50 40 31
-2983.1240 5993.4570 751.1642 -0.092 -0.893 -0.440 48 38 29
-2971.8901 5991.6182 741.5132 -0.015 -0.979 -0.205 49 39 30
-2958.7515 5985.8350 731.3635 -0.046 -0.928 -0.369 49 39 30
-2950.3440 5989.7656 722.4785 0.171 -0.923 -0.345 45 35 26
-2945.1572 6000.3823 714.4312 0.185 -0.928 -0.324 39 29 20
-2937.0850 6005.0625 705.6166 0.185 -0.928 -0.324 38 28 19
-2924.2659 5999.8599 695.5759 0.165 -0.932 -0.323 39 29 20
-2916.1099 6004.3691 686.7385 0.165 -0.932 -0.323 37 27 18
-2911.7380 6016.8467 678.8502 0.263 -0.937 -0.229 33 23 14
-2932.3367 6104.1021 670.2723 -0.330 -0.362 -0.872 34 23 14
-2937.5144 6137.3013 664.5873 -0.338 -0.365 -0.867 39 20 9
-2935.9556 6156.3701 657.1954 -0.355 -0.372 -0.858 82 59 47
-2838.6594 6081.9502 591.9300 -0.153 -0.771 0.618 96 69 56
-2829.1204 6083.7715 582.6754 -0.228 -0.762 0.606 100 68 55
-2887.6350 6353.2168 551.5491 0.567 -0.620 -0.542 99 63 52
-2894.3669 6392.4722 545.3822 0.592 -0.686 -0.423 99 64 52
-2814.2205 6284.4375 506.2578 0.632 -0.529 0.567 97 63 50
-2791.5093 6305.5015 478.9846 0.721 -0.368 0.587 93 59 46
-2793.7336 6335.1421 471.7254 0.825 -0.544 0.153 93 59 46
-2795.7512 6364.5171 464.3615 0.814 -0.510 0.278 92 59 46
-2773.8723 6338.6831 452.5352 0.520 -0.461 0.719 83 56 42
-2530.6245 5889.8281 371.6808 -0.040 -0.995 0.087 78 55 39
-2422.4294 5725.2290 324.7395 0.116 -0.969 -0.219 74 52 39
-2683.1467 6481.6367 325.1651 -0.058 -0.477 -0.877 72 50 37
-2716.5879 6672.6694 295.7733 0.129 -0.438 -0.890 66 48 34
-2420.1741 6060.6660 217.6200 0.021 -0.310 0.950 62 45 33
-2411.1045 6089.1318 200.4471 0.405 -0.532 0.744 37 25 13
-2415.7812 6127.2173 192.7755 0.164 -0.699 0.696 29 16 7
-1964.2148 5210.9526 68.6772 -0.747 -0.588 -0.311 62 40 29
-1909.8392 5227.6592 13.9424 0.531 -0.591 -0.607 243 208 202
-1885.6672 5232.4814 -9.5735 -0.248 -0.936 -0.252 241 208 204
-1845.4603 5191.5015 -33.3407 -0.256 -0.907 -0.334 247 226 225
-1841.1392 5303.6104 -72.3896 -0.389 -0.908 0.157 255 239 239
-1631.9733 5532.2637 -334.4272 0.918 -0.339 0.205 209 160 165
-1841.5330 6355.7402 -401.5814 0.690 -0.092 -0.718 218 158 157
-1846.9445 6410.3354 -413.7554 0.690 -0.092 -0.718 218 158 157
-1852.4492 6465.8394 -426.1290 0.688 -0.092 -0.720 224 164 163
-1829.1990 6493.4526 -455.9445 0.449 -0.741 0.499 225 164 162
-1693.2126 6182.7285 -482.4167 0.598 -0.671 0.437 231 164 158
-1682.8362 6217.3784 -502.7162 0.300 -0.600 0.741 231 164 158
-1251.6866 5932.9517 -806.1332 -0.790 -0.443 -0.425 247 180 172
-1112.0278 6752.8584 -1190.0873 0.024 -0.502 -0.864 238 137 119
-492.9296 4963.6855 -1193.2874 -0.548 -0.763 -0.344 252 149 136
-400.9280 4312.5820 -1073.1030 -0.633 -0.769 0.089 254 56 92
-3586.2227 4392.3301 1787.4250 0.015 -0.543 0.840 132 102 76
-3519.7898 4340.4355 1743.3776 0.217 -0.533 0.818 142 108 81
-3449.2549 4282.5000 1697.5066 0.249 -0.968 -0.019 143 109 84
-4402.9805 5810.2085 2082.5752 0.767 -0.641 0.014 147 108 79
-4391.2363 5809.1494 2072.2246 0.762 -0.648 0.020 144 105 76
-4384.8569 5815.3359 2064.4658 0.344 -0.869 0.357 144 105 76
-4385.1401 5830.5845 2059.9060 0.041 -0.646 0.762 144 105 76
-4374.8584 5831.5288 2050.2529 -0.168 -0.569 0.805 143 104 75
-4226.5884 5884.5000 1898.6158 0.748 -0.593 -0.298 115 87 60
-4277.1387 5987.9072 1911.9379 0.489 -0.824 -0.287 113 87 62
-4278.6479 6005.9868 1907.5990 0.484 -0.822 -0.298 108 80 56
-4284.1099 6029.8213 1905.0378 0.746 -0.664 0.041 98 71 44
-4228.4985 5981.8701 1869.5905 -0.294 -0.628 0.721 73 45 21
-4123.6313 5909.5215 1797.0366 -0.230 -0.532 0.815 89 63 40
-4102.4722 6041.1924 1736.1852 0.427 -0.802 -0.417 108 71 45
-3798.4407 5824.7710 1527.9426 0.061 -0.382 0.922 113 71 46
-3693.4866 5709.4199 1468.8958 0.777 -0.601 -0.185 106 70 44
-3589.1689 6116.7090 1245.3048 0.440 -0.413 0.797 71 54 36
-3560.1235 6085.0952 1228.8663 0.428 -0.449 0.784 61 43 25
-3540.2656 6126.2319 1197.8022 0.175 -0.727 0.664 45 29 13
-3535.1475 6136.3726 1189.9417 0.114 -0.816 -0.567 31 19 5
-3547.7935 6178.0400 1188.2831 0.407 -0.299 -0.863 27 18 7
-3495.3618 6221.4434 1126.8658 -0.481 -0.849 -0.217 64 50 38
-3287.8801 5979.1963 1014.6272 0.524 -0.655 0.545 64 47 31
-3300.1836 6021.5396 1012.4435 0.542 -0.675 0.501 60 41 26
-3288.9600 6020.3179 1002.6180 0.549 -0.682 0.483 59 40 25
-3293.2886 6068.0078 991.4890 -0.140 -0.863 0.485 60 41 26
-3273.1606 6050.1411 978.8208 0.595 -0.790 0.149 65 46 31
-3230.3740 6009.2344 952.8161 -0.033 -0.948 0.316 65 46 31
-3150.0747 5896.2822 915.4429 -0.057 -0.984 -0.168 70 51 36
-3238.1709 6104.7080 929.7458 -0.166 -0.917 0.361 70 52 38
-3213.7568 6098.6655 909.4423 -0.598 -0.771 -0.221 63 45 31
-3197.7820 6088.2993 898.1828 -0.606 -0.769 -0.206 63 45 31
-3185.0510 6084.1548 887.9092 -0.570 -0.815 0.108 63 45 31
-3023.8047 5993.1016 769.9689 -0.617 -0.784 0.073 39 29 20
-3010.7939 5987.7407 759.8248 -0.545 -0.839 0.014 38 28 19
-2997.7664 5982.2974 749.6918 -0.047 -0.884 -0.464 34 24 15
-2992.1619 5991.9204 741.5524 -0.015 -0.979 -0.205 26 16 7
-2982.6902 5993.6938 732.3742 -0.015 -0.979 -0.205 27 17 8
-2966.7366 5982.1763 721.4980 0.174 -0.935 -0.310 27 17 8
-2958.5837 5986.6167 712.6773 0.174 -0.935 -0.310 24 14 5
-2950.4241 5991.0610 703.8492 0.174 -0.935 -0.310 22 12 3
-2939.2102 5989.1953 694.2359 0.187 -0.939 -0.289 22 12 3
-2928.8433 5989.0649 684.8450 0.134 -0.926 -0.353 23 13 4
-2920.0515 5992.2065 675.8533 0.144 -0.924 -0.355 25 15 6
-2912.5886 5998.1396 667.1887 0.134 -0.926 -0.353 28 18 9
-2929.3274 6076.8569 657.5485 -0.420 -0.392 -0.818 29 17 8
-2933.5237 6107.7832 651.5955 -0.414 -0.392 -0.821 35 18 4
-2939.6970 6143.1138 646.0497 -0.427 -0.395 -0.813 82 60 47
-2889.5757 6148.3125 598.8053 -0.442 -0.888 0.128 99 73 60
-2869.7175 6127.9985 587.1556 -0.446 -0.887 0.118 102 74 62
-2727.7039 6257.3662 417.0739 0.023 -0.993 0.114 87 60 46
-2449.9988 5677.7441 347.5341 -0.267 -0.915 -0.303 83 60 44
-2466.5400 5856.0088 306.2628 -0.231 -0.964 0.128 79 57 43
-2451.3198 5842.9746 296.5329 -0.233 -0.903 -0.362 77 55 42
-2448.0579 5858.8877 288.5376 0.712 -0.635 0.300 76 54 41
-2528.9443 6130.3457 276.3664 0.256 -0.596 -0.761 72 53 39
-2393.7649 6020.3457 188.1288 0.050 -0.336 0.941 37 25 13
-2411.6555 6091.8672 181.8096 0.416 -0.540 0.731 29 16 7
-1848.0890 5151.7314 -33.9163 -0.256 -0.897 0.359 241 217 215
-1840.4932 5178.5317 -49.2947 -0.236 -0.941 0.241 250 230 229
-1836.3455 5265.5947 -80.5751 -0.328 -0.942 0.078 254 235 234
-1827.7953 5265.8638 -88.4393 -0.306 -0.950 0.058 255 236 238
-1795.7922 6197.9717 -412.0472 0.613 -0.274 -0.741 223 163 162
-1786.8756 6201.4819 -421.2690 0.613 -0.260 -0.746 229 169 168
-1280.5126 5897.1484 -785.8248 0.231 -0.506 -0.831 247 180 172
-1236.4896 6932.3257 -1152.9327 0.186 -0.982 -0.011 241 153 139
-383.9561 4073.5618 -1025.3992 0.085 -0.838 0.538 255 55 92
-143.0820 3474.6570 -1055.3368 -0.188 -0.803 0.566 243 44 63
-79.8290 4553.8018 -1453.8320 0.880 -0.261 -0.395 253 73 80
-3409.2622 4109.8237 1702.2484 -0.784 -0.606 -0.135 115 87 63
-3410.5320 4121.3643 1699.7256 0.481 -0.592 0.647 122 91 65
-3562.6963 4363.3501 1760.9778 -0.192 -0.636 0.748 142 108 81
-3471.9917 4280.4673 1704.9114 -0.152 -0.687 0.710 142 108 81
-3446.2725 4258.3027 1688.5879 0.254 -0.964 0.080 143 109 82
-4405.8936 5814.9951 2065.1189 0.792 -0.609 0.046 144 105 76
-4278.2681 5745.0972 1971.3425 0.082 -0.642 0.762 148 109 80
-4374.2744 5891.8433 2011.8792 0.457 -0.497 -0.738 147 108 79
-4234.5986 5912.3975 1878.3224 0.443 -0.451 -0.775 121 92 68
-4253.9082 5955.6582 1882.0950 0.456 -0.441 -0.773 116 86 60
-4267.8779 5991.4902 1883.3794 0.752 -0.659 0.026 105 75 49
-4211.3589 5942.1694 1847.7034 -0.305 -0.611 0.730 80 53 26
-4270.5747 6043.4854 1869.2632 -0.229 -0.562 0.795 72 44 20
-4100.2363 5860.4033 1772.7150 -0.232 -0.536 0.811 82 54 32
-4040.1865 5788.4785 1741.0311 -0.232 -0.528 0.817 79 51 27
-3964.3394 5708.4761 1697.5565 -0.580 -0.663 0.473 80 51 27
-3872.4878 5603.9453 1647.3456 0.207 -0.733 0.648 84 47 21
-3700.1870 5704.5469 1458.6146 0.803 -0.577 -0.150 111 74 47
-3689.3167 5703.7656 1448.9791 0.779 -0.612 -0.135 105 69 43
-3768.1284 6124.4097 1386.6011 0.534 -0.535 0.655 93 58 30
-3456.9016 5924.8394 1167.1970 0.308 -0.408 0.860 70 49 28
-3543.9829 6114.7275 1185.8707 -0.027 -0.674 -0.738 67 48 31
-3561.2534 6164.2500 1185.7941 -0.054 -0.784 -0.618 54 38 23
-3572.7529 6203.8667 1183.6262 0.183 -0.360 -0.915 47 37 24
-3444.9026 6015.6382 1127.3523 -0.579 -0.591 0.561 47 37 26
-3290.6096 6024.4575 984.2434 0.533 -0.570 0.626 55 34 17
-3271.8652 6009.1709 972.0703 0.606 -0.626 0.491 56 35 18
-3295.6453 6113.6348 960.4052 0.634 -0.719 0.285 65 46 31
-3247.0376 6102.3945 919.7878 -0.166 -0.917 0.361 63 45 31
-3246.7705 6142.8394 906.6570 -0.621 -0.758 -0.200 50 32 18
-3003.7271 5974.5605 739.2807 -0.017 -0.905 -0.426 22 13 4
-2974.4604 5956.9873 718.2687 0.066 -0.989 0.135 17 8 0
-2963.4968 5955.5903 708.7444 0.081 -0.988 0.133 19 9 0
-2931.7654 5974.9009 673.7376 0.059 -0.894 -0.444 20 10 2
-2923.9463 5980.0171 664.9974 0.044 -0.897 -0.440 21 11 2
-2914.7615 5982.3062 655.9162 0.042 -0.896 -0.442 21 11 2
-2910.6106 6016.7734 641.1584 -0.264 -0.403 -0.876 22 11 2
-2897.1479 6234.8413 559.4276 0.302 -0.727 0.617 119 76 63
-2817.7524 6319.2188 460.3456 0.783 -0.544 0.303 111 66 55
-2481.5857 5685.4629 356.6205 -0.107 -0.989 -0.098 94 67 50
-2460.2969 5658.1548 345.9645 -0.247 -0.907 -0.342 92 66 49
-2452.9604 5663.3667 337.6327 -0.244 -0.904 -0.351 91 65 48
-2451.1841 5681.7051 330.1740 -0.334 -0.932 0.143 92 65 48
-2457.7859 5765.9360 309.3359 -0.347 -0.896 -0.277 86 63 48
-2418.4114 5932.9565 220.3100 0.327 -0.391 0.861 75 58 42
-2426.2395 6002.3784 205.3065 0.057 -0.304 0.951 75 57 42
-2408.0366 6058.0776 171.0056 0.358 -0.454 0.816 30 18 6
-2364.8899 6103.2397 117.3807 -0.339 -0.855 -0.393 44 25 12
-2282.4280 5913.0947 102.9895 -0.037 -0.533 0.845 50 31 17
-1995.5654 5274.2705 45.7117 -0.696 -0.633 -0.340 157 133 121
-1802.1921 5118.4443 -80.4674 -0.398 -0.893 0.211 249 228 227
-1841.4266 5256.5146 -88.7887 -0.272 -0.959 0.078 250 227 227
-1847.7969 5325.6201 -105.0172 0.913 -0.186 0.362 255 229 233
-1840.0793 5328.6006 -112.9847 -0.221 -0.971 -0.090 255 229 233
-1839.3484 5352.2197 -121.1757 -0.720 -0.684 0.118 255 229 233
-1669.2367 5694.5039 -384.9301 0.506 -0.382 -0.773 230 170 169
-1817.5887 6310.8789 -446.4467 0.443 -0.519 -0.731 236 176 175
-1713.7794 6225.5386 -513.6462 0.593 -0.787 0.172 243 176 170
-1713.2521 6260.1367 -525.1506 0.725 -0.678 0.121 243 176 170
-86.6615 4573.2544 -1466.6718 0.945 -0.324 -0.052 251 73 79
-3395.0559 4092.7805 1681.3895 0.534 -0.592 0.604 136 103 76
-3565.1216 4345.8252 1754.6171 0.008 -0.537 0.843 148 116 89
-4402.9004 5797.0889 2049.5605 0.283 -0.908 0.310 151 112 83
-4385.2925 5788.1069 2036.4453 0.111 -0.787 0.606 151 112 81
-4367.2866 5778.5347 2023.1588 -0.049 -0.683 0.729 151 112 81
-4356.5298 5793.4937 2008.5759 -0.068 -0.726 0.685 155 116 85
-4376.5752 5850.5776 2008.4469 0.672 -0.522 0.525 155 116 85
-4566.2378 6252.9565 2051.4907 0.004 -0.526 0.851 142 103 70
-4709.9775 6470.3428 2112.2539 0.162 -0.492 -0.855 141 102 69
-4227.2803 5887.2778 1860.9783 0.433 -0.455 -0.778 126 93 67
-4271.3560 5981.4814 1870.7582 0.436 -0.839 -0.326 111 78 52
-3975.3555 5694.6079 1693.9572 -0.412 -0.597 0.689 75 48 26
-3958.4695 5685.2954 1681.6046 -0.608 -0.671 0.425 77 47 22
-3851.0872 5825.9160 1538.8268 0.232 -0.973 -0.002 170 131 102
-3771.2239 6112.3716 1374.1897 0.709 -0.565 0.422 91 55 28
-3553.5630 6019.8140 1206.1327 0.864 -0.465 0.195 99 74 53
-3552.0645 6035.7656 1199.6444 0.790 -0.549 0.274 96 72 50
-3551.7061 6053.7803 1193.5292 0.345 -0.930 0.126 97 71 49
-3556.5168 6080.8892 1189.1888 0.349 -0.936 -0.057 93 66 44
-3458.1958 6021.3525 1118.9718 -0.587 -0.591 0.553 64 52 37
-3386.7231 6026.8403 1052.2561 0.197 -0.631 -0.750 102 83 64
-3242.5955 5936.0591 950.4527 0.701 -0.431 0.569 57 35 18
-3208.0779 6049.1851 882.7283 -0.062 -0.459 0.886 44 26 12
-3169.4065 6015.2422 858.4935 -0.001 -0.423 0.906 44 26 12
-3163.2700 6044.0337 843.6638 -0.020 -0.417 0.909 42 29 16
-2861.4443 5872.1616 624.6105 0.778 -0.347 -0.524 18 9 2
-2889.1248 5951.2798 624.3388 0.829 -0.303 -0.470 19 9 1
-2934.6553 6068.4600 628.0564 -0.056 -0.532 -0.845 34 14 4
-2957.5151 6138.6362 626.2778 0.083 -0.559 -0.825 81 55 43
-2904.4421 6160.1011 571.1485 -0.299 -0.952 0.070 119 81 70
-2889.7773 6151.1357 560.7026 -0.300 -0.951 0.073 124 79 66
-2449.3105 5336.7500 422.1456 0.854 -0.520 -0.013 126 78 63
-2476.0034 5696.0400 330.9359 -0.244 -0.862 -0.444 99 70 50
-2458.2263 5699.4683 313.6790 -0.349 -0.910 0.226 100 70 51
-2373.2681 5870.6440 181.4599 0.407 -0.909 -0.091 78 61 43
-2396.6362 5979.4209 167.7377 0.058 -0.340 0.939 36 24 11
-2399.5959 6012.2812 159.8670 0.296 -0.410 0.863 28 16 4
-1898.4199 5371.7988 -89.7491 0.583 -0.481 0.655 246 221 219
-1869.9696 5315.1855 -97.4096 0.916 -0.175 0.361 246 219 219
-1851.1624 5311.2490 -113.2361 0.917 -0.184 0.355 253 224 229
-514.4277 4964.7803 -1216.6689 -0.502 -0.580 -0.642 253 145 132
-411.8812 4172.5610 -1055.2592 -0.257 -0.890 -0.377 251 58 90
-152.1895 3680.1353 -1133.0043 -0.121 -0.957 -0.262 241 25 49
-3362.5566 4043.2295 1654.5609 0.596 -0.638 -0.487 143 106 76
-3408.0020 4109.4463 1674.3754 -0.410 -0.843 0.348 148 113 84
-3337.7864 4041.8164 1632.5217 -0.398 -0.745 0.536 149 113 84
-4398.7305 5807.0728 2023.9962 0.329 -0.868 0.372 154 118 86
-4567.4995 6223.2192 2042.4069 0.223 -0.475 0.851 148 108 73
-4036.1455 5557.6929 1775.5074 -0.021 -0.430 -0.902 137 99 66
-4185.9756 5844.9468 1818.4906 0.274 -0.528 -0.804 117 81 52
-4129.3828 5810.4893 1778.2585 -0.313 -0.594 0.741 103 69 42
-4020.7737 5715.4785 1710.4088 -0.046 -0.518 0.854 87 55 30
-4000.9668 5702.0723 1696.7645 0.253 -0.966 0.047 84 51 26
-3975.4141 5680.2075 1680.6429 -0.370 -0.610 0.701 83 51 27
-3781.8845 6112.8418 1364.6591 0.324 -0.736 -0.595 84 50 24
-3670.5784 6018.5957 1294.1118 -0.182 -0.439 0.880 138 102 76
-3360.0447 5922.7168 1043.1489 0.228 -0.758 0.611 104 87 62
-3309.6895 6022.7515 964.9942 0.915 -0.270 -0.300 65 38 23
-3295.5601 6016.1460 954.3022 0.893 -0.273 -0.359 65 38 21
-3232.2834 6036.0581 890.3788 -0.052 -0.441 0.896 59 43 31
-3210.5300 6014.6943 877.5457 -0.038 -0.445 0.895 57 39 27
-2961.9099 6061.2588 636.6496 0.870 -0.275 -0.410 21 14 8
-2938.0742 6033.2456 624.0801 0.807 -0.311 -0.502 22 14 7
-2961.2012 6103.4038 622.3471 0.787 -0.334 -0.519 38 22 9
-2503.8628 5458.8477 415.8745 0.738 -0.631 -0.238 137 84 61
-2528.6814 5534.8418 413.7862 0.929 -0.333 -0.161 135 82 60
-2579.7598 5802.1641 373.5398 0.767 -0.638 0.065 121 80 56
-2480.1301 5662.0889 328.4502 -0.054 -0.924 -0.377 114 79 54
-2553.1807 6019.9336 278.8220 0.124 -0.312 -0.942 101 68 41
-2396.6853 5905.9482 173.6298 0.371 -0.923 -0.097 83 62 37
-1867.9960 5361.5415 -130.1038 0.913 -0.203 0.354 253 224 227
-97.7328 3112.6626 -1009.0653 0.875 -0.301 0.379 198 4 18
-3399.9204 4070.4243 1666.3702 -0.790 -0.591 -0.162 147 110 81
-3376.5640 4051.3748 1651.3954 0.630 -0.661 -0.407 149 111 80
-3402.2729 4093.0190 1661.1215 0.454 -0.875 0.167 149 113 83
-4179.9663 5821.8452 1802.0314 0.463 -0.493 -0.736 123 86 57
-4172.4253 5826.5366 1793.6536 0.428 -0.872 0.238 117 80 51
-3957.5852 5701.2085 1639.6022 0.754 -0.432 0.495 121 91 67
-3799.4915 5764.4009 1475.4490 -0.653 -0.701 0.288 99 60 29
-3758.4331 5717.0186 1453.6656 -0.498 -0.858 0.126 93 54 23
-3631.8289 5937.0859 1266.8265 -0.196 -0.487 0.851 116 82 57
-3352.0747 5588.0483 1126.9641 0.520 -0.850 0.084 119 83 57
-3379.8948 5669.8071 1125.4966 0.681 -0.706 -0.192 139 101 78
-3487.6604 6037.7261 1103.0750 -0.585 -0.600 0.545 87 65 41
-3420.2603 5956.1611 1068.5524 -0.645 -0.607 0.463 88 66 42
-3321.9016 5836.7432 1018.2996 0.216 -0.830 0.515 103 80 56
-3291.7314 5801.1177 1002.5571 0.638 -0.766 -0.072 104 81 57
-3289.3875 5815.3643 995.7736 0.567 -0.816 -0.111 104 80 56
-3304.9741 5862.0742 994.6560 0.554 -0.829 -0.076 104 79 56
-2939.4421 6015.6597 612.6700 0.800 -0.316 -0.510 22 14 7
-2958.8274 6077.7231 609.9831 0.788 -0.327 -0.522 38 22 9
-2761.8196 5812.1650 517.9470 0.943 -0.304 0.136 136 76 69
-2634.9626 5750.8677 422.8320 0.061 -0.794 -0.604 137 81 58
-2592.0244 5764.3179 379.4614 0.800 -0.600 0.005 133 77 54
-2593.2964 5811.7651 365.1096 0.779 -0.623 0.067 123 79 55
-2521.3669 5714.0854 331.7422 0.003 -0.759 0.651 120 80 54
-2487.2349 5679.7358 311.9866 0.450 -0.613 0.649 116 76 50
-2518.8577 5868.0542 279.1458 -0.118 -0.513 -0.850 113 77 49
-2550.3000 5966.2314 275.6005 0.133 -0.314 -0.940 113 77 49
-2372.4448 5798.0459 169.1267 0.256 -0.962 -0.091 92 66 39
-2372.8352 5823.1855 161.2652 0.334 -0.942 -0.029 91 66 39
-2436.7290 6032.5933 150.8246 0.581 -0.551 0.599 38 27 9
-2438.9670 6063.6221 142.7156 0.557 -0.541 0.631 22 12 0
-2327.3711 6035.2275 50.6996 -0.831 -0.535 -0.151 170 130 113
-2246.9636 5849.2627 38.4897 -0.769 -0.545 -0.334 186 141 126
-1968.4753 5323.4756 -42.4603 0.150 -0.274 0.950 232 187 181
-1875.5172 5308.5386 -121.9566 -0.376 -0.655 -0.656 251 223 225
-1847.4961 5252.8428 -129.1893 0.928 -0.191 0.320 251 225 226
-1861.9695 5319.8306 -137.9442 0.911 -0.194 0.364 251 225 226
-1594.3817 5322.2700 -381.6302 0.897 -0.263 0.354 230 179 178
-907.6886 5576.3315 -1087.9701 0.787 -0.482 -0.385 233 125 110
-895.2188 5605.1021 -1108.6915 0.795 -0.474 -0.380 222 112 97
-512.7730 4885.6426 -1220.7090 -0.781 -0.589 -0.207 245 94 101
-3903.5212 4680.9126 1908.7340 -0.790 -0.595 -0.145 153 116 87
-4162.2759 5677.0791 1815.2013 0.780 -0.625 -0.003 157 117 82
-4065.1211 5585.4580 1757.2578 -0.258 -0.443 -0.859 143 107 75
-4050.5054 5623.8618 1731.3438 0.137 -0.508 -0.850 130 93 64
-4159.8887 5794.2012 1774.4404 -0.372 -0.916 0.149 123 86 57
-3963.7366 5664.9331 1639.0962 -0.705 -0.703 -0.094 94 64 40
-3817.3650 5760.4219 1474.8469 -0.467 -0.588 0.660 90 51 20
