ply
format ascii 1.0
element vertex 780
property float x
property float y
property float z
property float nx
property float ny
property float nz
property uchar diffuse_red
property uchar diffuse_green
property uchar diffuse_blue
end_header
-2981.2712 2609.5935 1357.5042 0.702 -0.697 -0.150 19 25 11
-2830.8462 2573.4885 1260.8331 -0.474 -0.871 -0.126 67 71 56
-2814.2444 2565.4854 1251.3123 -0.461 -0.878 -0.130 78 98 85
-2799.6997 2559.4514 1242.6918 -0.470 -0.877 -0.105 45 76 70
-3081.4124 3171.6201 1268.1219 0.579 -0.234 -0.781 60 53 47
-3083.1589 3184.0222 1265.8202 0.707 -0.204 -0.677 66 57 52
-3107.5278 3232.1375 1269.4028 0.465 -0.178 -0.867 70 60 55
-2785.0522 3012.1995 1102.8954 0.777 -0.194 -0.599 31 24 16
-2814.8669 3108.8430 1096.4835 0.790 -0.442 -0.425 13 9 8
-2834.0400 3152.6677 1097.5966 0.791 -0.440 -0.425 19 15 12
-3303.9312 4179.1753 1138.4642 -0.565 -0.743 -0.359 231 218 210
-2356.2952 3145.1311 759.9588 -0.616 -0.688 0.384 208 175 160
-2350.7056 3229.1980 731.9601 0.557 -0.731 0.395 131 94 78
-3091.9485 5252.4810 680.9824 0.493 -0.420 0.762 205 168 162
-2876.3030 5441.7510 473.5204 -0.514 -0.252 -0.820 209 164 160
-2557.7173 5437.4326 248.1632 -0.395 -0.831 0.392 177 118 102
-2412.5195 5183.2886 217.5176 -0.585 -0.795 0.159 179 117 101
-2282.9150 5001.5781 177.2637 0.836 -0.470 0.283 162 100 77
-2662.2239 5974.0908 169.1353 -0.141 -0.963 0.230 167 107 83
-2533.8716 5829.6650 119.1177 -0.154 -0.761 0.631 167 107 83
-2518.9150 5846.4990 103.6693 -0.406 -0.773 0.487 144 93 66
-2484.9290 5897.4355 64.9414 0.944 0.048 -0.326 114 64 37
-2468.3918 5910.7915 49.3628 0.103 -0.674 0.731 110 64 38
-2069.7263 5358.9619 -76.4918 0.150 -0.254 -0.956 225 191 192
-2068.8621 5382.7744 -83.9113 0.139 -0.253 -0.957 221 189 190
-2069.5557 5411.0088 -91.4862 0.139 -0.253 -0.957 217 183 184
-2015.1622 5475.4282 -148.5817 -0.463 -0.882 0.084 251 227 230
-1839.1732 5079.1079 -160.4986 0.148 -0.940 -0.306 254 239 240
-1902.0605 5567.8452 -255.4336 0.321 -0.049 -0.946 242 228 233
-3466.5498 2180.2112 1815.8158 0.549 -0.591 -0.590 179 179 169
-3466.9111 2201.0916 1810.0618 0.335 -0.369 -0.867 172 172 162
-3468.4651 2209.0945 1808.8612 0.349 -0.387 -0.854 164 164 154
-3894.7373 2577.5713 2005.4148 0.890 -0.323 -0.322 189 186 177
-3884.6863 2602.4980 1991.1039 0.673 -0.725 -0.142 194 191 182
-3880.3296 2607.4263 1986.5923 0.673 -0.725 -0.142 199 199 191
-4702.4600 3645.4690 2271.4368 0.948 -0.248 -0.201 34 35 29
-3430.1624 2961.6995 1565.0253 -0.594 -0.752 -0.286 15 15 7
-2842.5669 2579.6401 1257.8536 -0.478 -0.868 -0.132 63 74 68
-2826.7231 2572.4260 1248.6824 -0.461 -0.878 -0.130 76 91 90
-2812.1101 2566.3650 1240.0529 -0.458 -0.881 -0.116 43 63 68
-2771.5085 2551.0730 1215.6307 -0.477 -0.832 -0.284 3 64 92
-3089.5876 3173.6782 1262.2218 0.707 -0.204 -0.677 40 31 26
-3089.5049 3184.0588 1259.1748 0.707 -0.204 -0.677 45 36 31
-3095.4846 3211.7439 1255.4507 0.630 -0.221 -0.744 49 42 38
-3125.2773 3255.4348 1264.0247 0.556 -0.212 -0.804 18 12 7
-2839.2256 3151.6438 1090.8256 0.792 -0.442 -0.421 33 29 26
-2902.1716 3348.4927 1078.8480 0.659 -0.368 -0.656 186 108 55
-2880.9126 3333.7004 1068.0138 0.723 -0.297 -0.623 183 109 57
-3264.7849 4145.7495 1106.7804 -0.520 -0.840 -0.157 220 200 186
-3338.8667 4259.4023 1126.6571 -0.327 -0.924 -0.198 219 188 179
-3325.3408 4255.9673 1118.0436 -0.137 -0.985 -0.107 223 174 174
-3329.7302 4276.6499 1115.2062 0.048 -0.979 -0.199 229 162 170
-2312.5732 3130.8967 722.9123 0.513 -0.533 0.673 156 117 102
-2290.6387 3121.6907 709.9903 0.839 -0.451 0.305 130 91 74
-2327.8848 3187.5085 717.4861 0.773 -0.371 0.515 130 91 74
-2158.3784 3311.0535 561.5853 -0.033 -0.709 -0.705 209 176 169
-2150.8547 3311.3074 556.1710 0.391 -0.702 -0.595 210 175 169
-3089.8604 5233.8496 669.3777 0.493 -0.420 0.762 200 163 157
-3028.5674 5723.9536 484.7836 -0.526 -0.240 -0.816 196 151 147
-2604.7322 5475.7529 255.3375 -0.198 -0.936 0.291 193 134 118
-2491.5022 5708.3301 108.0030 -0.358 -0.756 -0.548 168 108 84
-2486.8713 5774.9497 85.5384 -0.457 -0.705 -0.543 158 108 81
-2478.6538 5807.6221 70.2995 0.942 0.050 -0.333 158 108 81
-2456.7043 5887.5195 31.7178 0.087 -0.683 0.725 103 62 37
-2070.4634 5526.4443 -138.5471 -0.492 -0.824 0.279 203 175 179
-1994.9010 5423.4585 -162.5456 -0.517 -0.802 0.298 248 223 226
-1888.1195 5473.2524 -252.6864 -0.082 -0.216 -0.973 247 236 240
-3472.3372 2180.2712 1810.3704 0.549 -0.591 -0.590 178 178 168
-3475.4126 2203.0239 1805.9525 0.335 -0.369 -0.867 172 172 162
-3476.7871 2210.9011 1804.6425 0.349 -0.387 -0.854 164 164 154
-4366.6069 2839.4810 2252.9268 0.354 -0.488 -0.798 174 174 164
-3890.9646 2594.2661 1986.9786 0.516 -0.853 0.076 181 178 169
-3888.4529 2600.5120 1983.3877 0.673 -0.725 -0.142 195 192 183
-3923.2761 2633.8472 1998.3986 0.777 -0.613 -0.143 199 199 189
-4472.5498 3366.3257 2175.2402 0.967 -0.251 -0.036 203 203 195
-3680.8875 3002.1287 1719.8539 -0.416 -0.820 0.392 31 32 27
-3029.4812 2661.4851 1357.0261 -0.483 -0.822 0.301 32 31 21
-2856.9404 2579.9812 1258.3929 -0.323 -0.718 -0.617 30 36 42
-2850.9009 2582.4451 1253.3988 -0.374 -0.917 -0.136 57 58 67
-2837.2476 2577.4155 1245.1821 -0.232 -0.923 -0.306 78 73 87
-2821.1392 2578.2866 1233.5148 -0.437 -0.892 -0.113 28 44 70
-2844.6038 2678.9116 1220.9659 0.515 -0.780 -0.355 42 132 188
-3157.3821 3157.1016 1303.9542 0.639 -0.653 -0.406 47 37 29
-3067.6777 3174.0220 1235.4822 0.688 -0.491 0.534 22 17 13
-2843.8638 3149.9739 1083.8564 0.792 -0.442 -0.421 53 52 48
-2831.9954 3146.5134 1076.4495 0.841 -0.506 -0.195 22 18 15
-3323.7817 4214.4360 1115.2921 -0.708 -0.685 -0.171 224 216 195
-3382.0603 4306.9355 1129.7690 -0.459 -0.837 -0.297 226 208 195
-2188.7654 3313.7009 572.1692 -0.178 -0.929 -0.323 202 172 164
-3084.4556 5209.4775 657.1877 0.496 -0.415 0.763 164 127 121
-3068.4976 5282.2764 624.7714 0.985 0.101 -0.137 206 167 162
-3087.9211 5337.7412 622.4532 0.826 -0.006 -0.564 205 166 161
-3099.0864 5527.7930 575.2594 -0.279 -0.917 -0.285 207 163 162
-3085.0842 5523.5156 566.5775 -0.272 -0.932 -0.240 207 163 162
-3090.1785 5576.8218 554.7311 -0.101 -0.994 -0.032 198 154 153
-3140.5466 5693.7603 556.5163 0.205 -0.578 0.790 198 154 153
-3188.9692 5830.9463 551.0522 0.622 -0.445 0.645 199 155 154
-2096.7314 4465.0200 173.1257 -0.222 -0.968 0.118 189 127 105
-2672.6553 6118.1523 101.9072 0.089 -0.437 -0.895 166 108 84
-2444.8606 5863.8062 14.2360 0.085 -0.714 0.695 127 86 64
-2013.9637 5428.3931 -164.8564 -0.488 -0.800 0.350 230 205 208
-1733.1298 4831.8179 -190.8824 -0.474 -0.865 -0.165 247 232 235
-1938.5021 5601.7231 -268.5873 -0.049 -0.895 0.444 255 247 251
-1917.8296 5568.4785 -273.5967 0.019 -0.898 0.440 255 247 251
-1823.8118 5633.1143 -358.9607 0.522 -0.730 0.442 231 212 218
-3482.7393 2183.5022 1807.2579 0.303 -0.482 -0.822 179 179 167
-3483.7463 2204.8315 1801.7412 0.346 -0.417 -0.840 172 172 160
-3487.2461 2214.1860 1801.4847 0.347 -0.393 -0.852 164 164 152
-3888.0000 2587.4475 1975.9331 0.725 -0.686 -0.057 181 179 167
-3938.1724 2664.5198 1988.9121 0.790 0.007 -0.613 181 182 174
-4643.2876 3539.6863 2232.0601 0.663 -0.252 -0.705 145 145 137
-3452.4187 2762.0911 1616.8396 0.193 -0.871 0.451 33 30 25
-3420.5938 2743.3103 1599.8143 0.898 -0.380 -0.221 31 29 24
-3417.4714 2749.2710 1595.8651 0.880 -0.409 -0.240 30 29 24
-3775.0120 3107.4380 1744.1566 0.107 -0.434 0.894 32 32 23
-3104.7981 2701.2761 1388.7253 -0.635 -0.773 0.006 46 35 27
-2913.3569 2604.2827 1281.6436 0.450 -0.610 -0.652 18 5 21
-2867.9226 2585.3455 1255.0380 -0.261 -0.788 -0.558 33 35 46
-2860.8784 2586.8455 1249.6174 -0.261 -0.788 -0.558 54 47 61
-2838.2427 2581.3975 1235.1981 -0.236 -0.958 0.160 49 45 64
-2828.3909 2580.0671 1228.6184 -0.252 -0.957 0.144 32 44 69
-2858.6606 2670.0608 1223.7465 0.742 -0.622 -0.250 44 139 194
-2844.4998 2690.6565 1207.7155 0.428 -0.816 -0.388 24 93 131
-2833.2236 2687.9114 1200.5416 0.296 -0.902 -0.315 22 88 118
-2823.4167 2686.6382 1193.9769 0.518 -0.719 -0.464 43 97 131
-3180.7795 3154.6172 1310.0728 0.715 -0.648 -0.264 30 29 16
-3056.2114 3144.0869 1225.0400 0.282 -0.520 0.807 16 11 3
-2945.8279 3032.8008 1179.4652 0.330 -0.944 -0.028 11 8 4
-2833.9980 3048.3003 1095.8405 -0.265 -0.605 -0.751 23 31 18
-2818.8813 3071.7810 1078.2910 -0.260 -0.861 -0.438 13 10 5
-2868.7671 3348.6292 1032.7242 0.543 -0.762 0.353 193 110 53
-2810.0730 3298.1482 1005.9520 0.185 -0.879 0.440 194 111 50
-3359.4922 4266.5098 1111.7582 -0.028 -0.739 0.674 220 189 176
-3317.4109 4224.9170 1094.1405 0.128 -0.706 0.696 214 178 174
-3311.2788 4231.2983 1087.9397 -0.031 -0.667 0.745 211 170 174
-3281.1135 4205.3081 1074.1938 -0.277 -0.626 0.729 203 166 170
-3219.7732 4151.3481 1046.5658 -0.239 -0.648 0.723 200 173 154
-2960.0686 3852.5637 950.1324 -0.171 -0.853 0.493 209 176 156
-3071.7720 5313.9746 602.3472 0.995 0.090 0.044 205 166 161
-3134.7502 5512.4849 588.9189 0.940 -0.172 0.293 205 166 161
-3137.6125 5671.4126 544.5299 0.203 -0.580 0.789 198 154 153
-2233.0400 4795.3521 160.5650 0.360 -0.461 0.811 176 116 92
-2353.5068 5271.0312 106.8538 0.687 -0.450 0.571 172 112 88
-2486.8086 5865.5674 27.5096 0.096 -0.704 0.704 157 110 84
-2473.5029 5859.6914 19.8144 0.096 -0.704 0.704 152 106 80
-2449.9934 5855.3340 4.4585 0.083 -0.716 0.693 140 99 77
-2046.0692 5234.2017 -99.8435 0.640 -0.206 -0.741 224 190 189
-1980.9045 5589.0210 -249.5573 0.960 -0.172 -0.221 249 234 237
-1980.5425 5616.6538 -257.8833 0.735 -0.660 -0.157 249 234 239
-1969.9187 5614.0815 -264.6464 0.022 -0.887 0.461 251 236 241
-1943.4929 5593.1987 -277.2389 -0.044 -0.900 0.434 253 242 246
-3491.1106 2185.3267 1803.0955 0.303 -0.482 -0.822 173 171 159
-3489.9253 2191.3682 1800.4817 0.291 -0.486 -0.824 180 178 166
-3493.7407 2207.7812 1798.3478 0.329 -0.429 -0.842 174 172 160
-3494.6558 2215.3411 1796.7701 0.286 -0.433 -0.855 163 161 149
-3542.8850 2816.7744 1653.9200 -0.027 -0.815 0.579 22 20 15
-3475.3171 2767.7007 1620.6512 0.111 -0.883 0.456 23 20 15
-3453.9546 2758.0525 1608.4071 0.194 -0.873 0.447 31 28 23
-3437.1326 2752.2419 1598.2397 0.925 -0.380 -0.028 28 25 20
-3429.3582 2754.2024 1592.1744 0.946 -0.316 -0.073 29 28 20
-3426.8826 2760.7500 1588.5009 0.945 -0.321 -0.070 36 35 26
-3311.0112 2763.2366 1505.9641 0.449 -0.641 -0.623 56 48 33
-3326.0864 2821.1895 1499.5616 0.807 -0.579 -0.118 24 18 6
-3323.2754 2827.5920 1495.6937 0.703 -0.709 0.057 24 18 6
-2847.3406 2584.9673 1231.0471 -0.219 -0.963 0.159 44 50 59
-2840.0703 2586.2026 1225.5509 -0.244 -0.950 0.196 35 51 66
-3155.5542 3162.2378 1278.8531 0.445 -0.494 -0.746 46 23 23
-3145.2200 3161.4980 1271.7748 0.506 -0.629 -0.590 42 23 20
-2960.9202 3032.7603 1179.5248 0.412 -0.737 -0.536 18 15 4
-2961.6672 3043.6003 1176.8636 0.445 -0.877 -0.182 16 14 9
-2831.8293 3049.1653 1083.5613 -0.292 -0.700 -0.651 24 31 18
-2837.9907 3076.7788 1079.7892 -0.130 -0.923 -0.361 23 24 18
-2824.9265 3071.9001 1072.0009 -0.022 -0.970 -0.241 29 26 21
-3245.8696 4119.2437 1061.1310 -0.183 -0.776 0.604 198 140 118
-2989.7019 3870.2283 953.5195 -0.316 -0.826 0.466 213 171 150
-2958.8872 3841.5159 940.2097 -0.177 -0.854 0.489 222 173 154
-2827.2029 3686.7258 892.7690 -0.495 -0.727 0.476 220 173 154
-2411.7827 3191.8376 745.0441 -0.651 -0.668 0.359 213 179 164
-2268.0039 3359.4375 594.2399 0.754 -0.583 0.304 202 175 167
-3055.5596 5188.8550 612.1665 0.990 0.137 0.011 142 105 99
-3039.0840 5427.2881 530.4044 0.932 -0.027 0.360 206 162 161
-3071.0959 5508.3960 529.1484 0.949 -0.028 0.315 195 151 150
-3086.4097 5558.8184 525.1292 0.465 -0.431 0.774 195 151 150
-3083.8545 5576.0020 518.2710 0.390 -0.471 0.791 195 151 150
-2848.2478 5236.4087 451.8175 0.165 -0.690 0.705 149 105 102
-2080.7849 4680.7915 73.4125 0.165 -0.986 -0.022 167 109 87
-2438.3796 5752.6196 10.6168 -0.123 -0.765 0.632 154 107 82
-2423.6143 5768.9946 -4.6239 0.049 -0.855 0.516 152 111 89
-2356.1445 5653.9873 -18.4302 0.087 -0.693 0.715 156 115 93
-2018.0712 5370.2280 -173.6478 0.923 -0.209 -0.323 204 179 182
-2020.1433 5402.6069 -181.7086 -0.344 -0.710 -0.615 209 181 185
-2020.4172 5652.7710 -255.0961 0.964 -0.262 -0.051 250 235 239
-1989.3566 5590.7671 -258.7877 0.945 -0.186 -0.268 244 229 233
-1987.5022 5701.1274 -292.5572 0.944 -0.300 -0.137 234 219 224
-1840.6752 5637.3003 -377.4436 0.564 -0.670 0.483 241 224 232
-3489.5234 2180.3191 1793.9200 0.772 -0.411 -0.485 171 169 157
-3490.1025 2187.5557 1792.1846 0.765 -0.413 -0.495 178 176 164
-3497.5139 2199.5239 1793.8622 0.350 -0.467 -0.812 182 180 168
-3500.3374 2208.3708 1793.2312 0.345 -0.418 -0.841 175 173 161
-3501.5276 2216.1177 1791.7751 0.340 -0.465 -0.817 162 160 148
-3502.2148 2272.7576 1775.4818 0.900 -0.425 -0.097 178 178 166
-3473.2036 2760.5369 1610.5493 0.137 -0.883 0.449 24 19 13
-3443.0747 2743.3682 1594.4034 0.194 -0.904 0.382 22 17 13
-3411.0664 2741.6816 1572.3468 0.744 -0.601 -0.293 48 43 33
-3446.9133 2843.5410 1567.4355 0.299 -0.777 0.554 90 83 64
-3309.3005 2764.9861 1493.7299 0.425 -0.646 -0.634 93 77 57
-3319.4536 2809.5381 1487.6877 0.586 -0.754 -0.297 32 22 9
-2884.8455 2607.9268 1241.1428 0.441 -0.310 -0.842 41 54 54
-2848.1221 2588.7437 1220.9463 -0.255 -0.947 0.193 39 54 62
-2815.6333 2573.4412 1202.5846 0.046 -0.989 -0.144 33 46 71
-2805.5564 2571.8132 1195.9656 0.094 -0.983 -0.160 76 91 120
-3219.0105 3171.1887 1309.7791 0.723 -0.688 0.058 51 45 39
-3202.3618 3163.9548 1300.1896 0.496 -0.435 -0.752 60 40 28
-3162.6396 3163.0293 1272.4718 0.169 -0.575 0.800 35 21 17
-2984.3254 3031.7578 1185.6998 -0.265 -0.929 0.259 56 47 35
-2969.9717 3026.0867 1177.2646 0.643 -0.662 -0.386 29 25 11
-2967.9011 3033.7991 1173.5209 0.651 -0.666 -0.366 16 16 0
-2965.6008 3041.2849 1169.6826 0.518 -0.682 -0.515 17 20 6
-2923.1685 3157.8989 1105.2377 0.779 -0.625 0.059 31 32 23
-2845.9939 3079.1409 1074.1827 -0.133 -0.929 -0.345 40 40 32
-2843.7488 3203.0542 1035.8955 0.745 -0.477 -0.466 165 102 50
-2747.3120 3271.1301 947.7718 0.815 -0.505 -0.283 200 107 48
-2701.2361 3234.8181 926.0587 0.196 -0.753 0.628 202 109 50
-2280.7207 3357.9111 593.2618 0.309 -0.886 0.346 178 161 154
-2250.1462 3334.7185 578.5863 -0.600 -0.653 -0.462 166 152 144
-2133.0417 3221.6223 529.5645 0.465 -0.742 -0.482 18 10 6
-2239.3354 3537.3293 510.9512 -0.120 -0.986 -0.118 200 173 168
-3009.4441 5252.7598 545.5027 0.959 0.085 0.269 164 127 121
-3025.2505 5364.6597 523.4946 0.954 0.033 0.298 161 121 117
-3035.2734 5404.3140 518.8115 0.932 -0.027 0.360 161 121 117
-2761.5918 5116.3091 411.2617 -0.041 -0.644 0.764 205 162 156
-2132.5649 4764.6738 72.1507 0.647 -0.726 -0.234 170 113 93
-2351.4160 5595.9570 -19.8663 -0.426 -0.811 0.401 154 114 90
-2333.9192 5735.7515 -73.6058 -0.638 -0.753 0.164 189 151 139
-2022.1575 5180.6025 -128.8577 -0.192 -0.952 0.237 231 196 194
-2034.4470 5394.3369 -183.5092 -0.575 -0.531 -0.622 196 166 171
-1898.4814 5440.9624 -293.1345 0.777 -0.617 0.121 222 204 210
-1910.8953 5506.4585 -303.7875 0.535 -0.786 -0.310 236 218 224
-1903.9078 5514.0518 -310.9608 0.535 -0.786 -0.310 249 232 238
-3495.5044 2180.5039 1788.5547 0.760 -0.445 -0.474 172 170 158
-3496.6396 2188.1174 1787.0820 0.809 -0.347 -0.474 178 176 164
-3501.8823 2198.5823 1787.6479 0.586 -0.523 -0.619 183 181 169
-3505.9883 2208.3042 1787.6361 0.763 -0.395 -0.512 175 173 161
-3507.7661 2216.4517 1786.4562 0.727 -0.426 -0.538 162 160 148
-3952.6187 2677.0896 1961.9519 0.193 -0.727 -0.659 193 194 186
-3469.4338 2751.9814 1599.7449 0.127 -0.889 0.440 25 18 10
-3443.4780 2738.4028 1585.5383 0.196 -0.908 0.371 22 15 9
-3435.0642 2739.7986 1579.2039 0.931 -0.366 -0.009 57 50 44
-3432.5566 2746.2715 1575.5092 0.931 -0.366 -0.009 82 74 70
-3448.8994 2812.9963 1567.1003 0.125 -0.448 0.885 138 129 112
-3408.9797 2804.3962 1541.5867 0.455 -0.598 0.660 137 126 108
-3334.9541 2756.2637 1503.8759 0.071 -0.786 -0.614 134 114 92
-3333.3596 2763.5737 1500.5739 0.081 -0.795 -0.601 132 111 92
-3316.9329 2757.6243 1490.7941 0.262 -0.707 -0.656 126 107 87
-3314.1526 2763.8740 1486.9741 0.272 -0.708 -0.652 105 84 65
-3276.9700 2739.1523 1468.1949 0.866 -0.436 0.246 86 65 46
-3272.8655 2744.1460 1463.8184 0.877 -0.422 0.231 66 47 27
-2893.3196 2568.9744 1249.1038 0.383 -0.421 -0.822 15 19 20
-2892.5637 2610.0623 1236.3154 0.441 -0.310 -0.842 39 54 52
-2856.6577 2583.3677 1219.0226 -0.212 -0.964 0.160 37 55 55
-2857.4988 2592.5737 1216.8680 -0.333 -0.939 0.082 39 53 60
-2846.6023 2737.5957 1165.9434 0.839 -0.228 -0.494 45 122 159
-2873.5613 2792.7927 1168.4408 0.813 -0.572 -0.108 94 102 112
-2868.7878 2796.9355 1163.8474 0.425 -0.094 -0.901 71 57 48
-2976.5420 3026.6753 1171.1090 0.651 -0.666 -0.366 30 26 11
-2972.8813 3032.6465 1166.7528 0.651 -0.666 -0.366 16 17 1
-2973.2759 3043.0750 1163.9197 0.525 -0.671 -0.524 17 20 5
-2917.3308 3144.1331 1094.4227 0.769 -0.635 0.072 33 33 24
-2851.9604 3205.5950 1030.1079 0.771 -0.446 -0.454 166 102 51
-2258.3992 3035.5046 663.3416 -0.403 -0.909 0.105 43 22 13
-2267.6523 3353.3198 575.0458 -0.600 -0.653 -0.462 72 62 53
-2147.2517 3223.5342 529.0723 0.015 -0.973 0.229 16 13 8
-2129.4089 3206.9817 521.4597 -0.013 -0.980 0.197 15 12 7
-3044.1252 5198.9199 570.6645 0.512 -0.394 0.763 194 157 151
-3117.2334 5694.7754 474.1740 0.754 -0.453 0.475 216 173 167
-3154.0930 6914.8735 136.1446 -0.553 -0.789 0.267 188 132 117
-2346.9805 5415.0557 15.8273 0.655 -0.418 -0.630 161 113 91
-2431.2092 5746.2935 -23.7356 0.967 0.041 -0.251 154 113 91
-2326.2007 5668.5156 -74.3962 -0.506 -0.803 0.315 189 152 135
-2047.8615 5436.7456 -201.0398 -0.631 -0.663 -0.402 210 178 181
-2020.3993 5440.8789 -221.5894 -0.674 -0.721 0.163 250 222 224
-1991.9014 5552.5352 -274.9415 0.938 -0.177 -0.299 237 222 227
-1989.2941 5573.1870 -282.9359 0.742 -0.639 0.200 231 214 220
-1981.0621 5634.8604 -307.1234 0.598 -0.753 0.276 217 200 206
-1918.2493 5477.0918 -304.2428 0.615 -0.787 0.045 223 204 210
-1906.5775 5498.9385 -318.9695 0.547 -0.797 -0.256 250 233 239
-3509.2861 2199.7275 1782.9413 0.542 -0.526 -0.656 182 180 168
-3511.5178 2208.1523 1781.9775 0.912 -0.326 -0.248 175 173 161
-3513.7905 2216.6348 1781.0250 0.905 -0.329 -0.271 163 161 149
-3938.9963 2605.3218 1962.8013 0.453 -0.451 -0.769 168 168 156
-3935.8157 2627.3027 1953.9653 0.488 -0.447 -0.749 188 190 179
-3962.1936 2662.7307 1961.8429 0.197 -0.627 -0.754 176 177 169
-3937.4016 2661.1497 1944.9119 -0.319 -0.662 -0.678 193 194 186
-3930.3127 2664.2021 1939.0178 -0.247 -0.631 -0.736 193 194 186
-4004.5630 2769.3535 1959.5623 0.148 -0.895 -0.421 194 195 187
-4476.7744 3338.6543 2120.0872 0.878 -0.331 -0.345 198 201 194
-3460.1821 2738.7793 1586.5446 0.135 -0.883 0.449 25 18 10
-3436.6143 2727.2373 1573.4650 0.731 -0.598 0.329 34 27 19
-3430.1526 2730.2805 1568.0142 0.735 -0.596 0.323 92 83 78
-3433.9814 2742.1741 1567.1298 0.930 -0.369 -0.002 127 119 115
-3424.9998 2743.0623 1560.5571 0.728 -0.598 0.334 123 114 106
-3435.5647 2769.5508 1560.0179 0.164 -0.441 0.883 134 120 106
-3327.1121 2717.9832 1499.3649 0.742 -0.669 -0.046 149 134 120
-3305.8213 2707.7764 1487.4829 0.723 -0.682 -0.115 151 132 116
-3277.1089 2690.9133 1472.3898 0.768 -0.640 -0.027 145 122 105
-3249.7849 2675.1636 1457.9369 0.733 -0.665 -0.142 142 115 98
-3296.4561 2742.5510 1470.4622 0.372 -0.839 0.396 102 74 58
-3296.1121 2750.9407 1467.7003 0.439 -0.801 0.406 70 42 26
-3283.6282 2748.4124 1459.6952 0.617 -0.676 0.402 55 29 10
-3279.5029 2753.4072 1455.2986 0.522 -0.795 0.310 56 33 19
-3274.3645 2757.4912 1450.4640 0.525 -0.797 0.299 51 31 19
-3227.7957 2741.2524 1422.6466 -0.405 -0.839 0.363 51 31 22
-3188.6438 2714.0454 1403.3313 -0.407 -0.840 0.359 53 33 24
-2893.4888 2605.5706 1228.6912 0.176 -0.383 -0.907 39 55 52
-2868.6147 2589.7007 1215.9945 -0.340 -0.936 0.094 38 56 55
-2866.4648 2595.9846 1212.5975 -0.357 -0.930 0.084 39 54 60
-2874.5254 2787.8467 1160.6248 0.787 -0.615 -0.055 109 116 121
-2884.2183 2807.1257 1161.6389 0.316 -0.114 -0.942 85 68 52
-2881.0776 2813.0198 1157.6636 -0.024 -0.267 -0.963 96 64 40
-3047.6299 3057.0469 1201.2960 -0.244 -0.925 0.292 86 55 48
-3027.1140 3044.9797 1190.5168 -0.253 -0.923 0.291 82 58 46
-2983.4846 3027.6633 1165.0868 0.539 -0.704 -0.463 29 24 10
-2980.3699 3034.2300 1160.9275 0.545 -0.673 -0.501 16 17 1
-2977.1345 3040.6826 1156.7177 0.537 -0.678 -0.502 17 20 6
-2853.6357 3200.3000 1022.0649 0.791 -0.372 -0.486 169 101 51
-2857.9058 3216.2197 1020.2809 0.631 -0.473 -0.615 176 99 40
-3072.4287 3940.6377 953.2919 -0.448 -0.805 0.389 194 118 58
-2431.5164 3195.5588 727.1253 -0.620 -0.744 0.250 117 71 54
-2291.0251 3074.6353 664.8118 0.004 -1.000 -0.013 51 25 12
-2268.4434 3075.2969 648.7587 0.689 -0.719 -0.088 51 31 15
-2285.8821 3335.6719 582.7903 0.419 -0.793 0.443 98 85 79
-2285.9443 3373.0586 571.6036 -0.596 -0.657 -0.462 33 23 16
-2154.9043 3227.0037 523.4747 -0.095 -0.993 -0.073 14 11 6
-2134.7817 3206.8591 515.3979 -0.015 -0.980 0.200 15 12 7
-3038.3389 5193.7944 552.9323 0.214 -0.471 0.856 211 174 168
-3024.4338 5352.8091 495.4045 0.933 -0.029 0.357 194 155 150
-2895.8748 5197.0483 451.9330 0.301 -0.683 0.665 202 163 158
-2873.7085 5196.5122 436.5312 0.613 -0.546 0.571 202 159 153
-2557.5813 5427.6831 145.1435 0.906 -0.418 0.063 196 140 127
-2268.8916 5209.0132 8.1434 0.489 -0.422 -0.763 161 113 91
-2269.8752 5234.9556 1.0414 0.783 -0.412 -0.466 161 113 91
-2421.7197 5625.4385 -9.6449 0.007 -0.897 0.443 161 113 91
-2365.2546 5641.2524 -54.0386 -0.063 -0.944 0.324 164 123 101
-2332.3264 5611.0459 -68.0835 0.987 -0.091 0.136 188 147 127
-2061.6060 5453.2969 -210.7672 -0.638 -0.670 -0.381 208 176 179
-1994.0049 5564.1216 -291.5187 0.745 -0.635 0.204 236 220 223
-1987.2255 5572.6479 -298.8397 0.700 -0.681 0.216 233 215 219
-1944.6693 5532.6294 -316.6968 0.460 -0.885 0.069 242 225 231
-1893.1075 5698.3525 -402.6778 0.928 -0.026 -0.371 252 241 249
-3518.9761 2202.4348 1779.3507 0.557 -0.497 -0.665 176 174 162
-3519.6960 2209.8208 1777.6213 0.874 -0.388 -0.293 173 171 159
-3518.2463 2215.7336 1774.8169 0.943 -0.242 -0.228 167 165 153
-3516.2878 2228.2571 1769.6565 0.895 -0.375 -0.242 164 162 150
-3513.6672 2233.4026 1766.2638 0.896 -0.373 -0.242 177 175 163
-3910.5708 2564.4487 1944.2784 0.920 0.054 -0.388 188 188 176
-3964.7856 2643.4338 1958.3812 0.521 -0.316 -0.793 187 188 180
-4013.1040 2770.6719 1953.7574 0.148 -0.895 -0.421 195 196 188
-4478.4238 3333.8066 2109.5190 0.863 -0.334 -0.379 186 189 182
-3468.7654 2740.8054 1581.3276 0.485 -0.743 0.462 24 17 9
-3315.8706 2711.3254 1483.0981 0.182 -0.480 0.858 157 131 118
-3273.2258 2682.1912 1462.0255 0.173 -0.486 0.856 137 106 92
-3326.5266 2746.6257 1479.8887 0.467 -0.780 0.418 114 80 65
-3315.6042 2745.5759 1472.5521 0.469 -0.782 0.409 103 69 56
-3300.0151 2740.3228 1463.2163 0.430 -0.811 0.397 87 53 38
-3291.8301 2741.6624 1457.0752 0.430 -0.811 0.397 75 41 27
-3276.9031 2745.6045 1445.4222 0.573 -0.712 -0.405 62 32 17
-3273.2080 2750.9734 1441.2090 0.573 -0.712 -0.405 54 27 17
-3221.8999 2721.7449 1414.0936 0.017 -0.825 0.565 54 27 19
-3234.7222 2742.1152 1416.9180 -0.405 -0.839 0.363 56 28 19
-3131.9182 2690.7341 1360.4154 -0.203 -0.817 -0.540 27 18 13
-2907.6492 2605.5427 1229.0186 0.448 -0.356 -0.820 31 43 39
-2906.8452 2613.1804 1226.1451 0.448 -0.356 -0.820 39 54 52
-2874.8215 2598.7844 1208.0579 -0.357 -0.930 0.084 36 53 60
-2851.4832 2739.9509 1149.0054 0.775 -0.243 -0.583 107 175 209
-2889.4304 2797.4453 1158.2083 0.404 -0.129 -0.905 120 125 128
-2897.3208 2814.8398 1158.4764 -0.008 -0.248 -0.969 103 81 64
-3049.4802 3052.4666 1193.2344 -0.254 -0.921 0.294 141 110 102
-3026.2332 3037.4846 1181.4746 -0.255 -0.926 0.280 137 112 102
-3008.8301 3038.6230 1168.9344 0.194 -0.872 0.449 85 74 62
-3005.4958 3054.9873 1161.6484 0.335 -0.812 0.479 14 14 0
-2824.8860 3148.0884 1006.9207 0.876 -0.482 0.014 160 95 57
-2296.3896 3074.5090 658.8143 0.063 -0.978 0.200 68 37 19
-2346.5679 3408.3091 593.0167 -0.402 -0.916 0.012 28 17 11
-2288.2378 3330.4570 575.6874 0.419 -0.793 0.443 25 12 7
-2281.3462 3332.0642 570.3716 0.623 -0.712 0.323 34 21 15
-2302.4751 3389.9355 567.6746 -0.586 -0.671 -0.453 19 9 4
-3096.6799 6681.9751 128.5254 -0.592 -0.742 0.315 199 143 128
-2556.9375 5723.2075 40.2731 -0.677 -0.665 -0.315 187 130 110
-2194.8196 5396.3979 -114.6457 -0.310 -0.694 -0.649 192 155 139
-1982.2803 5371.1265 -255.9460 0.508 -0.751 -0.422 233 218 223
-2004.8536 5489.4165 -275.9052 0.632 0.066 -0.772 236 221 226
-2023.1666 5569.4810 -287.2880 0.628 0.061 -0.776 236 221 226
-1916.5922 5539.9575 -353.0439 -0.285 -0.858 0.428 246 234 241
-3519.1416 2205.4856 1768.9674 0.940 -0.278 -0.197 173 171 159
-3520.3655 2213.2244 1767.4667 0.939 -0.279 -0.201 169 167 155
-3519.1428 2219.2991 1764.7615 0.939 -0.279 -0.201 162 160 148
-3519.0662 2226.1836 1762.6113 0.895 -0.375 -0.242 162 160 148
-3515.2847 2230.5154 1758.6471 0.871 -0.440 -0.220 176 174 162
-3951.6714 2629.2588 1942.4592 0.878 -0.328 -0.348 187 189 178
-3967.8052 2649.0186 1947.7269 0.926 0.056 -0.375 182 183 175
-3986.3564 2678.8691 1951.6125 -0.249 -0.689 -0.681 176 177 169
-4552.4790 3365.5149 2138.4956 0.567 -0.169 -0.806 196 199 190
-4486.4185 3333.9883 2101.8884 0.862 -0.324 -0.390 180 183 176
-4710.7104 3587.2583 2181.6460 0.817 -0.384 -0.429 85 86 78
-3473.2805 2739.3650 1574.3019 0.515 -0.746 0.422 22 17 11
-3238.0913 2654.2944 1435.6982 0.189 -0.476 0.859 108 68 56
-3264.5542 2729.0439 1431.4445 -0.169 -0.844 0.510 59 23 13
-3211.7864 2690.0142 1406.4204 -0.283 -0.804 0.524 61 27 20
-2858.0405 2749.8706 1140.7529 0.774 -0.248 -0.582 141 192 218
-2906.1284 2808.8687 1156.4225 -0.031 -0.211 -0.977 126 125 124
-2914.8452 2827.1338 1156.9572 0.001 -0.239 -0.971 116 87 66
-2912.3936 2833.8032 1153.2112 0.232 -0.255 -0.939 123 76 48
-3024.3076 2989.6021 1184.0465 0.502 -0.664 0.554 173 141 119
-2999.4575 3031.8794 1153.7893 0.841 -0.342 0.419 47 41 27
-2397.9597 3427.9043 612.4476 0.385 -0.477 -0.790 136 107 99
-2386.8965 3423.5867 606.0238 -0.236 -0.972 0.023 36 18 11
-2378.9014 3423.9102 600.3329 -0.400 -0.917 -0.006 25 11 4
-2380.9119 5390.4761 2.8449 -0.496 -0.645 -0.582 184 136 113
-2284.3081 5209.1499 -9.5071 0.246 -0.386 -0.889 180 132 109
-2341.9473 5468.1548 -48.0663 -0.259 -0.710 0.654 164 124 99
-2365.4988 5550.5405 -56.6822 0.781 -0.307 0.543 163 123 98
-2363.4038 5570.7285 -64.2955 1.000 -0.017 -0.012 164 124 99
-2332.9524 5649.6689 -109.6360 -0.243 -0.908 0.342 190 152 139
-2066.0083 5449.4302 -235.3784 -0.676 -0.737 -0.025 185 150 154
-2001.1608 5376.1294 -258.4153 -0.068 -0.996 0.052 184 167 172
-1991.9216 5376.8613 -265.1008 0.510 -0.756 -0.411 200 188 192
-3943.1936 2484.5603 1969.8995 0.980 -0.196 0.026 176 174 162
-3522.2466 2203.6716 1762.1256 0.873 -0.378 -0.308 173 171 159
-3525.7598 2212.9734 1761.7262 0.768 -0.467 -0.439 169 167 155
-3524.2661 2218.8577 1758.8793 0.526 -0.631 -0.571 162 160 148
-3522.3418 2224.4590 1755.8184 0.572 -0.509 -0.644 161 159 147
-3518.9514 2229.0569 1752.0415 0.544 -0.591 -0.596 176 174 162
-3950.4866 2615.6060 1934.8110 0.862 -0.500 0.087 183 183 171
-3946.8752 2621.0979 1930.6058 0.862 -0.500 0.087 187 189 178
-3998.7952 2683.0540 1947.8589 -0.093 -0.805 -0.586 177 178 170
-4562.8438 3346.9304 2138.1150 0.857 -0.505 0.103 196 197 189
-4730.3521 3552.7290 2191.9658 0.708 -0.505 -0.493 143 144 138
-4709.3862 3568.6328 2172.4517 0.824 -0.508 -0.249 110 111 103
-3477.4885 2737.6667 1567.1464 0.459 -0.799 0.388 23 17 11
-3242.0007 2644.1658 1431.4015 0.138 -0.493 0.859 101 58 47
-3305.7817 2760.7292 1440.1925 0.760 -0.209 0.615 62 19 14
-2870.1855 2651.2354 1169.6389 0.322 -0.621 -0.715 199 196 205
-2862.9282 2731.2512 1140.0381 0.803 -0.239 -0.546 108 190 204
-3008.7207 3045.3015 1145.5360 0.224 -0.938 -0.263 25 27 10
-2829.2891 3035.8965 1023.1437 0.220 -0.716 -0.663 27 27 20
-2290.4758 3061.4744 639.1109 0.270 -0.957 -0.104 139 98 75
-2691.2058 6047.2314 3.4224 -0.100 -0.832 0.546 191 142 120
-2324.4509 5607.7866 -117.9001 -0.062 -0.812 0.581 185 147 134
-2271.7754 5552.3604 -137.6828 -0.421 -0.685 -0.594 192 154 141
-2127.8965 5334.9800 -171.4850 -0.303 -0.891 -0.338 202 167 165
-2081.6047 5263.8760 -182.0038 -0.219 -0.915 -0.340 225 190 188
-2010.8539 5381.9121 -267.5923 0.517 -0.777 -0.360 192 175 180
-2002.1825 5384.2822 -274.3732 0.524 -0.761 -0.383 203 188 193
-1988.9146 5482.1343 -313.6392 -0.251 -0.887 -0.387 255 243 248
-3930.0732 2478.8623 1951.8309 0.439 -0.296 -0.848 173 171 159
-3532.6824 2213.7703 1756.7250 0.511 -0.643 -0.570 168 166 154
-4484.1953 2893.2786 2210.0659 0.001 -0.792 -0.610 176 174 162
-4469.4272 2900.7363 2197.4722 -0.000 -0.790 -0.613 176 174 162
-4580.9531 3375.4934 2128.6428 0.732 -0.250 -0.634 191 192 184
-4536.3018 3350.7654 2105.1589 0.879 -0.408 -0.247 183 184 178
-4506.9233 3337.8975 2088.6580 0.601 -0.524 -0.603 169 170 164
-4718.8008 3558.7080 2168.1511 0.712 -0.527 -0.463 124 127 118
-4722.6533 3572.6875 2166.5205 0.513 -0.671 -0.536 114 115 107
-4728.7773 3588.5464 2165.8931 0.517 -0.660 -0.545 96 98 87
-3478.0552 2732.8894 1558.4117 0.454 -0.783 0.426 25 16 8
-3160.5967 2701.0217 1347.0167 -0.097 -0.458 -0.884 36 19 13
-2878.2700 2653.7661 1164.8547 0.277 -0.658 -0.700 206 209 216
-2876.4111 2660.5103 1161.4775 0.230 -0.572 -0.787 186 189 198
-2877.9382 2688.0291 1154.0471 0.338 -0.888 -0.311 164 164 173
-2877.1858 2749.0457 1134.6879 0.710 -0.088 -0.698 98 173 185
-2928.0200 2810.5042 1151.1421 -0.012 -0.175 -0.984 97 148 157
-2969.0662 3005.7012 1119.4922 0.674 -0.624 -0.396 16 22 8
-2837.4429 3038.4883 1017.6448 0.220 -0.716 -0.663 48 50 42
-2295.0845 3314.6104 554.4485 0.557 -0.713 0.425 24 10 1
-2956.1621 6526.8320 23.5788 -0.179 -0.861 0.477 205 150 131
-2695.5020 6036.5093 -6.7159 -0.229 -0.838 0.496 196 148 128
-2266.8481 5224.5776 -54.8073 0.822 -0.508 -0.257 187 145 126
-2347.7563 5443.5176 -66.0070 -0.260 -0.710 0.654 187 146 126
-2277.5996 5598.6582 -162.7879 -0.530 -0.599 -0.600 192 156 144
-2161.6492 5640.5000 -256.5079 -0.342 -0.315 -0.885 223 191 194
-2038.4563 5686.8384 -356.6632 -0.526 -0.789 -0.317 248 229 235
-3939.8303 2481.1499 1947.2633 0.435 -0.290 -0.852 173 171 159
-4503.4111 2892.6343 2211.4128 0.023 -0.756 -0.654 160 158 146
-4495.9888 2896.3523 2205.0947 0.003 -0.784 -0.621 172 170 158
-4471.5073 2905.9460 2185.0845 0.072 -0.826 -0.559 169 170 156
-3954.6484 2609.2168 1917.7732 0.850 -0.523 0.064 171 171 159
-4563.9961 3335.6179 2115.8960 0.867 -0.467 0.174 192 193 185
-4605.0430 3377.8213 2131.3325 0.500 -0.294 -0.815 192 193 185
-4517.9863 3340.4753 2082.3826 0.595 -0.446 -0.669 160 161 155
-4771.4824 3627.2544 2169.5933 0.687 -0.673 -0.272 78 80 69
-3470.5598 2721.3125 1546.2124 0.459 -0.785 0.416 29 18 7
-3445.1162 2708.2739 1532.5658 0.227 -0.762 0.606 55 43 33
-3173.1196 2707.1482 1343.7180 -0.124 -0.583 -0.803 37 13 7
-3189.4189 2730.8030 1347.7047 -0.290 -0.529 -0.797 28 10 5
-2898.0994 2583.3218 1190.8967 -0.365 -0.833 0.415 42 55 54
-2874.5703 2670.3601 1147.4824 -0.207 -0.978 -0.012 167 163 171
-2872.5271 2676.9651 1144.0087 0.144 -0.946 -0.289 174 170 182
-2980.3201 3001.5642 1118.1176 0.493 -0.829 -0.264 28 31 13
-2973.4556 3003.9705 1112.5948 0.186 -0.826 -0.532 11 17 4
-2966.9287 3006.7361 1107.1954 0.856 -0.475 -0.203 7 12 6
-2843.0754 3099.4717 992.2264 0.351 -0.727 -0.590 129 93 66
-2466.2695 3148.2361 714.9708 0.781 -0.565 0.266 205 114 53
-2418.0063 3148.3635 681.3599 0.623 -0.507 0.596 146 78 40
-2373.7947 3401.7095 571.8781 0.226 -0.401 0.888 32 16 1
-2348.0864 3374.8440 562.3443 0.270 -0.392 0.880 30 14 1
-2333.7405 3365.2090 555.3596 0.623 -0.305 0.721 29 11 0
-2325.0493 3376.5779 545.7812 0.777 -0.234 0.585 25 10 0
-2320.9402 3382.6511 541.0357 0.706 -0.229 0.670 23 10 1
-2305.0283 3370.3713 533.7836 0.801 -0.454 0.390 14 10 2
-2186.3811 3356.6848 455.5071 0.065 -0.599 -0.798 32 27 21
-2297.6138 5256.2192 -57.4109 0.639 -0.553 -0.535 195 152 134
-2322.4417 5387.6816 -80.9934 -0.002 -0.730 0.683 193 155 136
-2353.5686 5487.6323 -90.4020 0.998 -0.066 -0.014 192 154 136
-2306.8250 5626.3145 -166.0127 0.971 -0.229 -0.068 183 147 134
-2286.7017 5601.2588 -172.2240 -0.354 -0.865 -0.356 191 154 144
-2136.2441 5631.4536 -286.2638 -0.403 -0.287 -0.869 217 186 188
-2039.5602 5638.5728 -355.7283 0.078 -0.957 -0.279 246 224 231
-3950.3713 2483.9631 1943.0529 0.440 -0.290 -0.850 172 170 158
-4516.1548 2896.3376 2206.8726 0.237 -0.880 -0.413 160 158 146
-4503.8872 2896.7258 2198.2336 0.207 -0.869 -0.449 172 170 158
-3956.1836 2605.6465 1909.0228 0.850 -0.523 0.064 168 170 156
-4288.1118 3086.9631 1988.9116 -0.546 -0.837 0.031 190 191 183
-4197.1245 3026.2480 1944.7328 -0.551 -0.835 0.015 186 187 179
-4564.7554 3330.1284 2104.9158 0.867 -0.467 0.174 182 184 178
-4611.1274 3397.0742 2116.1694 0.567 -0.110 -0.816 165 166 158
-4825.1792 3575.4663 2208.9792 0.620 -0.146 -0.771 159 159 151
-4798.7603 3576.4580 2190.3264 0.562 -0.020 -0.827 134 134 126
-4826.2939 3609.1719 2199.2090 0.621 0.036 -0.783 122 122 114
-4777.2393 3625.2002 2160.1370 0.687 -0.673 -0.272 79 81 70
-3620.8687 2816.4646 1610.2671 -0.560 -0.824 0.084 21 10 1
-3441.4258 2699.9536 1522.1282 0.365 -0.687 0.628 89 75 62
-3429.7192 2698.4834 1514.4604 0.834 -0.521 -0.184 89 75 63
-3414.0837 2693.6396 1505.1201 0.895 -0.444 0.045 86 73 60
-3409.7883 2698.4265 1500.6403 0.868 -0.474 0.146 89 68 56
-3276.1697 2617.0886 1433.3141 -0.208 -0.725 0.656 97 59 47
-3140.5779 2547.8367 1360.8370 0.716 -0.559 -0.417 112 67 48
-3182.6692 2710.5186 1339.1703 -0.135 -0.580 -0.804 52 14 8
-3016.4109 2640.7632 1245.5592 0.690 -0.706 -0.160 44 44 41
-2872.8774 2671.7283 1136.2184 0.028 -0.971 -0.236 192 181 194
-2981.2625 2909.5361 1137.0775 -0.120 -0.992 -0.024 192 166 146
-2953.7109 2908.9424 1118.1345 0.485 -0.841 -0.239 199 172 160
-2970.7905 3004.4368 1100.1199 0.558 -0.394 -0.731 5 11 5
-2828.6589 3106.7148 969.4439 0.270 -0.700 0.661 147 76 46
-2812.0637 3097.5696 960.7829 0.576 -0.621 0.532 151 75 47
-2802.4146 3106.9395 951.1525 0.592 -0.554 0.586 173 86 58
-2410.3176 3152.1145 664.7901 0.670 -0.649 0.361 74 31 6
-2420.9275 3402.1130 593.9512 0.574 -0.401 0.714 166 103 70
-2407.2153 3393.8997 587.0002 0.260 -0.409 0.875 159 95 59
-2397.7874 3404.4082 577.1672 0.165 -0.434 0.886 116 82 40
-2386.7583 3400.1089 570.8547 0.166 -0.432 0.886 101 72 34
-2368.3704 3384.5645 562.9509 0.217 -0.417 0.883 88 58 25
-2317.6160 3368.5598 532.7190 0.706 -0.229 0.670 32 8 0
-2313.2644 3374.2207 527.9268 0.707 -0.232 0.669 17 4 1
-2232.6299 3309.7314 492.1165 0.596 -0.565 0.571 5 11 10
-2170.9421 3260.5640 464.6678 0.199 -0.040 -0.979 17 13 10
-2568.8115 5728.2739 -31.0501 -0.225 -0.794 0.565 197 157 149
-2487.4646 5564.2822 -36.2284 -0.202 -0.755 0.624 197 157 149
-2328.7781 5432.7832 -105.2676 1.000 -0.024 0.013 195 158 148
-2323.6584 5469.7676 -120.3917 0.980 -0.032 0.198 195 158 148
-2321.7102 5489.9429 -128.0556 0.980 -0.035 0.198 195 158 148
-2290.0264 5615.2114 -189.2405 0.453 -0.810 0.373 172 137 131
-2221.3643 5842.1372 -307.8995 -0.362 -0.258 -0.896 195 163 162
-2152.8008 5710.1816 -314.2242 -0.318 -0.262 -0.911 185 159 159
-2114.3628 5631.6787 -316.3538 -0.711 -0.668 -0.219 191 166 166
-2074.5256 5659.3198 -352.6593 -0.627 -0.728 -0.278 234 209 210
-2071.4243 5793.8462 -396.8954 -0.468 -0.353 -0.810 246 216 222
-2058.7576 5815.6191 -412.5010 -0.468 -0.351 -0.811 249 220 226
-1928.4061 5751.3809 -482.9079 0.163 -0.612 0.774 254 229 241
-4514.4297 2898.9172 2192.6240 0.461 -0.879 0.119 172 170 158
-3945.3191 2537.9561 1911.8928 0.858 -0.393 -0.330 162 163 147
-3963.0496 2581.9177 1910.3372 0.777 -0.602 0.185 179 180 164
-3962.4976 2597.4736 1905.0562 0.802 -0.517 -0.298 168 169 153
-3958.2068 2602.4326 1900.5212 0.850 -0.519 -0.088 168 170 156
-3450.9294 2378.4712 1619.5007 -0.591 -0.758 -0.277 193 196 187
-4840.0498 3580.6042 2203.6238 0.613 -0.147 -0.776 160 160 152
-3432.9094 2696.0061 1507.0248 0.834 -0.521 -0.184 101 87 72
-3421.5725 2694.8242 1499.5406 0.876 -0.418 -0.240 88 74 62
-3112.2544 2510.0486 1343.3667 0.379 -0.498 -0.780 110 67 50
-3110.4973 2516.4558 1340.1315 0.379 -0.498 -0.780 113 67 49
-3200.6799 2603.7754 1375.1322 0.550 -0.523 -0.651 114 65 48
-3198.0725 2609.7053 1371.4579 0.563 -0.724 -0.399 113 64 49
-3150.1250 2575.5232 1348.9939 0.720 -0.681 0.134 106 57 42
-3196.3970 2717.7051 1336.2891 -0.135 -0.580 -0.804 68 27 20
-3202.1143 2731.5898 1335.8789 -0.091 -0.560 -0.823 65 27 23
-3077.0061 2658.5227 1272.1869 0.736 -0.252 -0.628 34 26 9
-3014.5647 2633.6731 1236.7397 0.383 -0.853 -0.356 45 44 42
-3005.2966 2633.3247 1230.4268 -0.123 -0.991 0.042 46 48 47
-2867.1206 2575.9133 1152.7489 0.634 -0.534 -0.560 37 51 54
-2864.9536 2582.1084 1149.2965 0.634 -0.534 -0.560 81 95 98
-2863.7671 2589.2805 1146.2158 0.626 -0.547 -0.556 183 196 201
-2837.3384 2596.7319 1125.5543 0.256 -0.941 -0.221 180 181 188
-3012.0740 2907.1689 1148.8931 0.572 -0.405 -0.713 202 179 160
-2984.4548 2906.7087 1129.8979 0.020 -0.999 0.040 194 172 153
-2970.6631 2901.7019 1121.9169 0.208 -0.977 -0.049 197 172 150
-2956.1167 2895.8491 1113.6791 0.470 -0.870 -0.150 198 171 155
-2958.2302 2907.5171 1111.4698 0.523 -0.822 -0.225 205 178 165
-2865.0757 3111.1614 982.7884 0.546 -0.813 -0.199 146 95 57
-2809.8689 3088.0203 951.8170 0.611 -0.503 0.611 132 64 34
-2416.8184 3142.2090 662.3696 0.742 -0.618 0.259 108 50 15
-2411.7544 3146.2805 657.5781 0.742 -0.618 0.259 74 31 7
-2406.6880 3150.3533 652.7847 0.742 -0.618 0.259 114 73 48
-2369.0017 3221.6169 604.2280 0.790 -0.098 -0.606 124 82 58
-2274.7300 3140.9702 564.2924 0.622 -0.374 0.688 179 126 98
-2395.2959 3391.8093 568.8583 0.166 -0.433 0.886 161 110 67
-2241.8945 3303.2039 490.4519 0.286 -0.920 0.266 9 8 4
-2244.5232 3319.6072 487.1083 0.170 -0.781 0.601 7 10 9
-2244.1138 3331.2966 483.1436 0.112 -0.747 0.656 5 12 11
-2213.7827 3357.6372 453.8300 -0.367 -0.820 -0.440 36 32 29
-2210.1199 3364.3054 449.1918 -0.149 -0.587 -0.796 35 34 30
-2223.2214 3398.2632 447.5783 0.863 -0.498 0.086 37 33 30
-2226.8774 3417.0198 444.2057 0.759 -0.648 0.067 38 33 30
-2579.6130 5132.1274 148.5842 0.212 -0.977 -0.035 212 167 161
-2447.4348 5675.1768 -114.0153 0.123 -0.874 -0.471 202 165 156
-2299.2246 5618.0005 -198.7210 0.755 -0.613 0.234 163 128 122
-2240.6431 5546.2158 -216.7138 -0.540 -0.842 0.008 175 140 136
-2232.3196 5550.7466 -223.9086 -0.533 -0.846 0.012 184 149 145
-2034.3414 5634.6143 -387.5164 -0.021 -0.833 0.553 251 220 226
-2020.6569 5623.3945 -393.4669 0.644 -0.280 0.712 248 217 223
-2036.1399 5843.6641 -452.0974 0.911 -0.136 0.389 255 227 232
-1989.5936 5884.9233 -497.3460 -0.330 -0.850 0.411 255 232 241
-4521.9199 2899.0000 2185.5488 0.349 -0.882 0.316 172 170 158
-3992.1614 2573.9480 1922.1362 0.807 -0.584 -0.088 166 167 151
-3959.1741 2574.5994 1899.1123 0.786 -0.437 -0.437 179 180 162
-3958.4141 2597.9387 1891.1892 0.802 -0.520 -0.295 169 171 157
-3505.7524 2415.1804 1636.0050 -0.591 -0.758 -0.277 193 196 187
-3457.4526 2386.4048 1611.7162 -0.591 -0.758 -0.277 193 196 187
-4447.7441 3217.7031 2033.2274 -0.109 -0.886 0.451 159 160 152
-4655.6201 3408.9932 2116.3872 0.568 -0.110 -0.816 165 165 157
-3442.1782 2690.2534 1504.8455 0.488 -0.586 0.647 102 88 75
-3440.7078 2697.4324 1501.5529 0.837 -0.510 -0.199 100 86 70
-3412.8037 2682.2144 1487.0750 0.860 -0.474 -0.188 98 84 72
-3155.4141 2526.8303 1358.2855 0.645 -0.683 -0.343 110 80 68
-3153.0381 2532.7451 1354.7675 0.819 -0.468 -0.333 114 78 65
-3230.1816 2616.3359 1381.6339 0.358 -0.518 -0.777 113 66 51
-3220.7659 2616.3232 1375.1250 0.353 -0.482 -0.802 114 65 50
-3151.0862 2620.5610 1325.5839 0.069 -0.321 -0.945 97 42 21
-3091.2358 2657.9670 1272.3289 0.767 -0.423 -0.484 48 28 11
-3082.3252 2658.1360 1266.1119 0.736 -0.252 -0.628 38 24 5
-3024.9756 2638.1599 1232.7742 0.387 -0.864 -0.321 46 44 42
-3011.2678 2642.0625 1222.0554 -0.347 -0.912 0.217 34 34 33
-2995.6057 2635.6255 1213.2621 -0.343 -0.912 0.227 21 20 17
-2860.0947 2563.7966 1142.2942 0.725 -0.664 0.182 39 50 52
-2869.0420 2589.0959 1140.4646 0.626 -0.547 -0.556 185 195 198
-2855.2295 2583.9165 1132.5520 0.695 -0.693 0.190 198 207 204
-3018.9077 2908.1140 1143.0145 0.570 -0.398 -0.719 215 193 174
-2996.0515 2912.6599 1125.7640 0.660 -0.749 -0.064 201 179 160
-2961.8828 2886.3628 1110.4641 0.377 -0.887 0.268 204 178 157
-2980.0276 2914.8030 1114.0009 0.608 -0.790 -0.078 205 176 161
-2992.9839 3015.4712 1091.0559 0.820 -0.508 0.265 11 9 1
-2826.5544 3059.6052 961.9470 0.213 -0.748 0.629 121 76 43
-2233.9758 3368.4519 454.1662 0.544 -0.431 0.720 17 13 10
-2226.3723 3406.8691 436.7304 0.744 -0.665 0.070 37 33 30
-2215.5496 3402.0044 430.7861 0.727 -0.686 -0.020 22 20 19
-2205.0093 3397.5427 424.9093 0.615 -0.788 0.025 21 20 18
-2758.3623 5577.4683 116.7372 0.616 -0.747 0.249 209 166 159
-2864.5525 5824.8926 111.7683 0.834 -0.409 0.371 208 165 158
-2251.2380 5552.9238 -226.2652 -0.540 -0.842 0.008 189 154 150
-2237.6675 5543.9634 -232.8121 -0.647 -0.762 -0.041 193 158 154
-2242.8589 5583.4629 -241.7406 0.864 0.105 -0.493 202 167 163
-4530.6040 2899.8999 2179.0308 0.451 -0.877 0.167 162 159 150
-3965.3171 2598.2012 1884.9926 0.798 -0.517 -0.311 182 184 170
-3465.1270 2350.9580 1618.5264 0.085 -0.625 0.776 183 186 177
-3806.7170 2660.3743 1755.6584 -0.606 -0.619 -0.500 188 191 182
-3754.8926 2629.3845 1729.7642 -0.597 -0.631 -0.495 181 184 175
-3682.5776 2590.6492 1692.1936 -0.589 -0.600 -0.541 160 161 153
-4743.9365 3471.3625 2144.0154 0.656 -0.008 -0.755 168 168 160
-3893.1558 2999.0381 1707.2993 -0.492 -0.843 0.218 105 100 94
-3842.4009 2966.3408 1682.6881 -0.501 -0.846 0.182 103 100 94
-3713.0747 2877.1643 1621.8475 -0.513 -0.842 0.164 112 101 90
-3427.0681 2664.0552 1492.3679 -0.564 -0.818 0.115 115 101 88
-3156.7188 2531.0068 1348.1582 0.819 -0.468 -0.333 123 93 77
-3207.9629 2641.3018 1348.3525 0.546 -0.818 0.181 100 50 33
-3196.7957 2639.6860 1341.1580 0.594 -0.791 0.147 103 47 28
-3226.9841 2726.2188 1334.3956 -0.123 -0.606 -0.786 97 40 25
-3166.7222 2705.4019 1299.4307 0.625 -0.586 0.516 76 40 19
-3103.6221 2664.1243 1269.0333 0.764 -0.378 -0.524 56 32 8
-3098.6526 2667.9827 1264.3713 0.765 -0.371 -0.527 46 27 4
-3043.6724 2641.9895 1234.7042 -0.148 -0.970 -0.192 35 35 33
-3030.4004 2637.9370 1226.8339 0.387 -0.864 -0.321 42 41 39
-3019.1721 2635.7690 1219.7733 -0.045 -0.999 -0.030 41 41 41
-3021.0479 2645.9685 1217.8146 -0.342 -0.915 0.215 32 32 31
-3002.6309 2636.9485 1207.9766 -0.343 -0.912 0.227 25 25 22
-2986.0615 2629.6138 1198.8767 -0.322 -0.915 0.245 19 22 19
-2931.6870 2687.6963 1142.8065 0.335 -0.833 -0.439 199 184 180
-2996.1394 2906.5999 1117.4727 0.559 -0.774 -0.298 207 186 167
-2983.6411 2902.9810 1109.9980 0.378 -0.922 -0.082 210 184 165
-2965.9248 3019.0608 1060.7356 0.746 -0.551 0.374 25 17 8
-2965.4504 3058.3469 1047.8754 0.973 -0.202 0.113 24 16 1
-2340.5271 2937.2935 655.0350 0.915 -0.231 0.332 183 98 43
-2334.7432 3155.8018 581.3348 0.642 -0.178 -0.745 142 100 76
-2256.7393 3076.1514 552.8890 0.660 -0.751 0.001 153 107 85
-2239.3394 3083.9932 538.3742 0.649 -0.761 0.005 132 76 48
-2220.6802 3363.0771 436.4603 0.372 -0.737 -0.565 37 33 30
-2721.8154 5460.4414 113.3672 0.494 -0.701 0.515 215 172 165
-2762.1714 5567.7383 107.0007 0.560 -0.731 0.390 215 172 165
-2544.3328 5688.1782 -81.8207 -0.059 -0.693 0.719 215 176 169
-2269.7212 5210.0469 -118.8873 0.616 -0.588 -0.525 215 178 169
-2242.9600 5537.0806 -241.6917 -0.730 -0.676 -0.100 211 176 170
-2205.7305 5678.0122 -312.3546 0.720 -0.162 0.674 173 139 137
-2197.6230 5683.4854 -319.6981 0.720 -0.162 0.674 162 128 126
-2105.9666 5570.2056 -346.8416 0.190 -0.668 0.719 155 129 128
-2090.8374 5555.6167 -352.6331 0.273 -0.650 0.709 160 134 133
-4535.9453 2898.5032 2170.9341 0.458 -0.875 0.159 162 160 148
-3974.5579 2536.9575 1900.1479 0.885 -0.185 -0.427 177 175 162
-3986.3083 2576.5635 1895.5293 0.877 -0.362 -0.317 178 179 163
-3984.6948 2583.3616 1892.2347 0.877 -0.362 -0.317 182 183 167
-3332.3196 2262.6931 1545.6221 0.348 -0.785 0.513 187 190 181
-4028.8660 2805.5591 1851.3330 -0.602 -0.577 -0.552 175 178 169
-3980.4961 2777.8591 1826.8937 -0.610 -0.593 -0.525 168 171 162
-4744.4258 3507.8525 2118.9592 0.807 -0.460 0.370 140 141 133
-4034.4919 2987.7913 1796.7006 0.084 -0.505 0.859 120 121 113
-4612.6597 3509.9558 2027.4802 -0.360 -0.912 -0.197 45 47 36
-3173.0032 2540.2063 1346.7313 0.639 -0.692 -0.335 121 98 76
-3166.7568 2542.7844 1341.5989 0.670 -0.610 -0.423 116 78 60
-3283.2939 2686.0564 1375.9075 0.771 -0.596 -0.224 101 54 38
-3244.6780 2685.5918 1349.4453 0.801 -0.473 -0.367 115 48 32
-3119.0808 2664.6311 1269.6226 0.873 -0.380 0.307 74 40 13
-3111.0659 2665.6833 1263.7616 0.930 -0.329 0.163 63 35 7
-3119.8391 2682.2998 1264.4724 0.799 -0.415 0.435 55 30 3
-3070.6335 2645.0344 1242.5282 -0.085 -0.850 0.521 38 27 11
-3053.6931 2637.6458 1233.2263 -0.085 -0.850 0.521 28 29 23
-3051.7063 2644.1931 1229.7551 -0.148 -0.970 -0.192 33 35 33
-3038.4861 2640.2114 1221.9230 0.633 -0.774 0.019 40 40 38
-3028.8289 2639.5415 1215.4830 -0.021 -1.000 -0.014 39 39 37
-3029.6833 2648.7766 1213.1068 -0.322 -0.915 0.245 31 33 31
-3011.0220 2639.5583 1203.2064 -0.322 -0.915 0.245 26 26 22
-2992.5239 2630.4207 1193.3928 -0.322 -0.915 0.245 18 21 19
-2875.1296 2576.0896 1129.9373 0.878 -0.375 0.299 46 59 65
-2873.7339 2583.0227 1126.7494 0.918 -0.294 0.265 135 148 150
-2857.2363 2583.5398 1115.2145 0.823 -0.384 0.419 207 204 191
-2850.4146 2585.1724 1109.9891 0.840 -0.427 0.335 204 194 183
-2984.7725 2898.0278 1102.1300 0.576 -0.815 0.062 212 185 168
-2976.7346 3064.1423 1043.2565 0.973 -0.191 0.127 45 26 5
-2898.5088 3047.3435 994.7424 0.263 -0.692 -0.672 123 67 45
-2266.0771 2810.2915 635.0266 0.976 -0.195 0.093 183 97 40
-2394.1538 3153.8613 612.9775 -0.137 -0.990 0.017 159 115 88
-2372.2451 3134.1267 604.2158 -0.397 -0.848 -0.352 162 117 94
-2360.9697 3129.3049 597.9938 -0.281 -0.838 -0.467 162 118 93
-2343.6362 3160.6213 575.9940 0.670 -0.188 -0.718 127 83 58
-2248.1094 3077.8354 536.7439 0.644 -0.759 -0.090 177 127 101
-2242.9290 3081.3472 532.0464 0.714 -0.648 -0.266 156 100 70
-2238.7273 3086.3040 527.5594 0.695 -0.663 -0.280 110 49 15
-2319.5798 3324.0723 506.9366 0.378 -0.407 -0.831 172 72 32
-2236.2947 3256.1477 471.3510 0.300 -0.710 -0.637 135 78 44
-2155.4099 3464.7817 348.6248 0.879 -0.271 -0.392 200 175 171
-2594.2715 5135.0747 114.7736 0.282 -0.915 0.289 222 179 172
-2751.4521 5527.7065 97.0284 0.604 -0.160 -0.781 222 179 172
-2482.5903 5574.6484 -103.3236 -0.274 -0.634 0.723 219 180 173
-2251.2778 5194.2393 -140.5888 0.094 -0.879 -0.468 223 186 177
-2294.7432 5571.2056 -231.6689 -0.444 -0.890 0.101 210 175 171
-2250.9158 5562.9399 -259.2177 0.799 0.056 -0.599 233 198 194
-2268.9565 5635.6069 -270.1164 0.791 0.061 -0.609 234 199 195
-2228.0566 5635.0938 -298.1370 0.677 -0.194 0.711 221 187 185
-2215.8999 5629.7407 -304.7957 0.684 -0.191 0.704 221 187 185
-2118.4558 5693.0049 -392.2596 0.731 -0.181 0.658 200 174 175
-1933.9138 5583.8657 -484.3912 0.075 -0.891 0.448 219 188 194
-1911.7412 5574.5869 -496.6918 0.072 -0.933 0.354 226 193 202
-1904.0547 5580.1733 -503.7824 -0.065 -0.758 0.649 231 196 209
-4551.5889 2886.5403 2173.3430 0.507 -0.849 0.150 163 161 149
-4556.0566 2898.3857 2172.5884 -0.173 -0.979 -0.107 161 159 147
-4542.9888 2898.2734 2163.6365 -0.006 -0.981 -0.194 160 158 146
-3990.9971 2528.2446 1903.5208 0.015 -0.658 -0.753 166 164 152
-3992.4604 2568.3972 1891.5530 0.847 -0.529 -0.062 163 166 149
-3989.9272 2574.5286 1887.8292 0.877 -0.362 -0.317 177 180 163
-3990.6958 2582.9856 1885.6252 0.876 -0.375 -0.302 182 183 167
-3626.9858 2423.9033 1686.8547 -0.475 -0.851 -0.222 183 186 177
-3540.2588 2375.5732 1642.8173 -0.553 -0.778 -0.296 183 186 177
-3322.1716 2251.0266 1533.0527 0.291 -0.811 0.507 180 183 174
-5202.7812 3711.5361 2354.6802 -0.545 -0.837 0.054 153 156 147
-5049.1851 3606.6104 2282.9348 -0.553 -0.833 0.013 158 159 151
-4318.7354 3187.7476 1915.8488 -0.006 -0.579 0.815 125 123 113
-4177.3574 3085.9065 1851.5107 0.087 -0.490 0.867 120 119 109
-3394.8857 2660.0142 1450.9132 0.252 -0.549 0.797 114 102 86
-3336.0244 2659.7109 1410.5239 0.101 -0.624 0.775 111 105 84
-3305.1562 2700.0798 1376.2473 0.863 -0.450 -0.229 101 52 37
-3268.6152 2676.2825 1358.8025 0.554 -0.750 0.362 101 53 37
-3137.1670 2675.9709 1268.4878 0.745 -0.384 0.546 86 45 15
-3131.8020 2679.5098 1263.6541 0.745 -0.384 0.546 77 41 9
-3127.5408 2684.0715 1259.2490 0.753 -0.376 0.541 67 36 5
-3059.7559 2646.4011 1224.7961 -0.148 -0.970 -0.192 33 35 32
