ply
format ascii 1.0
element vertex 791
property float x
property float y
property float z
property float nx
property float ny
property float nz
property uchar diffuse_red
property uchar diffuse_green
property uchar diffuse_blue
end_header
-2475.4683 2643.7791 509.8098 0.029 -0.856 -0.516 149 78 36
-2324.6604 2705.4883 383.5059 0.072 -0.996 -0.049 164 85 46
-1928.8289 4598.9585 -621.6850 -0.545 -0.742 -0.391 245 196 191
-1867.8596 4570.2568 -651.8743 -0.514 -0.809 0.284 209 145 136
-1817.8304 4591.3770 -694.0267 -0.173 -0.528 -0.831 190 119 101
-1806.3785 4698.7661 -743.5767 0.139 -0.705 0.695 84 50 44
-1742.0673 4561.5039 -733.7951 -0.317 -0.585 0.746 47 25 15
-1676.5438 4463.5527 -740.1304 0.313 -0.750 -0.583 87 82 71
-1661.6490 4442.7397 -742.1360 0.755 -0.568 -0.327 113 101 96
-1107.9780 5285.8208 -1445.7156 0.705 -0.612 -0.358 221 117 102
-4391.5293 2983.3196 1665.1396 0.916 -0.338 -0.215 164 176 186
-3481.0864 2547.1042 1219.3959 0.813 -0.536 -0.227 151 183 210
-3723.5139 2748.1277 1304.8770 0.999 0.013 -0.049 147 151 169
-3453.8496 2608.4385 1176.9553 0.561 -0.616 -0.552 81 41 24
-3663.1843 2804.9133 1241.8103 0.944 -0.254 0.211 153 145 157
-2705.0071 2458.5093 728.6050 -0.512 -0.857 -0.060 169 130 113
-2787.2800 2580.4177 736.6080 -0.314 -0.863 -0.396 180 141 126
-2631.6895 2611.9812 618.9125 -0.535 -0.836 -0.121 116 73 62
-2580.3369 2605.2061 586.7944 0.063 -0.663 -0.746 87 38 19
-2575.4978 2624.8342 575.8376 0.963 -0.180 0.199 85 35 15
-2573.5601 2631.0579 572.0905 0.963 -0.180 0.199 88 37 12
-2570.2703 2635.7788 568.0159 0.964 -0.179 0.194 88 38 10
-2565.3848 2638.7075 563.5620 0.966 -0.175 0.191 93 41 14
-2563.4932 2645.0317 559.8068 0.966 -0.175 0.191 96 44 15
-2562.4961 2652.3945 556.2506 0.968 -0.172 0.181 94 42 13
-2560.6541 2658.8215 552.4887 0.968 -0.172 0.181 96 44 15
-2429.1536 2625.2815 476.5780 0.421 -0.820 -0.388 129 62 30
-2458.4607 2712.8916 462.1400 0.162 -0.655 0.738 127 59 24
-2377.7551 2640.8984 435.6670 0.113 -0.947 -0.302 134 66 31
-2684.3962 3233.7595 411.3036 0.935 0.184 -0.303 223 161 135
-2520.8953 3334.4695 261.1961 0.544 -0.562 -0.623 69 25 12
-2508.6372 3328.4004 255.2714 0.127 -0.856 -0.502 67 27 14
-2502.8560 3331.6570 250.0828 0.535 -0.609 -0.586 43 15 10
-2262.0266 3333.2903 86.3863 0.985 -0.154 0.081 45 43 48
-1958.7538 4659.3042 -637.8035 -0.508 -0.685 -0.523 245 196 191
-1956.9298 4676.7764 -645.8750 -0.514 -0.544 -0.663 247 195 188
-1932.2222 4634.4482 -646.0413 -0.404 -0.502 -0.764 247 187 178
-1923.6707 4656.5049 -660.4617 -0.539 -0.659 -0.524 239 175 166
-1849.0365 4613.7207 -694.2530 -0.073 -0.466 0.882 212 132 119
-1830.3715 4585.2544 -695.7518 -0.059 -0.558 0.828 203 126 113
-1819.3281 4577.5000 -700.1948 -0.059 -0.558 0.828 190 121 102
-1808.3386 4569.7837 -704.6160 -0.059 -0.558 0.828 172 109 89
-1686.4191 4474.1841 -749.7565 0.313 -0.738 -0.598 70 64 53
-1678.7899 4474.8955 -755.2006 0.513 -0.379 -0.770 123 115 108
-1674.6763 4485.9653 -762.3172 0.503 -0.340 -0.795 169 164 158
-1660.6024 4490.8774 -773.7682 0.655 -0.411 -0.634 197 189 184
-1652.3644 4513.3354 -788.1335 0.812 -0.469 -0.347 191 185 179
-1337.0123 5998.8662 -1582.9186 -0.018 -0.811 -0.585 234 144 135
-3470.1960 2540.2988 1204.5668 0.283 -0.942 0.179 155 161 182
-3801.6824 2829.0713 1314.9584 0.748 -0.657 0.097 76 53 25
-3692.8533 2823.2349 1243.7061 0.870 -0.343 0.354 140 131 142
-3735.4038 2892.1890 1245.3289 0.851 0.081 -0.519 154 182 203
-3946.7039 3141.7273 1289.9351 0.205 -0.363 -0.909 182 162 142
-2661.5608 2629.8433 622.8380 -0.465 -0.826 0.318 185 149 141
-2594.3799 2581.4170 596.4916 0.577 -0.804 -0.142 175 136 128
-2586.1619 2588.8125 588.0276 0.577 -0.804 -0.142 160 119 105
-2581.7078 2592.1375 583.7090 0.577 -0.807 -0.127 161 119 105
-2596.9548 2617.2832 584.1183 0.530 -0.812 -0.245 147 106 94
-2589.3818 2617.2166 579.0266 0.614 -0.700 -0.365 128 87 75
-2572.1882 2614.7427 568.3802 0.961 -0.179 0.212 122 78 64
-2542.5996 2598.2344 554.8797 0.847 -0.330 -0.417 92 49 29
-2532.2056 2594.8416 549.1902 0.911 -0.316 -0.265 88 45 23
-2528.2976 2598.7485 545.0118 0.909 -0.316 -0.272 84 41 18
-2558.3110 2641.1511 548.6099 0.970 -0.155 0.186 79 35 12
-2503.3479 2637.5771 512.8709 0.007 -0.666 0.746 99 36 3
-2445.9646 2664.6628 463.4317 0.679 -0.700 -0.222 115 52 24
-2443.6726 2670.6318 459.5339 0.683 -0.699 -0.212 114 52 23
-2440.2139 2675.2126 455.3939 0.670 -0.709 -0.220 122 56 23
-2439.2136 2682.7808 451.7398 0.658 -0.718 -0.227 124 58 24
-2344.4731 2628.0405 409.2528 -0.142 -0.935 -0.325 134 61 27
-2686.6340 3228.3569 404.2643 0.933 0.171 -0.316 228 171 144
-2527.5903 3335.1228 254.7663 0.544 -0.562 -0.623 69 25 12
-2512.0432 3324.3474 248.4993 0.498 -0.645 -0.580 67 27 14
-2265.9128 3305.7766 89.4670 0.985 -0.172 -0.001 34 32 37
-2269.3062 3347.7637 75.2380 0.984 -0.165 0.070 46 40 44
-1825.7000 4577.1035 -708.3126 -0.058 -0.561 0.826 196 129 110
-1690.9883 4469.2510 -756.9130 0.210 -0.741 -0.638 47 40 29
-1680.3497 4461.1494 -760.9146 0.268 -0.705 -0.656 48 42 35
-1680.4817 4484.6279 -770.0645 0.482 -0.385 -0.787 59 58 50
-1667.4996 4492.8066 -782.0564 0.655 -0.408 -0.635 156 151 145
-1662.5785 4501.5928 -788.8395 0.822 -0.443 -0.358 191 186 179
-1657.9097 4511.1880 -795.7706 0.817 -0.460 -0.347 197 193 187
-1654.5159 4524.6924 -803.3782 0.809 -0.533 -0.250 205 198 190
-846.9116 4856.5947 -1479.7797 0.524 -0.461 0.716 255 78 121
-4423.5254 2802.9353 1733.6125 0.927 -0.115 -0.356 5 20 27
-4398.5366 2826.0369 1707.6136 0.236 -0.750 -0.617 52 42 39
-4160.4795 2770.8091 1568.8811 0.515 -0.091 -0.852 62 58 50
-3474.1655 2537.8743 1198.0878 0.283 -0.942 0.179 161 173 196
-3467.5264 2608.1074 1165.8163 0.560 -0.622 -0.547 83 40 20
-3698.9326 2830.3245 1233.9810 0.958 -0.240 -0.155 173 179 195
-3928.5005 3119.2527 1274.5066 0.277 -0.403 -0.872 182 158 138
-2608.9668 2591.1040 593.3813 -0.238 -0.878 -0.416 182 146 140
-2609.0322 2599.4021 590.1417 -0.014 -0.684 -0.729 194 156 147
-2612.1523 2619.3909 584.3365 0.188 -0.738 -0.649 194 155 145
-2608.6863 2623.8972 580.2150 0.188 -0.738 -0.649 199 161 151
-2593.4443 2615.3640 573.3099 0.199 -0.722 -0.663 203 165 156
-2536.3455 2584.8792 546.8561 0.807 -0.412 -0.422 170 133 115
-2523.8831 2587.4102 537.4475 0.904 -0.326 -0.275 156 116 97
-2555.2075 2631.1758 541.2593 0.970 -0.076 -0.230 148 108 89
-2450.6409 2672.3091 454.4437 0.632 -0.716 -0.295 105 47 20
-2444.7278 2673.9417 449.8088 0.621 -0.728 -0.290 107 45 15
-2439.1123 2675.9265 445.2354 0.630 -0.728 -0.269 107 44 14
-2524.5176 3321.7695 247.2729 0.557 -0.606 -0.568 69 25 12
-2517.4102 3323.1230 241.9429 0.537 -0.616 -0.576 67 27 14
-2264.5532 3270.3376 92.2601 0.939 -0.343 -0.040 20 18 23
-2253.7703 3265.1504 87.0389 0.927 -0.369 0.063 29 27 32
-1812.0555 4477.7134 -690.7700 0.379 -0.726 0.574 219 147 134
-1812.0668 4499.7485 -699.4822 0.420 -0.698 0.580 210 143 128
-1699.0758 4474.5498 -765.7313 0.210 -0.741 -0.638 52 44 33
-1688.3472 4466.2700 -769.6923 0.268 -0.705 -0.656 44 38 29
-1676.5065 4500.9482 -791.4026 0.557 -0.508 -0.657 50 47 39
-1671.4285 4509.3003 -798.1332 0.645 -0.444 -0.622 76 73 65
-1667.8408 4522.1572 -805.6411 0.650 -0.442 -0.618 83 80 70
-1660.2200 4522.9819 -811.1083 0.408 -0.817 -0.408 94 85 77
-1657.2753 4537.9067 -819.0009 0.304 -0.824 -0.477 119 101 96
-4373.5415 2762.9956 1703.9681 0.987 -0.090 -0.132 13 25 18
-4384.2305 2802.1401 1695.5883 0.302 -0.530 -0.792 46 39 30
-4377.1553 2805.2908 1689.5706 0.307 -0.527 -0.792 67 62 52
-3746.9539 2756.7598 1284.5485 0.798 -0.342 -0.497 113 130 146
-3767.9460 2781.5720 1288.8093 0.707 -0.381 -0.596 67 64 67
-3706.6794 2756.7788 1257.4229 0.508 -0.652 -0.563 81 41 16
-3473.8352 2607.4985 1160.0460 0.560 -0.622 -0.547 91 38 12
-3677.0291 2806.0159 1217.8650 0.921 -0.309 0.238 159 163 178
-3851.4434 3011.1401 1253.6766 0.896 -0.121 -0.427 22 16 22
-3789.4697 3065.6143 1190.2705 -0.290 -0.729 0.620 171 140 112
-3070.2598 2778.4485 820.2783 0.078 -0.936 0.342 159 115 108
-2672.8464 2637.7029 608.6955 -0.246 -0.877 -0.413 186 140 139
-2647.1313 2618.1243 599.1719 -0.315 -0.943 -0.108 192 146 145
-2626.2043 2603.6252 590.8508 -0.013 -0.679 -0.734 200 152 149
-2619.1257 2604.1494 585.8759 -0.014 -0.684 -0.729 205 159 152
-2594.3892 2618.3818 563.5564 -0.047 -0.823 -0.566 197 152 142
-2587.4724 2619.0383 558.6378 -0.050 -0.829 -0.556 196 152 142
-2556.8743 2593.2598 548.2935 0.149 -0.697 -0.702 201 163 147
-2558.7480 2654.1438 525.3270 0.296 -0.523 -0.799 146 109 93
-2435.5115 2587.8650 468.7229 -0.466 -0.800 0.379 125 79 57
-2470.7983 2681.0020 455.4199 -0.100 -0.822 -0.560 76 29 6
-2451.6008 2666.7761 448.1544 -0.033 -0.835 -0.549 77 30 7
-2444.7434 2667.2659 443.3424 0.002 -0.845 -0.535 81 33 8
-2674.1726 3384.2639 312.5028 0.993 0.120 0.023 206 166 154
-2540.5381 3335.7544 241.8263 0.526 -0.629 -0.572 68 26 12
-2266.5596 3276.1716 81.0583 0.960 -0.266 0.081 25 23 26
-1875.5348 4499.4414 -669.0176 -0.043 -0.659 0.751 230 181 175
-1885.7172 4614.2905 -707.8645 -0.037 -0.497 0.867 233 184 177
-1777.7433 4498.8345 -734.6221 0.388 -0.796 0.464 190 148 139
-1701.9138 4464.6113 -772.0619 0.273 -0.702 -0.658 107 83 74
-1695.0090 4467.4517 -777.8412 0.265 -0.711 -0.651 97 82 73
-1692.2019 4482.2476 -785.6192 0.319 -0.657 -0.683 100 88 79
-1689.0099 4496.0249 -793.2511 0.308 -0.643 -0.702 108 95 86
-1679.0029 4513.1460 -806.8022 0.314 -0.655 -0.687 144 132 123
-1673.0375 4518.9141 -813.1143 0.249 -0.713 -0.655 159 145 136
-4372.2881 2764.1753 1690.9252 0.984 -0.110 -0.142 28 28 19
-4431.2568 2812.3335 1711.2866 0.952 -0.085 -0.296 40 36 26
-4397.6851 2797.4097 1694.6951 0.678 -0.315 -0.664 55 49 37
-3756.4221 2758.2485 1279.3809 0.811 -0.326 -0.485 120 139 160
-3765.0759 2773.2034 1279.2129 0.740 -0.414 -0.530 80 79 86
-3661.7434 2795.4480 1200.8632 0.602 -0.605 -0.521 154 177 199
-3938.3674 3104.7080 1263.0267 0.125 -0.493 -0.861 173 146 128
-3115.2297 2833.4800 818.3397 0.006 -0.942 -0.334 164 128 121
-2657.1794 2639.3406 588.1757 0.220 -0.752 -0.622 201 154 147
-2662.8770 2662.3521 582.7967 0.139 -0.799 -0.586 201 155 142
-2652.0496 2658.8955 576.9028 0.139 -0.815 -0.563 203 156 146
-2568.5715 2616.6135 537.7177 -0.319 -0.422 -0.849 112 76 60
-2576.9961 2659.8540 526.0770 -0.318 -0.427 -0.846 173 137 123
-2502.7561 2642.8982 482.9660 -0.483 -0.734 0.478 193 148 129
-2490.2383 2697.4631 452.7187 -0.113 -0.808 -0.578 116 71 48
-2406.8804 2812.4648 350.6764 0.632 -0.714 -0.301 215 159 134
-2830.2751 3446.8318 381.3897 -0.095 -0.625 0.775 142 99 80
-2670.3298 3370.1152 304.5910 0.992 0.122 0.023 212 172 160
-2692.5027 3412.0903 302.6966 0.981 0.011 -0.191 169 129 117
-2543.3794 3330.8750 234.9714 0.681 -0.568 -0.462 68 26 12
-2531.2046 3325.0369 229.1251 0.578 -0.624 -0.526 67 27 14
-2269.8125 3272.0701 74.6417 0.958 -0.272 0.085 25 23 26
-1684.6641 4511.2930 -814.5098 0.530 -0.688 -0.496 194 176 169
-1678.7469 4517.1992 -820.8501 0.538 -0.704 -0.463 203 184 177
-1666.0657 4502.9556 -823.6733 0.565 -0.482 0.669 215 192 186
-1660.6205 4510.2183 -830.2391 0.528 -0.530 0.664 224 195 191
-1635.5890 4553.8301 -864.5140 0.568 -0.277 0.775 239 195 194
-1086.7684 4775.6665 -1322.1381 0.580 -0.172 -0.796 216 133 122
-982.5485 4456.3418 -1264.4037 0.273 -0.270 -0.923 211 122 104
-969.1635 4803.6558 -1412.3789 -0.273 -0.590 -0.760 217 11 32
-983.3396 5102.6128 -1522.4803 0.206 -0.255 -0.945 254 46 87
-1081.0251 5950.4639 -1796.0986 0.991 0.128 0.046 254 65 121
-4330.9863 2691.5012 1680.7329 -0.130 -0.945 0.301 13 22 17
-4345.3213 2708.8376 1683.3738 0.924 -0.229 -0.306 14 26 20
-4344.6362 2716.1306 1679.9796 0.924 -0.229 -0.306 13 26 19
-4350.5435 2727.8975 1679.2080 0.910 -0.243 -0.337 15 24 17
-3610.2244 2621.0259 1225.5718 0.823 -0.398 -0.404 145 185 217
-3761.3406 2756.1177 1272.5902 0.811 -0.326 -0.485 131 150 173
-3770.6892 2771.6003 1272.6320 0.740 -0.414 -0.530 93 94 103
-3507.5591 2623.4087 1155.7407 0.867 -0.290 -0.406 92 39 9
-3664.3821 2791.4597 1193.3257 0.570 -0.629 -0.528 157 178 201
-3671.3003 2805.3867 1192.3629 0.866 -0.463 -0.191 151 190 206
-3679.5271 2820.4575 1191.8179 0.856 -0.348 0.381 139 179 188
-3946.2686 3104.5281 1256.4580 0.129 -0.494 -0.860 173 145 127
-3107.4260 2784.9509 822.3145 0.777 -0.573 0.260 159 117 110
-2676.9651 2629.4839 596.0979 0.546 -0.721 0.427 188 138 139
-2427.0969 2607.2317 437.4292 0.823 -0.090 -0.561 150 105 82
-2454.7441 2648.5793 439.3391 0.133 -0.745 -0.654 169 124 101
-2443.1702 2643.4294 433.6468 0.242 -0.766 -0.596 168 123 100
-2434.8147 2642.0779 428.5855 0.313 -0.904 -0.292 100 54 30
-2432.7329 2648.2231 424.7163 -0.161 -0.791 -0.591 77 31 7
-2369.8110 2650.0046 381.7888 0.248 -0.833 -0.495 78 27 6
-2392.0623 2704.1189 374.9419 0.158 -0.852 -0.499 81 30 9
-2351.1750 2662.0254 364.4501 0.184 -0.810 -0.556 81 30 9
-2394.4973 2789.3848 342.2671 0.174 -0.938 -0.300 214 160 134
-2516.8918 2956.0024 357.3326 -0.334 -0.899 -0.283 213 160 135
-2534.5366 3320.8857 222.3516 0.740 -0.519 -0.427 67 27 14
-2529.1204 3324.6743 217.1936 0.741 -0.516 -0.429 46 16 12
-2299.3176 3394.8391 34.7998 0.903 -0.383 0.196 42 37 43
-2293.5012 3410.4060 24.6343 0.981 0.093 -0.173 43 38 44
-1825.7218 4294.5522 -644.9260 -0.688 -0.654 -0.314 237 190 184
-1865.9952 4419.5288 -668.1958 -0.644 -0.756 -0.119 231 184 178
-1868.7188 4490.4961 -694.9238 -0.687 -0.720 0.094 235 188 182
-1682.4895 4486.3945 -818.2042 0.418 -0.749 0.513 212 189 183
-1623.4106 4449.9546 -843.1744 0.433 -0.621 0.654 248 204 203
-1614.2740 4517.2251 -876.3712 0.645 -0.432 0.630 246 200 200
-4357.3359 2726.6926 1672.6268 0.910 -0.246 -0.335 28 30 26
-4238.1553 2818.6138 1555.6337 0.956 -0.184 -0.229 111 122 133
-4321.7334 2895.0139 1580.6873 0.472 -0.389 -0.791 156 177 193
-3777.7336 2771.1296 1266.5470 0.797 -0.337 -0.502 104 105 115
-3716.0183 2754.2017 1232.0712 0.907 -0.409 -0.104 78 42 20
-3677.4517 2804.2749 1185.9882 0.860 -0.468 -0.205 150 185 204
-3682.7190 2816.8772 1184.4165 0.860 -0.475 -0.186 143 180 193
-3962.0364 3110.9714 1252.4613 0.127 -0.494 -0.860 170 142 127
-3217.1135 2885.1953 845.0068 0.441 -0.583 -0.682 155 120 110
-3188.3169 2865.9097 833.5272 0.451 -0.551 -0.702 155 122 113
-3150.7412 2855.2954 812.6610 0.445 -0.464 -0.766 65 37 30
-3168.9392 2899.6892 806.8854 -0.261 -0.929 -0.263 44 33 28
-3128.1731 2876.8086 788.8454 0.246 -0.797 -0.551 59 48 46
-2467.8259 2657.4871 435.4114 0.753 -0.079 -0.653 171 126 103
-2471.6160 2679.3662 429.0973 0.725 -0.119 -0.678 100 54 30
-2814.7737 3330.2747 395.5281 0.978 0.146 -0.147 211 158 135
-2543.1880 3312.8303 220.7320 0.748 -0.510 -0.425 68 26 12
-2319.3860 3380.2522 43.5965 0.904 -0.186 -0.385 42 37 43
-2319.3840 3404.9995 33.5829 0.922 -0.308 -0.236 42 37 43
-2304.7449 3393.9199 28.2631 0.867 -0.471 0.162 42 37 43
-1840.3074 4316.0073 -655.7863 -0.665 -0.633 -0.396 237 190 184
-1791.8242 4313.1592 -687.0983 -0.642 -0.766 0.036 237 190 184
-1755.2755 4517.4570 -794.2270 0.379 -0.618 0.689 224 191 184
-1740.4385 4543.8833 -814.8535 0.831 -0.425 -0.360 221 191 187
-1736.5875 4555.9507 -822.3145 0.765 -0.531 -0.364 227 195 192
-1012.1243 4589.6611 -1321.0533 0.257 -0.249 -0.934 217 109 97
-3722.0203 2752.9719 1225.6996 0.915 -0.363 -0.173 78 42 20
-3688.6018 2815.5225 1177.9187 0.823 -0.461 -0.331 148 186 200
-3210.8604 2846.3877 846.0615 -0.609 -0.670 -0.424 144 114 98
-3254.1565 2914.4919 847.2939 -0.105 -0.994 0.031 144 116 103
-3218.3386 2888.5137 833.9227 0.109 -0.943 0.315 135 108 97
-3158.8499 2856.6458 807.1269 0.445 -0.464 -0.766 31 10 1
-3183.8894 2898.8892 806.6777 0.143 -0.930 -0.338 38 29 25
-2778.2183 2821.7671 566.9179 -0.002 -0.971 -0.237 176 139 123
-2535.5796 2757.7385 430.7957 0.641 -0.701 -0.313 87 41 17
-2365.0259 2674.5686 350.6386 0.412 -0.681 -0.605 83 33 11
-2403.7910 2768.4487 338.3572 0.627 -0.483 -0.611 190 136 110
-2315.6523 3352.5732 41.8280 0.902 -0.180 -0.391 23 21 24
-2306.3474 3386.8579 21.6621 0.869 -0.469 0.155 38 33 39
-1860.2021 4350.9048 -668.6949 -0.686 -0.655 -0.318 240 193 187
-1805.6742 4641.5190 -823.3604 0.839 -0.145 0.525 236 203 196
-1752.8726 4584.3779 -835.4058 0.393 -0.614 -0.684 240 203 202
-1732.6277 4572.5928 -844.1424 -0.110 -0.846 0.522 240 203 202
-4231.7598 2793.9907 1538.0909 0.446 -0.184 -0.876 45 51 53
-3505.6467 2612.2366 1128.0311 0.874 -0.295 -0.386 87 39 12
-3695.7029 2806.9209 1175.1919 0.819 -0.465 -0.335 132 172 189
-3241.4656 2904.3132 832.3295 -0.382 -0.913 -0.144 106 87 73
-3200.1157 2908.1638 803.1696 0.744 -0.668 -0.009 35 26 22
-3197.0486 2914.0325 798.7231 0.193 -0.925 -0.327 49 36 31
-2892.7834 2886.5601 606.9803 -0.213 -0.706 -0.675 179 133 120
-2558.8020 2760.5354 435.7227 0.788 -0.611 -0.073 165 120 97
-2551.5676 2778.9299 423.3730 0.769 -0.638 -0.035 75 29 5
-2404.1323 2761.8137 332.0176 0.623 -0.496 -0.605 181 127 101
-2324.5764 3357.2173 35.4174 0.745 -0.600 0.293 23 21 24
-2312.4644 3362.4502 25.1971 0.718 -0.672 0.181 27 22 28
-1163.7037 4854.3701 -1351.3696 0.837 -0.463 0.292 236 153 142
-1170.8971 5035.3403 -1420.5898 0.425 -0.244 -0.872 223 139 128
-1074.4937 4854.3779 -1410.8861 0.289 -0.232 -0.929 211 103 91
-4253.5205 2885.1326 1503.4938 0.958 -0.228 -0.174 122 159 188
-4121.0889 2911.8433 1404.3276 0.561 -0.391 0.730 127 168 201
-4037.5510 2864.8850 1368.0128 0.680 -0.681 0.271 127 168 200
-3891.4929 2777.3298 1306.7618 0.956 -0.258 0.141 127 169 197
-3529.0684 2625.4109 1127.9069 0.873 -0.248 -0.421 87 38 14
-3709.8911 2812.3694 1171.4294 0.803 -0.498 -0.327 130 164 182
-3759.6584 2869.9109 1180.9055 0.875 0.112 -0.472 130 160 177
-3965.0952 3074.9380 1233.3875 0.354 -0.495 -0.794 108 95 94
-3331.1345 2975.4658 852.1572 -0.535 -0.813 -0.229 96 82 66
-3235.9421 2901.0840 819.3591 -0.337 -0.919 -0.206 60 47 35
-3188.3091 2863.5034 803.0958 -0.110 -0.985 -0.133 43 30 15
-3201.4700 2893.9216 799.3505 0.874 -0.477 -0.092 20 8 2
-3203.3691 2904.6335 796.2101 0.744 -0.668 -0.009 32 22 19
-3198.1184 2908.3389 791.1901 0.712 -0.702 -0.007 53 39 35
-3215.6926 2970.7617 777.2224 -0.097 -0.986 0.133 55 49 41
-3307.6450 3100.5435 785.0811 0.370 -0.914 -0.166 53 42 32
-3254.3635 3151.7102 728.5616 0.539 -0.676 -0.503 159 104 101
-3252.9265 3159.9800 724.2039 0.539 -0.682 -0.494 161 109 108
-3234.6899 3150.6045 715.9161 0.645 -0.640 -0.418 162 111 110
-3191.5625 3114.8882 701.8864 0.636 -0.630 -0.446 161 109 111
-2418.7742 2773.2275 327.8090 -0.055 -0.741 -0.669 168 114 88
-2548.3071 2975.7300 330.7870 -0.151 -0.989 0.003 148 102 82
-2325.5503 3231.0378 77.4709 -0.045 -0.845 -0.533 20 19 17
-2416.0212 3931.8560 -150.4814 0.457 -0.888 0.054 224 187 181
-2229.6709 4054.0867 -324.8309 0.701 0.030 -0.712 229 192 186
-1427.4640 4528.1729 -1053.9529 0.591 -0.475 -0.652 240 189 188
-1181.9412 4806.4907 -1331.8906 0.751 -0.480 0.454 232 162 154
-1024.5590 4639.4302 -1367.9872 0.762 -0.574 0.301 195 48 49
-4283.8208 2770.8931 1559.0303 0.218 -0.635 0.741 121 108 78
-4203.5215 2810.0742 1489.4624 0.140 -0.760 0.635 125 157 179
-4206.1899 2828.2014 1483.7413 0.656 -0.469 0.591 117 150 173
-4210.7578 2847.8325 1478.6610 0.954 -0.301 -0.002 121 151 174
-4066.7278 2880.9424 1369.2457 0.247 -0.711 0.658 129 166 194
-4039.8206 2868.7112 1356.4193 0.179 -0.747 0.640 127 164 192
-3999.4082 2846.0359 1338.9349 0.318 -0.726 0.610 125 162 188
-3960.9758 2824.7383 1322.1970 0.257 -0.739 0.623 125 164 188
-3890.2324 2786.4639 1291.0031 0.668 -0.602 0.437 133 171 196
-3480.4780 2588.0532 1100.6993 0.629 -0.521 -0.577 83 44 23
-3504.9209 2615.4783 1105.6062 0.487 -0.414 -0.769 81 53 50
-3904.5764 2991.4722 1215.7782 0.973 -0.021 -0.232 60 75 88
-3463.9114 3050.1858 898.6255 -0.603 -0.638 -0.478 135 101 78
-3359.4143 2995.8960 851.6194 -0.547 -0.815 -0.191 73 63 49
-3279.3069 2927.5430 826.6376 -0.357 -0.932 -0.067 55 45 32
-3251.9648 2909.9382 815.7437 -0.286 -0.956 -0.067 46 39 27
-3204.3308 2890.0344 792.3138 0.874 -0.477 -0.092 19 8 2
-3209.3086 2903.7446 789.9539 0.572 -0.816 0.082 30 19 15
-3157.3252 2870.2300 769.2604 0.169 -0.978 -0.120 70 58 49
-3180.7388 2902.1914 771.6077 0.271 -0.956 -0.112 60 50 44
-3241.6802 2980.6702 779.6650 -0.376 -0.877 -0.299 59 46 38
-3344.2483 3178.7341 765.9474 0.630 -0.777 -0.008 129 74 73
-3227.4038 3145.2668 702.1260 0.407 -0.829 0.384 159 104 106
-3107.7688 3105.2620 639.1528 0.409 -0.821 -0.398 155 110 97
-3123.2200 3131.7610 638.4664 0.363 -0.528 -0.768 142 95 85
-2393.2937 2689.2551 336.2856 0.654 -0.546 -0.523 85 32 11
-2426.3916 2775.7446 322.5254 -0.078 -0.698 -0.711 160 104 79
-2508.9653 2908.3572 322.5791 -0.063 -0.942 0.329 147 94 69
-2334.3169 3235.4080 71.2879 -0.045 -0.845 -0.533 20 19 17
-2239.7686 4028.5435 -319.4638 0.923 -0.083 -0.375 232 195 189
-1434.0170 4503.6553 -1051.4181 0.187 -0.471 0.862 250 200 199
-1434.4130 4531.4790 -1062.6582 0.591 -0.475 -0.652 250 199 198
-1190.5004 4784.0093 -1329.1748 0.883 -0.466 -0.056 230 157 149
-3642.0806 2182.4949 1366.2616 0.548 -0.831 0.096 76 58 43
-4373.6753 2811.3389 1590.2124 -0.032 -0.947 0.318 133 120 86
-4340.0308 2796.0635 1574.2422 0.080 -0.929 0.361 129 116 82
-4318.8867 2789.3752 1562.9955 0.100 -0.930 0.353 122 112 75
-4182.9199 2789.2649 1472.8429 0.166 -0.768 0.618 73 93 107
-4186.4019 2799.7983 1470.7744 0.181 -0.776 0.604 70 93 108
-4185.2075 2806.9927 1466.9919 0.654 -0.470 0.593 82 104 119
-4180.0942 2811.3687 1461.7810 0.670 -0.454 0.587 109 130 145
-4185.6094 2823.4685 1460.4104 0.984 -0.110 0.140 114 135 150
-4031.8975 2856.4624 1344.7261 0.267 -0.708 0.654 144 172 188
-4009.3533 2847.4880 1333.5009 0.278 -0.663 0.695 142 171 189
-3987.2295 2838.7673 1322.4491 0.342 -0.726 0.597 140 170 188
-3964.6313 2829.6138 1311.2625 0.417 -0.822 0.388 140 169 188
-3929.7644 2852.0198 1278.8191 -0.072 -0.745 0.663 151 168 169
-3486.5310 2587.2434 1094.8387 0.629 -0.521 -0.577 80 40 20
-3841.1992 2924.1973 1190.0658 0.865 -0.499 0.054 117 132 151
-3914.2498 3001.6309 1206.3411 0.967 -0.023 -0.253 31 31 27
-3914.9270 3010.9883 1202.9009 0.967 -0.023 -0.253 66 61 48
-4032.6453 3126.6057 1232.9373 0.200 -0.466 -0.862 142 122 97
-3495.6165 3036.4873 914.1376 0.595 -0.788 0.158 138 98 80
-3487.5420 3038.0476 908.1326 0.595 -0.787 0.164 133 100 80
-3473.5637 3034.0317 900.5289 0.593 -0.784 0.181 132 105 85
-3376.6228 3005.5767 848.0469 -0.554 -0.814 -0.174 44 43 34
-3210.0171 2880.1279 789.6658 0.874 -0.477 -0.092 34 30 19
-3208.9895 2896.7241 782.0860 0.593 -0.805 0.013 35 20 10
-3201.9744 2898.6843 776.6176 0.574 -0.818 0.022 73 60 48
-3400.8047 3219.2568 775.2728 0.613 -0.747 -0.257 136 82 79
-3227.2134 3157.1794 685.9173 0.230 -0.781 0.581 151 92 92
-3253.4353 3194.7927 687.6785 0.102 -0.973 -0.206 149 90 90
-3240.9553 3191.4697 680.7807 0.071 -0.971 -0.227 150 90 90
-3224.8960 3184.2900 673.1115 0.105 -0.952 -0.286 151 92 90
-2432.3640 2776.1772 316.9891 -0.110 -0.719 -0.686 150 90 69
-2617.5303 3079.0203 313.9490 -0.227 -0.970 0.090 135 87 73
-2578.0740 3317.8367 188.5103 0.144 -0.912 -0.383 67 28 18
-2376.2693 3897.8794 -186.4587 0.652 -0.758 0.017 239 198 196
-2208.3657 4035.3252 -354.9728 0.853 0.017 -0.522 231 192 187
-1440.3439 4531.1611 -1070.5616 0.592 -0.470 -0.654 247 199 197
-1132.6553 4625.3125 -1313.8118 -0.308 -0.951 -0.011 228 136 123
-1121.8857 4608.4531 -1313.9485 -0.274 -0.960 0.051 227 137 122
-1011.2956 4658.1021 -1407.9491 0.808 -0.582 0.094 212 25 40
-999.4669 4670.1333 -1420.7969 0.533 -0.846 0.002 222 26 42
-992.8842 4672.5649 -1426.1744 0.538 -0.843 -0.029 225 24 42
-3636.2415 2180.2874 1353.8038 0.564 -0.659 0.498 85 64 45
-4329.0996 2790.5303 1557.5785 0.080 -0.929 0.361 124 111 77
-4190.4424 2829.0459 1449.6733 0.982 -0.144 0.126 37 55 64
-4186.3091 2842.3413 1441.3807 0.931 -0.353 0.093 56 75 84
-4148.7070 2831.1113 1421.1754 0.095 -0.619 0.779 58 77 85
-3988.5190 2833.6106 1314.0636 0.397 -0.756 0.520 108 133 147
-3968.1780 2826.2087 1303.6880 0.416 -0.816 0.402 108 133 147
-3954.9912 2857.2139 1282.0005 0.023 -0.522 0.852 156 177 183
-3569.0415 2640.2356 1117.1132 0.985 -0.001 -0.173 81 40 20
-3564.7981 2644.5637 1112.4949 0.979 -0.036 -0.201 82 41 21
-3445.0925 2991.3235 888.3350 0.484 -0.875 -0.024 130 102 82
-3439.1543 2994.7583 882.9679 0.484 -0.875 -0.024 119 98 79
-3345.0046 2968.3401 831.6664 -0.262 -0.962 -0.073 44 44 36
-3179.3647 2826.4758 781.2686 0.701 -0.710 0.063 43 43 33
-3206.9673 2888.0620 773.8109 -0.090 -0.980 -0.176 35 20 8
-3353.2004 3143.9705 763.7040 0.867 -0.475 -0.154 112 70 64
-3261.4170 3205.6245 677.1672 -0.002 -0.915 0.403 146 89 86
-3250.0303 3203.4883 670.5203 0.152 -0.966 -0.210 142 84 81
-3236.4490 3198.9773 663.4125 0.494 -0.851 -0.179 129 79 71
-3230.9851 3203.1055 658.0697 0.502 -0.848 -0.172 114 68 58
-3185.7622 3224.4968 619.1870 0.308 -0.917 -0.252 80 38 24
-2438.4341 2776.7212 311.4565 -0.079 -0.887 -0.455 151 90 69
-2607.2915 3017.7708 322.5391 0.487 -0.828 0.277 150 91 71
-2593.9529 3010.8738 316.5889 -0.057 -0.978 0.202 139 88 69
-2602.0364 3331.0640 188.1462 0.012 -0.926 -0.376 66 28 19
-2585.4741 3319.3811 182.0614 0.144 -0.912 -0.383 66 28 19
-2352.8259 3245.5181 58.8794 -0.195 -0.837 -0.511 19 18 16
-2347.4370 3248.9272 53.8867 -0.148 -0.827 -0.542 19 18 16
-2318.3521 3358.2703 -11.0620 0.913 -0.378 -0.156 27 22 26
-2315.8245 3366.4788 -16.1656 0.913 -0.378 -0.156 36 31 35
-2467.4766 3825.6802 -107.6328 -0.177 -0.983 -0.052 115 81 72
-2409.2092 3769.7236 -122.8319 0.263 -0.913 0.311 115 81 72
-2403.2712 3802.1985 -140.3338 0.846 -0.460 0.269 112 74 71
-2398.3110 3807.9910 -146.0386 0.846 -0.460 0.269 109 71 68
-2394.6248 3816.0044 -151.8280 0.812 -0.511 0.282 95 57 54
-2393.7268 3828.8931 -157.8081 0.491 -0.742 0.456 123 85 82
-2209.1965 3820.2224 -276.3706 0.366 -0.930 0.036 231 186 183
-1118.2020 4597.7217 -1323.6527 -0.289 -0.957 0.015 230 137 122
-1015.6495 4651.1104 -1413.8662 0.808 -0.582 0.094 202 22 34
-992.7087 4679.0264 -1440.7214 0.275 -0.900 0.339 226 24 44
-3639.4519 2171.4670 1350.1311 0.597 -0.646 0.475 89 70 53
-3627.8821 2170.1501 1343.0377 0.639 -0.587 0.497 91 70 51
-4344.7349 2795.4258 1554.1464 0.166 -0.985 -0.054 106 92 64
-4217.8677 2723.1414 1500.6643 0.769 -0.622 0.150 67 59 42
-4171.2070 2706.1306 1476.9719 0.968 -0.244 -0.066 24 23 15
-4173.2422 2826.7207 1427.6603 0.940 -0.330 0.088 8 24 29
-4155.9575 2822.2219 1418.1267 0.194 -0.595 0.780 18 34 36
-3988.5884 2827.5337 1305.2806 0.397 -0.756 0.520 30 49 61
-3969.7976 2821.3315 1295.4672 0.416 -0.816 0.402 30 50 61
-3759.5874 2912.2124 1118.3623 -0.365 -0.774 0.518 139 94 67
-3674.1189 2865.9897 1081.2927 0.264 -0.568 0.780 136 89 63
-3601.4392 2905.9666 1016.4655 0.563 -0.721 0.403 163 126 99
-3587.3579 2902.2834 1008.7064 0.490 -0.793 0.363 163 126 99
-3494.4968 3003.5698 904.7866 0.259 -0.931 0.256 136 101 87
-3159.6736 2835.3096 754.1826 0.154 -0.980 -0.128 34 20 8
-3340.9753 3114.7668 756.6131 0.901 -0.049 -0.431 108 72 64
-3172.6753 3018.8169 685.6892 0.713 -0.700 -0.049 105 50 47
-3264.3467 3201.1528 669.6807 0.052 -0.903 0.427 120 68 64
-3254.5989 3200.7622 663.4025 0.319 -0.942 0.103 110 57 52
-3237.4363 3202.4026 651.3705 0.446 -0.873 -0.199 80 35 24
-3224.2048 3198.2197 644.3831 0.093 -0.994 -0.058 95 52 38
-3207.7029 3200.4475 632.5410 0.093 -0.994 -0.058 120 78 64
-3202.5840 3204.9253 627.2770 0.120 -0.990 -0.067 116 72 59
-3187.8862 3301.0813 577.1707 0.563 -0.818 -0.114 119 76 61
-3182.5332 3305.5161 571.7699 0.563 -0.818 -0.114 102 56 41
-3162.8601 3293.8645 563.6624 0.273 -0.961 -0.031 98 52 36
-2446.4717 2779.7092 306.1820 -0.024 -0.970 -0.243 150 89 68
-2447.6687 2790.4163 302.4756 0.706 -0.643 -0.299 152 91 70
-2625.1084 3308.8101 201.9830 0.928 0.086 0.362 97 59 50
-2480.2747 3836.0740 -115.2270 -0.188 -0.981 -0.054 115 81 72
-2424.8354 3771.1289 -124.5852 0.073 -0.973 0.217 115 81 72
-2410.1252 3774.4006 -135.6816 0.150 -0.982 0.118 144 106 103
-2396.5308 3793.7683 -152.8021 0.841 -0.470 0.269 119 81 78
-2393.3250 3802.5547 -158.6116 0.848 -0.460 0.262 119 81 78
-2392.1191 3814.8425 -164.5704 0.470 -0.779 0.415 129 91 88
-2385.8833 3818.4524 -170.2081 0.453 -0.754 0.476 144 106 103
-1419.9362 5853.5371 -1663.4873 0.115 -0.979 -0.166 229 141 129
-1142.4628 4788.0010 -1399.2679 -0.449 -0.723 0.524 213 119 107
-1032.4548 4599.5273 -1392.7999 0.321 -0.562 -0.762 180 28 29
-4190.7363 2761.1067 1455.3156 0.979 -0.044 -0.200 22 25 22
-4167.2627 2752.3262 1443.5386 0.801 -0.420 -0.428 17 23 23
-4110.6641 2751.2766 1406.6459 0.780 -0.358 -0.513 17 23 25
-4123.9316 2784.7756 1401.2518 0.881 -0.352 -0.317 18 26 25
-4051.4509 2803.8191 1345.3975 0.503 -0.826 0.252 15 25 29
-4039.8933 2803.2759 1338.0028 0.503 -0.847 0.171 19 29 33
-4029.4275 2803.5293 1330.9918 0.520 -0.812 0.266 12 21 26
-4022.7126 2806.5867 1325.2714 0.530 -0.803 0.273 8 17 22
-4015.5564 2809.3088 1319.4011 0.530 -0.803 0.273 11 19 24
-3994.7581 2809.8213 1305.4648 0.253 -0.775 0.579 10 22 26
-3975.8928 2811.7373 1292.2111 0.468 -0.793 0.391 9 22 27
-3967.6060 2813.5505 1285.9788 0.468 -0.793 0.391 8 21 26
-3952.9846 2835.0393 1267.2593 0.063 -0.559 0.827 19 34 37
-3866.9453 2792.7312 1228.3685 -0.162 -0.685 0.711 27 38 36
-3573.7258 2640.1284 1099.3846 0.982 -0.028 -0.184 83 42 24
-3606.4941 2689.9153 1099.9766 0.449 -0.285 -0.847 88 56 41
-3701.3643 2774.7139 1126.7496 0.436 -0.144 -0.888 148 144 144
-3763.4067 2841.5811 1139.4397 0.855 -0.507 0.108 110 109 109
-3593.9968 2858.9849 1020.3374 0.426 -0.543 -0.724 153 117 91
-3685.9790 2955.4807 1040.2659 0.502 -0.687 0.525 157 120 94
-3603.6609 2918.6609 1001.5122 -0.188 -0.830 0.525 157 120 93
-3526.0217 2998.8787 916.4221 0.992 -0.116 0.039 143 108 86
-3504.0952 2996.6521 902.8983 0.999 -0.046 -0.002 139 104 83
-3499.6558 3010.5583 894.0974 0.276 -0.950 0.148 125 97 91
-3492.6870 3040.4116 876.8940 -0.271 -0.773 -0.573 66 61 50
-3277.0154 3052.6484 729.4563 0.148 -0.911 0.385 113 69 64
-3271.4307 3056.3799 724.1965 0.135 -0.917 0.376 113 64 60
-3260.3687 3054.5654 717.6656 0.184 -0.902 0.391 111 62 58
-3222.5029 3034.8042 701.0319 -0.081 -0.771 -0.632 103 52 47
-3198.7446 3019.8752 691.6638 0.118 -0.896 -0.428 95 45 40
-3195.1194 3025.4749 686.9077 0.097 -0.951 -0.293 86 37 32
-3196.1973 3035.9229 683.2067 0.564 -0.815 -0.135 74 24 20
-3256.0818 3194.7705 655.6315 0.258 -0.958 -0.127 80 34 27
-3221.9937 3289.5156 593.1357 0.930 -0.176 0.322 90 46 35
-3199.2502 3305.8071 571.2531 0.391 -0.856 -0.337 115 72 57
-3195.7405 3312.3213 566.1871 0.393 -0.869 -0.301 100 54 39
-3187.0095 3313.0000 560.1410 0.382 -0.870 -0.312 93 47 31
-2452.7981 2780.5435 300.6576 -0.015 -0.969 -0.248 150 89 68
-2451.8394 2788.5469 296.6455 0.706 -0.643 -0.299 151 90 69
-2605.4958 3329.6677 169.5006 0.750 0.039 0.661 66 28 19
-2405.9548 3756.3455 -142.3074 0.193 -0.931 0.309 150 112 109
-2217.8098 3812.8684 -290.2879 0.355 -0.933 0.060 229 184 181
-4322.0845 2775.8723 1524.0630 -0.003 -0.942 0.337 47 33 22
-4124.2979 2763.1394 1399.2412 0.735 -0.046 -0.676 24 25 21
-4113.5537 2844.0205 1357.8336 0.662 -0.713 0.232 18 21 22
-4098.3999 2840.9177 1349.1732 0.341 -0.841 0.421 18 21 22
-4088.2773 2841.5447 1342.2422 0.341 -0.841 0.421 17 21 22
-3585.2905 2651.3386 1091.8068 0.574 -0.167 -0.802 81 43 22
-3688.1677 2749.9001 1117.7046 0.486 -0.122 -0.866 77 45 28
-3746.0259 2812.9712 1129.0262 0.968 -0.186 0.168 98 96 89
-3658.5757 2840.2964 1059.8479 0.335 -0.564 0.755 110 66 41
-3402.4309 2640.9641 975.8122 0.465 -0.606 0.646 110 67 43
-3390.8801 2639.0085 969.0371 0.480 -0.592 0.648 109 70 45
-3553.2876 2809.3872 1003.6450 0.617 -0.663 0.423 120 83 57
-3653.9641 2921.2874 1022.4314 0.321 -0.857 0.403 139 102 76
-3284.5002 3053.0750 723.2263 0.184 -0.930 0.318 94 50 45
-3278.2983 3056.1914 717.8199 0.136 -0.916 0.377 90 41 37
-3204.0261 3036.8459 677.1295 0.486 -0.782 -0.389 60 16 9
-3259.4163 3190.7522 648.2675 0.099 -0.970 -0.224 80 40 31
-3202.7319 3291.3633 568.2368 0.892 -0.427 -0.146 101 57 45
-3203.3665 3302.4429 563.9515 0.861 -0.462 -0.213 92 48 34
-3201.3381 3321.0515 554.7167 0.468 -0.777 -0.420 84 38 22
-2454.9075 2785.3035 290.6729 0.689 -0.650 -0.321 144 83 62
-2603.5029 3329.4971 157.5049 0.736 0.041 0.676 71 33 25
-2327.9666 3394.0188 -51.3027 0.977 0.187 0.101 34 27 28
-2175.1226 3810.7771 -328.8490 0.769 -0.589 -0.246 131 91 89
-1249.1289 3481.5254 -798.7768 -0.110 -0.961 0.252 246 201 198
-1229.5243 4598.7710 -1285.9475 0.541 -0.415 0.732 225 155 147
-1047.7047 4619.6406 -1414.5200 0.312 -0.567 -0.763 225 81 80
-992.4354 4661.4863 -1468.6736 0.654 -0.549 0.519 245 37 68
-4488.9971 2733.0669 1640.3600 0.244 -0.508 0.826 116 95 76
-4306.7158 2759.3716 1509.3441 -0.097 -0.857 0.507 46 34 25
-4294.9780 2759.1519 1501.7240 0.106 -0.979 0.175 42 34 26
-3733.4104 2796.5940 1116.6969 0.981 -0.183 0.056 50 40 26
-3763.6055 2837.5791 1119.0521 0.860 -0.503 0.078 24 4 0
-3790.0771 2867.5002 1123.6812 0.991 -0.133 -0.009 60 35 23
-3625.0881 2907.0669 998.3708 0.304 -0.858 0.415 132 95 68
-3596.4424 2890.8027 986.4852 0.454 -0.691 0.562 132 95 68
-3577.2944 2891.2512 973.7103 -0.197 -0.816 0.544 152 115 88
-3565.9155 2889.8679 966.8226 -0.131 -0.844 0.520 151 114 87
-3544.3618 2905.2896 946.0775 0.946 -0.263 -0.191 152 115 88
-3548.1230 2917.2795 943.4332 0.947 -0.310 -0.084 151 114 87
-3542.9207 2930.0396 934.5695 0.419 -0.641 0.643 152 115 88
-3248.0273 2981.9307 718.6298 0.150 -0.984 0.094 72 47 35
-3239.6011 2982.6599 712.7809 0.150 -0.984 0.094 79 48 38
-3321.4053 3082.9866 723.7314 0.929 0.008 -0.370 70 27 22
-3332.8652 3103.9573 722.3144 0.523 -0.846 -0.105 66 19 14
-3264.5876 3063.3525 694.7700 -0.299 -0.732 -0.612 54 17 9
-3216.8198 3033.4873 676.1213 0.134 -0.934 -0.332 52 14 5
-3164.5408 3210.8408 566.0876 0.907 -0.184 0.379 108 64 53
-3210.9819 3302.9646 557.2983 0.870 -0.445 -0.211 86 42 28
-2461.0835 2785.9307 285.1001 0.526 -0.421 -0.739 144 83 62
-2405.9883 3277.7920 39.0145 0.882 -0.444 0.160 10 9 7
-2422.6763 3599.7576 -87.4019 0.738 -0.308 0.600 206 168 168
-2215.8535 3800.7559 -309.0879 0.367 -0.815 0.449 131 86 83
-2195.3884 3807.2676 -325.3157 0.269 -0.961 -0.061 131 86 83
-1252.0900 3475.7319 -803.7648 -0.141 -0.979 0.144 242 198 195
-1210.9408 4618.9863 -1318.6362 0.272 -0.843 0.464 232 154 144
-1184.2136 4534.4077 -1300.1108 0.350 -0.895 0.277 233 153 144
-1161.0610 4526.5996 -1311.9944 0.701 -0.468 0.538 216 137 129
-1054.7863 4626.7339 -1424.5636 0.374 -0.602 -0.706 220 82 79
-1047.6709 4626.4316 -1429.1106 0.670 -0.639 -0.378 222 79 78
-1044.3662 4645.5811 -1439.4535 0.667 -0.652 -0.361 229 80 81
-996.2498 4651.5312 -1473.6135 0.648 -0.557 0.520 248 39 72
-4469.6665 2714.6628 1623.8047 0.172 -0.695 0.698 121 103 83
-3805.8982 2743.1655 1176.1880 0.893 -0.434 -0.119 48 33 23
-3734.0581 2790.9907 1108.5525 0.963 -0.165 0.214 42 25 5
-3763.9060 2823.3394 1114.2562 0.860 -0.501 0.098 36 16 2
-3771.4824 2837.7576 1113.0419 0.997 -0.015 -0.075 48 22 8
-3790.9026 2861.8857 1115.4315 0.991 -0.133 -0.009 66 34 19
-3660.3723 2845.9529 1036.6454 0.436 -0.495 0.752 110 66 42
-3608.2844 2877.5630 988.9210 0.423 -0.876 0.233 121 81 55
-3602.1235 2880.7573 983.5098 0.388 -0.847 0.363 121 81 55
-3593.0503 2881.4270 977.2711 0.444 -0.709 0.548 121 81 55
-3601.8093 2897.5769 976.0895 -0.066 -0.734 0.676 127 87 61
-3569.0144 2886.1265 959.4893 0.091 -0.692 0.716 134 94 68
-3548.6895 2894.0054 942.7780 0.955 -0.294 -0.039 146 109 82
-3552.3833 2914.5220 936.4012 0.924 -0.365 -0.113 145 108 81
-3549.4954 2920.6306 931.8868 0.352 -0.821 0.449 149 112 85
-3543.0432 2923.5774 926.3906 0.354 -0.834 0.422 152 115 88
-3539.3196 2928.9612 921.6390 0.372 -0.836 0.402 151 114 87
-3270.3162 2987.9963 719.8685 0.183 -0.488 -0.853 56 37 23
-3313.2292 3067.6577 713.8491 -0.337 -0.706 -0.623 62 20 13
-3224.7793 3034.5095 670.0490 0.134 -0.934 -0.332 46 11 1
-3165.0928 3213.8342 553.9840 0.943 -0.201 0.266 106 63 54
-2467.5618 2786.9209 279.5541 0.486 -0.453 -0.748 144 83 62
-2645.3479 3439.8540 116.1209 0.942 -0.198 -0.272 10 7 0
-2400.0784 3271.6055 27.4026 0.781 -0.556 0.285 15 14 12
-2297.3855 3761.9961 -250.2915 0.233 -0.884 0.406 134 94 92
-2294.0457 3770.4834 -256.1225 0.342 -0.766 0.545 136 96 94
-1256.6219 3474.9204 -809.8389 -0.175 -0.974 0.145 251 208 205
-1234.7241 3520.5596 -843.7776 -0.322 -0.946 0.029 163 125 124
-1208.3942 3533.0154 -866.3909 0.938 0.034 0.346 243 203 201
-1216.1128 4616.0610 -1325.8579 0.260 -0.841 0.475 232 153 146
-1173.4249 4524.5830 -1314.6227 0.431 -0.583 0.689 223 144 137
-1166.2736 4524.4141 -1319.2411 0.431 -0.583 0.689 222 143 136
-1158.4692 4521.2930 -1323.0216 0.448 -0.601 0.662 224 143 133
-1101.7454 4689.5791 -1432.4086 -0.057 -0.816 -0.575 215 104 89
-1076.8512 4673.0215 -1441.6361 -0.012 -0.811 -0.584 224 95 87
-1053.1117 4625.2178 -1436.7040 0.670 -0.639 -0.378 224 88 85
-1047.9957 4635.0630 -1444.2826 0.670 -0.639 -0.378 226 87 84
-4458.5103 2701.6584 1610.4050 0.150 -0.746 0.649 125 107 87
-3767.5276 2820.0847 1106.9639 0.863 -0.498 0.092 53 25 10
-3782.1558 2840.1934 1107.8717 0.999 -0.049 -0.001 70 37 18
-3808.8967 2870.2422 1112.4243 0.989 -0.145 0.004 84 46 26
-3598.5344 2879.7566 970.5986 0.378 -0.871 0.314 113 73 47
-3564.2170 2875.5059 949.9636 0.096 -0.718 0.689 116 76 50
-3550.5039 2889.1323 935.1110 0.955 -0.294 -0.039 135 98 72
-3540.9099 2889.2578 928.7756 0.287 -0.587 -0.757 135 98 72
-3550.5564 2915.0303 923.9802 0.353 -0.870 0.345 140 103 77
-3546.7354 2920.3088 919.2029 0.349 -0.889 0.297 145 108 82
-3538.4087 2921.5791 913.2039 0.349 -0.889 0.297 144 107 81
-3298.4014 3064.4312 694.4851 0.794 -0.206 0.573 54 15 7
-3290.6841 3066.0544 688.7327 0.792 -0.205 0.575 43 7 0
-3224.8374 3018.2087 666.2502 0.476 -0.857 -0.198 47 16 6
-3168.1318 3199.4399 550.9929 0.985 -0.132 0.115 125 84 75
-3177.8608 3220.1257 548.4445 0.990 0.045 -0.137 109 67 59
-2485.0149 3097.2173 147.8273 0.929 0.146 0.341 108 70 61
-2392.4026 3251.2852 20.7725 0.785 -0.612 -0.090 14 13 11
-2384.6360 3262.7185 10.7585 0.785 -0.612 -0.090 25 24 22
-2301.3301 3757.7759 -257.2103 0.233 -0.884 0.406 129 89 87
-1264.6509 3485.0720 -818.3552 -0.323 -0.945 -0.056 250 208 205
-1223.4623 4622.4512 -1335.6671 0.391 -0.762 0.517 234 156 149
-1177.0775 4515.5737 -1319.9581 0.431 -0.583 0.689 232 154 146
-1159.6372 4501.2666 -1325.2084 0.435 -0.596 0.675 234 154 145
-1086.5819 4657.3647 -1440.3345 -0.014 -0.773 -0.635 218 97 86
-1019.9702 4680.0806 -1493.7384 0.055 -0.591 -0.805 251 49 78
-4412.7085 2681.3635 1577.6133 0.173 -0.740 0.650 118 102 82
-4260.2563 2611.1650 1508.4110 0.375 -0.806 0.458 99 91 77
-3724.5676 2660.4014 1137.0250 0.428 -0.609 0.668 29 24 9
-3728.4707 2774.2905 1090.2244 0.571 -0.056 -0.819 85 39 11
-3760.7202 2816.6345 1092.9492 0.998 -0.019 -0.062 98 51 23
-3792.2771 2850.4749 1098.9065 0.976 -0.217 -0.003 108 60 34
-3704.0596 2921.0317 1010.6857 0.390 -0.318 -0.864 108 64 37
-3604.0334 2878.0969 963.9276 0.379 -0.872 0.310 110 70 45
-3515.7468 2852.1755 917.4684 0.336 -0.834 0.438 122 84 61
-3493.4617 2875.0210 893.0063 0.300 -0.698 0.650 129 93 69
-3122.8757 2769.3726 696.6240 0.065 -0.606 -0.792 46 25 14
-3230.3003 3016.7014 659.6472 0.476 -0.857 -0.198 80 42 34
-3174.8135 3209.1123 540.0121 0.994 -0.097 0.045 75 42 38
-3197.4954 3285.0042 521.9478 0.822 -0.569 0.027 74 33 21
-3118.4727 3207.5090 503.8904 0.854 -0.519 0.030 74 32 19
-2697.6877 3459.3887 119.7785 0.675 -0.326 -0.662 37 12 10
-2409.0923 3267.1365 14.5012 0.731 -0.525 0.436 12 12 10
-2432.1287 3457.2493 -52.8263 0.853 -0.520 0.043 23 22 27
-2259.3081 3757.8052 -295.9966 0.442 -0.892 0.098 140 103 97
-2218.3206 3860.5933 -367.3210 -0.117 -0.986 -0.118 176 139 133
-1267.7913 3479.8503 -823.4667 0.013 -0.381 -0.924 239 203 199
-1301.8301 5320.0293 -1598.6229 0.337 -0.937 -0.087 210 121 107
-1073.1033 4668.2163 -1465.6383 -0.106 -0.622 -0.776 212 90 78
-1062.2874 4685.6069 -1480.2418 0.000 -0.423 -0.906 212 89 81
-1053.8466 4715.5220 -1498.7206 0.042 -0.557 -0.829 223 72 70
-4408.5898 2673.0164 1567.0104 0.173 -0.740 0.650 124 107 87
-4271.1011 2605.3613 1506.8037 -0.147 -0.788 0.598 111 101 87
-3516.8262 2846.7498 909.7178 0.375 -0.858 0.351 117 76 54
-3492.5015 2867.7234 884.7181 0.300 -0.698 0.650 124 87 63
-3184.8743 2874.6453 681.0629 0.280 -0.510 -0.813 52 25 10
-3238.3691 2944.9231 685.3450 0.917 -0.397 0.040 66 37 21
-3238.5042 3017.9553 653.6250 0.609 -0.765 0.208 105 66 59
-3161.8962 3118.5088 559.8653 0.304 -0.928 0.215 97 65 54
-3173.6619 3200.2039 531.9581 0.994 -0.105 0.026 40 13 9
-2489.0566 2792.3459 263.0815 0.737 -0.386 -0.555 143 81 60
-2623.0229 3381.3286 93.9348 0.978 -0.186 0.097 12 7 0
-2413.9297 3265.3916 8.0546 0.649 -0.759 0.042 12 12 10
-2401.9104 3270.5984 -2.0524 0.665 -0.746 0.023 12 12 10
-2441.1418 3461.5657 -59.6376 0.842 -0.534 0.079 28 27 32
-1747.7383 3981.5332 -738.3525 0.919 -0.288 0.270 244 205 196
-1743.1198 3988.5269 -744.4108 0.971 -0.162 0.177 242 204 195
-1741.7340 4003.7576 -751.9481 0.958 -0.235 0.166 241 205 195
-1190.5919 3207.2712 -764.5167 -0.141 -0.952 -0.270 243 199 198
-1080.1528 4674.6753 -1475.6519 -0.165 -0.554 -0.816 211 90 76
-3632.3943 2130.1594 1287.8270 0.862 -0.341 0.374 128 114 98
-4379.8672 2656.2014 1544.1471 -0.133 -0.821 0.556 123 108 89
-3659.6038 2691.2380 1059.9330 0.703 -0.136 -0.698 83 38 14
-3673.4055 2758.0657 1039.6646 0.801 -0.552 0.230 110 60 33
-3600.4937 2862.2805 946.5811 0.418 -0.859 0.297 111 69 45
-3586.3401 2858.5510 939.0000 0.233 -0.905 0.357 113 71 47
-3587.1460 2867.7073 935.5167 0.420 -0.827 0.374 116 71 48
-3478.2629 2934.8704 835.2358 0.756 -0.305 0.579 26 16 4
-3484.6528 2949.5012 832.9910 0.972 -0.202 -0.116 16 17 4
-3488.0818 2961.4810 829.9791 0.973 -0.199 -0.118 15 16 6
-3182.3740 2805.2708 699.3490 -0.554 -0.791 -0.261 36 12 2
-3138.0474 2771.2217 685.3979 0.116 -0.567 -0.816 36 12 1
-3183.0461 2866.2266 673.1037 0.189 -0.931 -0.313 47 20 5
-3211.5571 2902.9124 675.6050 0.490 -0.871 0.035 52 23 7
-3271.0273 3025.0964 660.8339 0.283 -0.764 -0.580 108 74 64
-3279.2690 3042.6301 658.5238 0.480 -0.653 0.585 111 74 65
-3237.4238 3009.8533 645.6313 0.611 -0.763 0.213 113 74 67
-3018.1135 3100.5693 463.1545 0.539 -0.842 0.020 76 51 42
-2460.7939 2741.5908 257.4901 0.769 -0.617 -0.169 140 78 57
-2410.2969 3262.6165 -3.4568 0.555 -0.559 -0.616 12 12 10
-2270.5669 3755.4995 -310.1733 0.530 -0.839 0.124 115 78 72
-2261.4517 3753.5286 -315.2444 0.608 -0.775 0.170 115 78 72
-1743.0258 3973.5642 -749.0480 0.970 -0.170 0.172 244 202 195
-3631.4282 2125.0017 1280.1047 0.813 -0.273 0.514 119 105 89
-3626.9790 2128.2654 1275.7780 0.773 -0.330 0.542 123 108 87
-4438.1719 2681.0151 1559.6630 -0.204 -0.902 0.381 111 96 75
-4404.7295 2666.8281 1544.1754 -0.065 -0.883 0.465 97 82 63
-4368.1973 2650.5229 1527.6125 -0.006 -0.877 0.480 81 68 52
-4318.1445 2625.2363 1506.2159 -0.256 -0.921 0.295 60 50 36
-4299.3701 2620.3777 1496.1552 -0.253 -0.897 0.361 54 44 32
-4246.7788 2593.1584 1473.9591 -0.303 -0.917 0.258 44 36 23
-4252.8125 2612.0090 1469.5863 0.232 -0.320 -0.918 42 34 21
-3599.2297 2871.7507 930.6541 0.311 -0.929 0.199 113 71 47
-3574.3359 2858.7236 920.2108 -0.048 -0.972 -0.231 113 71 47
-3572.4109 2865.5198 915.9699 0.156 -0.973 0.173 112 71 46
-3393.6741 2929.2664 771.7921 0.631 -0.413 0.657 32 15 7
-3188.7615 2856.4890 670.6701 0.199 -0.954 -0.223 47 23 8
-3192.6516 2877.7295 663.8530 0.522 -0.693 -0.497 49 20 4
-3239.0322 2940.9370 666.1805 0.775 -0.627 0.079 61 32 14
-3279.4924 3026.5337 654.8112 0.283 -0.764 -0.580 111 77 67
-3284.1519 3040.4607 651.7115 0.296 -0.761 -0.578 112 75 66
-3117.7476 3193.7036 476.1729 0.858 -0.514 0.012 68 56 48
-2452.7200 2715.9258 254.2738 0.655 -0.650 -0.385 121 59 38
-2464.2327 2738.9023 251.6457 0.769 -0.617 -0.169 139 77 56
-2659.8748 3368.5232 101.7627 0.117 -0.809 -0.576 68 37 38
-2422.2429 3271.3589 -9.8893 0.555 -0.555 -0.619 12 12 10
-2544.6257 3829.3337 -175.8517 -0.072 -0.915 0.397 215 174 168
-1742.5000 3976.1272 -761.6072 0.964 -0.228 0.140 241 194 188
-1731.0078 3984.3555 -772.6943 0.727 -0.271 0.631 248 199 194
-3755.5793 2787.9497 1058.1438 0.694 -0.079 -0.716 96 47 17
-3475.2571 2884.3108 833.7477 0.817 -0.569 -0.098 77 50 37
-3224.5076 2824.0391 697.7852 -0.344 -0.745 0.571 34 15 3
-3208.8813 2826.2412 686.6779 -0.559 -0.789 -0.254 36 14 1
-2467.6692 2736.2156 245.8049 0.769 -0.617 -0.169 134 72 51
-2665.9568 3368.0332 95.0349 0.087 -0.800 -0.594 60 29 29
-2401.0413 3312.0703 -52.0193 0.773 -0.480 -0.416 26 26 28
-2457.5056 3445.6621 -74.4700 0.909 -0.286 -0.304 34 33 38
-2455.7642 3467.6470 -85.3200 0.149 -0.781 0.607 34 33 38
-2444.7803 3463.1248 -90.4436 0.156 -0.783 0.603 34 33 38
-2443.0132 3472.8096 -95.8717 0.905 -0.379 -0.193 34 33 38
-1366.9191 3745.2764 -914.1935 0.961 -0.276 0.013 134 105 99
-1372.6229 3783.1611 -927.2454 0.793 -0.573 0.205 34 11 5
-3833.6804 2738.9329 1119.5143 0.407 -0.465 -0.786 52 27 21
-3828.5247 2758.8623 1107.3214 0.275 -0.937 -0.214 75 33 12
-3679.0654 2696.9011 1038.1147 0.698 -0.136 -0.703 96 46 20
-3762.7898 2795.7712 1048.3727 0.722 -0.085 -0.687 107 57 30
-3761.7463 2803.0977 1044.4419 0.734 -0.076 -0.675 108 57 30
-3669.4434 2859.7522 959.5224 0.713 -0.419 0.563 94 49 23
-3643.2588 2879.7817 933.6739 0.476 -0.791 0.385 96 55 31
-3588.2104 2891.9634 892.6301 0.241 -0.369 -0.897 105 66 44
-3590.8311 2902.8220 889.5010 0.228 -0.375 -0.899 104 66 44
-3548.0979 2882.5376 870.8550 0.394 -0.552 -0.735 109 71 48
-3501.1721 2892.4272 836.0870 -0.020 -0.587 -0.809 79 56 42
-3482.4495 2884.2764 827.5905 0.196 -0.719 0.666 65 42 28
-3471.9912 2883.4844 821.1731 0.610 -0.445 0.656 58 33 19
-3212.6028 2789.3840 695.0945 0.533 -0.844 -0.055 36 19 9
-3312.2446 3045.0815 645.9679 0.477 -0.817 0.324 110 76 66
-3262.8970 3032.8958 619.4418 0.897 -0.144 -0.418 113 76 68
-2967.9907 3041.9783 424.5236 0.717 -0.653 0.244 37 48 44
-2462.5632 2714.2576 243.0036 0.613 -0.672 -0.415 108 46 25
-2685.3704 3385.7708 88.8266 -0.166 -0.669 -0.724 60 29 29
-2436.5364 3297.6545 -33.0796 0.690 -0.559 -0.459 18 18 20
-2423.1504 3289.4382 -38.0930 0.154 -0.476 -0.866 18 18 20
-2456.4604 3471.4978 -97.4321 0.056 -0.808 0.587 30 29 34
-2376.0703 3667.3411 -236.4904 0.910 -0.194 0.367 218 183 177
-2198.4167 3749.6118 -388.0369 0.340 -0.934 0.113 226 189 183
-1802.1436 3966.2056 -740.7755 -0.414 -0.832 -0.369 74 36 27
-1729.0475 3949.9546 -780.8668 0.751 -0.315 0.580 212 150 150
-1723.2329 3953.7634 -786.3228 0.751 -0.315 0.580 232 170 169
-1633.6127 3889.6726 -815.8516 -0.183 -0.545 0.818 204 171 164
-1362.2847 3695.3098 -905.1058 0.987 -0.141 -0.074 229 194 190
-1377.2107 3781.2073 -933.6139 0.789 -0.576 0.215 35 11 6
-1235.8068 3493.3091 -897.2098 -0.174 -0.982 0.076 44 28 21
-688.1840 2746.6575 -919.8860 0.306 -0.368 -0.878 225 75 71
-3834.8804 2733.9209 1111.5791 0.389 -0.468 -0.793 50 27 22
-3877.7007 2783.0056 1117.3229 0.924 -0.359 0.132 69 34 18
-3748.8096 2778.4646 1036.0836 0.385 -0.446 0.808 105 58 33
-3676.2229 2859.1348 953.1666 0.827 -0.199 0.525 89 42 16
-3652.4497 2881.2334 927.9399 0.509 -0.832 0.220 91 47 24
-3644.9211 2883.3013 922.1529 0.530 -0.821 0.212 95 50 27
-3638.3027 2886.1414 916.6089 0.530 -0.821 0.212 98 53 30
-3563.3455 2889.4663 866.6996 0.851 -0.520 0.072 105 64 39
-3470.4470 2875.6245 812.8661 0.200 -0.723 0.661 55 27 12
-3196.9624 2844.7437 649.9780 0.737 -0.526 -0.425 41 15 2
-3339.7061 3055.9490 647.8778 0.937 -0.345 -0.048 113 81 70
-3318.1165 3043.8652 639.3265 0.491 -0.802 0.339 111 77 67
-3091.0952 3161.3049 440.2207 0.873 -0.033 0.487 22 44 44
-1876.4313 1992.1930 177.5974 0.266 -0.788 -0.556 103 41 20
-2414.1416 3290.2651 -54.6979 0.721 -0.463 -0.516 18 18 20
-2477.3977 3420.3635 -71.9300 0.923 -0.200 -0.329 26 26 28
-1912.3557 3962.7864 -679.1877 0.592 -0.685 0.426 243 200 193
-1834.0627 3939.0483 -719.1665 0.144 -0.425 -0.894 216 177 170
-1768.5031 3888.3574 -738.8831 0.887 -0.266 0.378 78 41 32
-1724.5977 3961.1104 -799.7358 0.727 -0.322 0.607 178 111 112
-1259.4161 3330.5315 -818.6625 -0.017 -0.841 -0.541 243 196 198
-1380.3768 3774.8748 -938.9458 0.789 -0.576 0.215 35 11 5
-1390.9540 3827.8972 -955.7905 0.789 -0.272 0.552 45 23 18
-1225.4930 3483.2405 -908.7718 0.377 -0.926 -0.039 54 22 20
-3844.3472 2735.2786 1106.1377 0.389 -0.468 -0.793 44 26 19
-3666.4167 2886.7302 923.4437 0.584 -0.767 0.266 92 46 21
-3656.6941 2886.9519 917.0753 0.631 -0.730 0.262 92 46 21
-3647.3220 2887.4553 910.8062 0.622 -0.725 0.295 94 48 23
-3638.5408 2888.4492 904.6982 0.546 -0.823 0.157 95 49 24
-3575.4651 2936.8242 842.3186 0.520 -0.612 -0.596 76 41 23
