ply
format ascii 1.0
element vertex 791
property float x
property float y
property float z
property float nx
property float ny
property float nz
property uchar diffuse_red
property uchar diffuse_green
property uchar diffuse_blue
end_header
-2209.1157 3410.1736 519.3589 0.539 -0.065 -0.840 141 128 128
-2211.8770 3425.2534 517.4819 0.531 -0.064 -0.845 165 151 151
-2219.0022 3446.7466 516.7316 0.539 -0.078 -0.839 179 163 162
-2220.5405 3460.2214 514.4935 0.539 -0.078 -0.839 185 169 168
-2225.0083 3478.0457 513.0013 0.537 -0.078 -0.840 195 179 178
-2251.4438 3528.2073 517.1691 0.978 -0.102 0.183 202 186 184
-2273.3494 3595.5173 514.5726 0.781 -0.595 -0.190 209 193 190
-2317.3235 3684.9268 520.1028 -0.344 -0.930 0.127 213 192 189
-1829.9647 5033.0239 -90.8471 0.231 -0.828 -0.511 210 197 204
-3990.5720 2544.7522 1788.0149 0.949 -0.209 -0.237 166 168 165
-4256.3652 2765.3582 1895.8058 0.756 -0.253 -0.603 163 167 166
-4261.0425 2776.9260 1895.8835 0.772 -0.262 -0.579 165 167 166
-4129.0840 2912.3032 1784.4042 0.388 -0.689 -0.612 159 161 165
-3480.8518 2723.1824 1438.9362 0.790 0.273 0.549 63 46 23
-3301.8191 2677.5691 1341.9561 0.999 -0.020 0.026 174 114 90
-3346.6907 2760.4692 1349.3472 0.969 -0.070 0.239 179 115 90
-3346.8081 2777.4880 1345.3898 0.934 -0.175 -0.312 168 101 75
-3080.8660 2617.4265 1223.1791 0.465 -0.788 -0.404 157 93 66
-3289.0449 2836.1729 1296.7271 0.886 -0.164 -0.433 77 57 52
-2930.8926 2650.4841 1125.0723 0.871 0.028 0.491 182 165 160
-2967.1650 2696.2615 1136.0732 0.802 -0.557 0.215 172 152 139
-2899.2273 2672.6096 1100.7732 0.829 -0.386 0.405 138 117 106
-2871.3806 2681.6052 1081.8807 0.824 -0.194 -0.533 137 116 109
-3065.7598 2987.3870 1126.5214 0.678 -0.257 0.689 181 169 153
-3115.4392 3040.8684 1143.7697 0.963 -0.037 -0.265 167 158 140
-2941.7756 3067.2002 1032.9935 0.536 -0.843 -0.030 53 24 6
-2949.9138 3084.4033 1033.8209 0.578 -0.815 -0.048 68 35 12
-2885.8142 3041.4568 1005.3983 0.993 0.113 0.015 107 73 44
-2905.5120 3069.8538 1010.5350 0.982 0.117 0.150 120 87 59
-2933.7917 3106.7568 1018.8248 0.971 -0.227 -0.077 128 95 67
-2920.1685 3103.0034 1011.5121 0.242 -0.764 0.598 135 101 74
-2911.7773 3113.8435 1003.8950 0.517 -0.407 0.753 156 106 89
-2930.3594 3269.9934 978.1230 0.298 -0.688 0.662 189 121 66
-2976.3533 3327.6572 992.1628 0.249 -0.550 0.797 201 125 71
-2339.2864 3220.3108 634.0615 0.672 -0.355 -0.650 113 76 61
-2334.0620 3223.7927 630.0923 0.664 -0.356 -0.658 130 93 78
-2374.2952 3306.5369 634.7281 0.427 -0.580 -0.694 181 150 140
-2420.9705 3377.6340 645.9987 0.400 -0.648 -0.648 191 159 151
-2426.3923 3395.4500 645.0458 0.500 -0.660 -0.561 203 172 164
-2465.6575 3479.7454 648.7316 0.437 -0.675 -0.595 217 186 178
-2501.4006 3538.1106 656.4346 0.315 -0.910 -0.268 217 186 178
-2525.1470 3604.0081 655.1328 0.975 0.035 0.218 211 183 186
-2429.2034 3589.5234 600.8038 0.947 0.321 -0.004 23 15 12
-2198.4319 3366.3755 514.6970 0.434 -0.602 -0.670 24 15 14
-2210.9690 3395.2539 515.4093 0.443 -0.314 -0.840 47 39 37
-2212.7681 3408.8608 513.2717 0.522 -0.088 -0.848 78 69 68
-2214.2034 3422.0093 511.0238 0.522 -0.088 -0.848 101 92 90
-2222.9153 3445.7632 510.6461 0.528 -0.085 -0.845 124 113 112
-2222.8103 3456.8362 507.9621 0.575 -0.338 -0.746 145 133 133
-2224.6724 3470.8276 505.7715 0.566 -0.343 -0.750 174 163 163
-2247.2007 3515.1541 508.8420 0.973 -0.105 0.207 193 181 181
-2299.8284 3651.6436 508.2184 0.603 -0.726 -0.331 213 192 190
-2314.1123 3685.0601 508.9080 0.561 -0.756 -0.336 213 192 189
-1832.2942 5027.0566 -98.7720 0.246 -0.890 -0.385 214 201 208
-1572.1837 5180.1768 -291.5974 0.963 0.232 -0.135 251 241 249
-4187.4165 2634.3813 1874.9028 0.861 0.116 -0.495 160 165 161
-4268.9536 2706.0908 1906.7657 0.847 -0.520 0.113 159 163 162
-4258.3228 2752.2849 1889.3715 0.673 -0.308 -0.673 150 154 153
-4260.8145 2762.5281 1888.4258 0.731 -0.242 -0.638 163 165 164
-4266.8330 2774.8696 1889.0977 0.772 -0.262 -0.579 165 167 166
-4029.0129 2816.2290 1736.4468 0.827 -0.401 0.394 184 183 179
-4034.8091 2828.7629 1736.9392 0.888 -0.305 0.344 183 182 180
-4078.9900 2865.7241 1754.6556 0.439 -0.766 -0.469 172 172 174
-4137.8457 2912.2620 1778.9004 0.388 -0.689 -0.612 158 161 166
-3325.8506 2739.8391 1332.4633 1.000 -0.025 0.008 186 122 95
-3336.1948 2755.9355 1334.8373 0.897 -0.201 -0.394 185 122 94
-3321.7432 2761.9844 1324.7183 0.882 -0.253 -0.398 165 99 70
-2910.8357 2669.2764 1100.1002 0.861 -0.352 0.367 133 110 100
-2894.8445 2680.2012 1087.8947 0.827 -0.381 0.414 151 134 126
-2884.9863 2680.0408 1082.0139 0.763 -0.414 0.496 165 148 141
-2870.5381 2684.0725 1072.3778 0.825 -0.188 -0.532 193 179 172
-2864.8833 2687.3940 1068.1908 0.816 -0.116 -0.566 206 193 186
-2867.8945 2706.2234 1065.5104 0.863 -0.079 -0.499 209 195 187
-2894.4688 2737.1301 1074.0988 0.874 -0.105 0.475 206 194 183
-2897.9421 2748.3953 1073.4989 0.850 -0.147 0.505 199 187 173
-2915.8613 2772.1470 1078.5963 0.847 0.058 -0.529 200 186 173
-2920.2249 2784.3193 1078.3147 0.815 0.103 -0.570 200 186 173
-2960.5605 2827.7314 1092.1848 0.841 0.080 -0.536 202 188 175
-2963.7336 2839.0820 1091.3844 0.853 0.100 -0.511 208 194 181
-3007.0994 2894.3494 1104.2478 0.712 -0.533 -0.456 206 194 181
-3061.9785 2960.4048 1121.4524 0.934 -0.002 -0.358 201 187 170
-3056.3813 2964.4910 1117.1179 0.970 0.014 -0.241 190 174 157
-3100.2141 3012.4626 1132.0009 0.982 0.133 -0.134 177 161 143
-3117.5713 3037.1421 1136.5396 0.963 -0.037 -0.265 167 153 133
-2958.9731 3068.5371 1033.8303 0.542 -0.582 0.606 67 38 27
-2945.4841 3065.0742 1026.5568 0.536 -0.843 -0.030 82 47 23
-2950.3657 3079.1377 1026.1354 0.659 -0.752 0.023 98 60 31
-2903.9797 3062.7056 1002.2012 0.972 0.115 0.205 135 95 63
-2884.0356 3080.8960 985.8904 0.291 -0.580 0.761 139 87 64
-2942.3816 3276.2776 974.3489 0.316 -0.730 0.606 187 122 70
-2962.2671 3306.9297 978.9819 0.256 -0.531 0.808 198 125 74
-2380.5408 3308.3550 629.3621 0.427 -0.580 -0.694 183 149 137
-2390.0425 3331.1655 629.6296 0.452 -0.683 -0.574 194 159 148
-2427.9312 3391.0139 638.1127 0.493 -0.644 -0.586 207 171 160
-2433.2605 3419.6404 634.4887 0.407 -0.659 -0.632 220 185 174
-2547.5530 3626.9697 653.6906 0.850 0.368 0.376 187 168 164
-2577.8730 3679.1951 659.4463 0.412 -0.034 0.911 165 146 142
-2198.2078 3359.5923 507.6721 0.400 -0.612 -0.682 15 9 9
-2221.0198 3425.2351 505.7216 0.513 -0.097 -0.853 58 52 52
-2225.7136 3443.1602 504.2669 0.528 -0.081 -0.845 76 66 67
-2225.2686 3453.7266 501.4810 0.566 -0.343 -0.750 103 93 94
-2201.4961 3430.3684 492.7755 0.895 0.104 0.435 140 130 131
-2316.0430 3705.1006 496.0631 0.793 -0.526 -0.307 213 192 189
-1807.0183 4989.1626 -115.6502 0.458 -0.676 -0.577 234 220 227
-1598.4581 5275.0654 -309.0251 0.979 0.184 -0.083 254 240 250
-4271.0542 2693.3142 1900.4431 0.842 -0.519 0.146 152 157 153
-4253.2129 2735.1777 1879.7091 0.695 -0.258 -0.671 148 152 151
-4266.5625 2760.4502 1881.6366 0.559 -0.456 -0.692 162 164 163
-4050.2949 2833.0852 1734.6884 0.864 -0.373 0.339 182 181 179
-4086.5645 2864.9924 1748.7487 0.439 -0.766 -0.469 171 172 174
-4145.6616 2911.6045 1772.9493 0.380 -0.697 -0.609 156 161 166
-3357.8508 2741.6372 1341.9723 0.756 -0.133 -0.641 174 115 83
-3352.2983 2745.9338 1337.6157 0.743 -0.183 -0.644 174 113 84
-3330.0674 2737.8613 1326.2406 0.892 -0.320 -0.318 176 112 84
-3325.3735 2759.5613 1318.2205 0.882 -0.253 -0.398 165 102 71
-3241.1306 2762.9829 1266.9502 0.996 0.029 0.089 110 73 52
-2936.9194 2653.6589 1111.0182 0.724 -0.010 0.690 142 117 109
-2926.8328 2653.4463 1105.0288 0.491 -0.167 0.855 147 124 111
-2917.6641 2670.0183 1095.5598 0.920 -0.173 0.351 171 148 138
-2930.3564 2688.5930 1098.7017 0.917 -0.179 0.357 175 154 142
-2906.9829 2677.3157 1087.4117 0.707 -0.644 0.291 181 162 154
-2849.8911 2645.7910 1060.7902 0.888 -0.048 0.457 203 187 180
-2848.2065 2652.3591 1058.2047 0.888 -0.048 0.457 213 198 191
-2837.4053 2651.2686 1051.9982 0.922 -0.068 0.381 217 204 198
-2843.4124 2664.3403 1052.4574 0.855 -0.126 0.503 220 205 200
-2844.3298 2673.1589 1050.8899 0.879 -0.135 0.457 218 201 196
-2900.7366 2737.4641 1069.2318 0.812 -0.110 0.573 207 191 182
-2897.4844 2742.9663 1065.9634 0.850 -0.075 0.522 202 186 175
-2905.8389 2758.4500 1067.2495 0.859 0.019 -0.511 203 186 173
-2915.0452 2774.7444 1068.8510 0.839 0.045 -0.542 203 185 173
-2964.2583 2825.7336 1086.0817 0.841 0.080 -0.536 206 189 177
-2961.7019 2840.7041 1080.9570 0.827 -0.040 -0.560 213 195 183
-3011.7874 2893.1162 1098.3685 0.712 -0.533 -0.456 214 195 182
-3072.9465 2964.5928 1117.8350 0.922 -0.307 -0.234 203 176 159
-3072.0725 2972.8752 1115.3232 0.985 0.102 -0.139 194 165 146
-3100.5720 3007.2100 1124.1477 0.982 0.133 -0.134 181 152 132
-3119.7024 3033.4172 1129.3126 0.963 -0.037 -0.265 172 144 124
-3131.3174 3053.0667 1131.5511 0.960 -0.109 -0.257 154 128 108
-3146.4246 3085.3752 1132.8420 0.928 0.204 -0.313 90 63 43
-2955.1753 3059.2671 1024.5802 0.534 -0.581 0.614 116 77 59
-2950.3984 3064.0920 1020.5613 0.666 -0.746 0.001 122 76 52
-2949.2478 3072.3821 1017.8823 0.665 -0.747 0.016 129 80 51
-2865.3142 3056.8943 971.3366 0.659 -0.412 0.629 125 79 54
-2852.4343 3053.6216 964.4092 0.657 -0.418 0.628 118 74 53
-2835.0913 3083.4302 946.8675 0.778 -0.113 -0.618 90 75 50
-2918.3599 3235.5449 960.2161 0.414 -0.819 0.398 178 114 72
-2925.3057 3252.6675 960.2653 0.175 -0.798 0.576 185 122 76
-2946.4641 3284.5068 965.2925 0.280 -0.500 0.819 195 124 76
-2948.5852 3296.8645 963.5961 0.267 -0.416 0.869 205 125 75
-2428.2168 3129.1028 692.2471 0.784 0.301 0.542 213 125 69
-2364.1025 3209.2876 634.6033 0.785 -0.253 -0.565 142 104 85
-2363.1694 3218.2212 631.8998 0.785 -0.253 -0.565 142 104 85
-2349.4211 3210.9619 625.4093 0.785 -0.244 -0.570 142 104 85
-2380.3643 3301.8792 622.1140 0.982 0.126 -0.140 188 148 133
-2393.5676 3329.4246 623.4083 0.449 -0.708 -0.545 198 157 143
-2433.5818 3391.9187 632.3683 0.493 -0.644 -0.586 211 170 156
-2427.3691 3405.4504 625.3994 0.465 -0.640 -0.612 224 183 169
-2496.8857 3529.9648 637.1384 0.843 0.383 0.378 220 186 170
-2542.1636 3612.8613 644.3528 0.593 0.125 0.795 167 154 139
-2541.7588 3623.9482 641.4489 0.446 0.011 0.895 132 120 104
-2553.4241 3651.2432 641.8822 0.574 0.101 0.813 107 94 81
-2444.8062 3597.2317 589.8025 0.993 0.103 0.054 32 29 24
-2203.3337 3360.4351 502.0426 0.500 -0.111 -0.859 34 28 28
-2209.6382 3380.3118 501.0464 0.502 -0.108 -0.858 39 33 33
-2212.3606 3395.1689 499.1101 0.498 -0.112 -0.860 44 38 38
-2212.7375 3406.7297 496.5605 0.499 -0.113 -0.859 48 42 42
-2190.5083 3407.7798 482.9965 0.895 0.085 0.439 97 88 89
-2270.9343 3618.2183 480.6415 0.927 -0.346 0.145 213 192 189
-2289.6973 3670.3955 479.3520 0.876 -0.455 0.158 213 192 189
-1800.6779 4980.8726 -128.0900 0.497 -0.666 -0.556 243 231 239
-1599.8434 5241.3374 -310.8867 0.779 -0.397 0.486 252 240 250
-1596.1644 5253.6484 -316.0452 0.776 -0.387 0.497 254 240 249
-4340.4678 2735.9026 1920.9756 0.847 -0.334 0.413 146 150 149
-3425.7939 2661.1497 1392.7334 0.983 -0.137 -0.124 128 80 70
-3425.0232 2668.7886 1390.4263 0.983 -0.137 -0.124 132 81 67
-3329.3137 2732.2017 1317.9312 0.902 -0.204 -0.380 161 97 70
-3314.6104 2737.9985 1307.7478 0.599 -0.168 0.783 162 99 68
-3139.0608 2663.1975 1220.9791 0.916 0.077 0.394 141 83 53
-3184.7761 2706.3054 1237.8625 0.956 0.112 0.273 122 75 49
-3287.7087 2810.7598 1274.0902 0.969 0.208 0.134 92 62 50
-2910.6721 2627.4841 1093.2015 0.699 -0.018 0.715 130 105 96
-2903.7336 2677.7864 1076.8969 0.889 0.455 -0.055 198 180 172
-2880.3525 2723.2986 1051.9293 0.870 -0.106 0.481 206 184 175
-2968.3416 2824.0647 1080.1230 0.854 0.099 -0.511 198 174 164
-2986.1748 2856.7559 1082.8715 0.910 0.086 -0.407 188 161 152
-3016.4817 2891.8813 1092.4814 0.712 -0.533 -0.456 187 158 149
-3075.6973 2961.5339 1111.0112 0.922 -0.307 -0.234 200 160 143
-3088.0361 2981.4524 1113.5656 0.978 0.134 -0.159 194 152 131
-3100.9294 3001.9658 1116.3074 0.982 0.133 -0.134 186 145 123
-3134.4873 3050.2366 1124.6814 0.962 -0.101 -0.253 161 120 100
-3136.5684 3061.4409 1123.2158 0.962 -0.099 -0.255 148 108 88
-3121.9744 3057.7415 1115.3934 0.949 -0.183 -0.257 134 94 72
-2968.7788 3057.1309 1024.0408 0.655 -0.756 -0.008 148 99 72
-2963.8530 3061.8328 1019.9620 0.686 -0.728 0.001 149 100 72
-2958.8914 3066.5012 1015.8701 0.686 -0.728 0.001 154 95 64
-2961.9443 3078.8086 1014.7183 0.721 -0.692 0.028 156 93 60
-2910.4253 3076.3879 984.5323 0.970 0.131 0.203 155 92 58
-2853.4731 3049.0063 957.1356 0.611 -0.450 0.651 127 88 67
-2862.6008 3114.6855 946.7095 0.891 0.431 -0.140 116 105 77
-2844.6445 3115.7920 935.7170 0.037 -0.973 0.229 144 104 83
-2843.1172 3123.8293 932.8618 0.037 -0.990 0.136 150 104 81
-2882.5771 3173.4302 944.4393 0.016 -0.959 0.282 158 106 80
-2881.5996 3182.2161 941.7316 0.374 -0.618 0.692 163 100 71
-2931.6899 3263.2200 952.0668 0.279 -0.491 0.825 194 121 79
-2925.2302 3266.6541 947.3784 0.198 -0.428 0.882 205 123 76
-2416.1038 3108.9001 681.4257 0.797 0.279 0.535 210 122 67
-2440.9961 3248.2371 662.6086 0.611 -0.363 -0.704 174 126 104
-2401.2104 3332.9915 618.3563 0.201 -0.920 -0.338 195 148 130
-2400.4321 3342.5708 615.5758 0.463 -0.679 -0.570 199 152 134
-2516.2407 3571.5520 629.3897 0.584 0.114 0.804 148 134 114
-2516.0308 3582.7505 626.5571 0.582 0.108 0.806 111 97 77
-2528.3208 3610.6987 627.1411 0.582 0.105 0.807 84 69 50
-2430.2168 3535.9082 586.6265 0.320 -0.168 0.932 23 17 11
-2398.0881 3514.7551 572.5504 0.248 -0.288 0.925 19 16 11
-2161.6465 3273.6792 489.6090 0.308 -0.552 -0.775 21 15 15
-2203.2161 3353.8203 495.0637 0.393 -0.564 -0.726 28 22 22
-2156.4534 3298.0657 480.6119 0.449 -0.501 -0.739 32 26 26
-2169.6108 3327.5327 481.3470 0.495 -0.484 -0.722 36 30 30
-2180.5525 3354.0015 481.4833 0.410 -0.580 -0.704 40 34 34
-2271.3633 3635.6602 467.6320 0.861 -0.426 0.276 213 192 189
-2279.6184 3660.1218 466.6489 0.899 -0.401 0.177 213 192 189
-3426.5090 2664.8213 1383.0155 0.983 -0.137 -0.124 128 77 61
-3419.7161 2668.2502 1378.1342 0.845 0.300 0.443 137 82 62
-3333.8271 2680.8174 1323.9104 0.991 0.137 -0.010 152 92 64
-3369.6760 2731.7114 1332.8763 0.673 -0.192 -0.715 154 93 64
-3342.6709 2736.9714 1315.5088 0.886 -0.023 0.464 160 96 69
-3340.9954 2744.1118 1312.7723 0.852 -0.241 0.464 157 96 67
-3333.8999 2755.6509 1305.7365 0.852 -0.241 0.464 157 92 64
-3110.4060 2628.4666 1203.5614 0.977 0.008 0.212 148 82 55
-3270.4465 2783.6995 1261.1090 0.969 0.227 0.101 100 65 50
-3272.7402 2793.9773 1259.9733 0.969 0.227 0.101 91 61 49
-2864.6565 2554.4744 1075.1796 0.862 0.363 -0.353 100 90 88
-2897.1172 2740.8804 1049.1385 0.825 0.033 0.565 207 174 167
-2971.8008 2821.8533 1073.9161 0.854 0.099 -0.511 194 162 154
-2984.3992 2849.9585 1074.5792 0.889 0.062 -0.454 181 146 140
-3019.2510 2888.9639 1085.8452 0.858 -0.407 -0.313 176 139 132
-3092.1272 2979.5410 1107.2081 0.983 0.126 -0.131 192 140 115
-3136.4443 3055.6606 1115.0778 0.962 -0.101 -0.253 164 113 89
-3124.5432 3054.3787 1108.3003 0.949 -0.183 -0.257 158 106 82
-2970.1841 3052.8076 1016.7300 0.660 -0.711 0.244 163 103 66
-2960.4414 3052.9546 1010.8906 0.646 -0.719 0.257 164 103 65
-2852.9854 3042.9053 949.3249 0.998 0.042 -0.048 143 95 77
-2862.8528 3080.7151 945.9985 -0.203 -0.877 0.435 144 119 96
-2847.3091 3122.2778 926.6213 -0.134 -0.987 0.094 158 110 94
-2888.1541 3202.6338 931.3912 0.375 -0.199 0.905 176 108 75
-2908.1194 3232.9888 935.8951 0.430 -0.534 0.728 194 118 82
-2909.6841 3244.5884 934.0034 0.194 -0.464 0.864 204 122 77
-2479.5046 3228.2158 681.7291 0.864 0.395 0.312 173 109 78
-2552.4072 3358.0129 693.5600 0.923 0.207 0.324 168 121 101
-2446.7495 3249.2239 657.1025 0.611 -0.363 -0.704 173 127 104
-2440.3794 3251.5786 652.7346 -0.004 -1.000 0.022 173 127 104
-2481.8455 3519.1836 612.2911 0.581 0.111 0.806 117 92 71
-2483.4719 3532.6353 609.9854 0.581 0.107 0.807 87 61 40
-2498.0747 3563.4534 611.1821 0.584 0.103 0.805 64 38 17
-2507.5835 3587.6389 610.9589 0.541 0.060 0.839 37 12 0
-2420.3433 3515.7354 576.4933 0.223 -0.311 0.924 24 15 9
-2398.0115 3496.6472 567.8370 0.575 -0.567 0.590 22 16 10
-2385.8699 3491.3198 561.9010 0.558 -0.587 0.587 21 16 12
-2387.8447 3505.2861 559.6775 0.616 -0.506 0.603 21 16 12
-2379.4062 3504.9846 554.7241 0.621 -0.504 0.601 17 12 8
-2165.9272 3348.2166 465.7168 0.773 0.072 0.631 49 37 37
-2168.0457 3362.1492 463.5869 0.786 0.067 0.615 48 38 36
-2169.6187 3375.3596 461.3081 0.784 0.060 0.617 50 40 38
-2254.3489 3626.8652 450.5565 0.963 -0.269 -0.031 213 192 189
-1833.1997 4940.1909 -120.0364 0.764 -0.458 0.455 217 202 209
-1603.2432 5248.4575 -332.0663 0.948 0.166 0.271 252 240 248
-4061.4072 2932.2332 1685.4210 0.515 -0.528 -0.676 129 183 214
-3390.4041 2675.3420 1349.7267 0.713 -0.107 0.693 141 83 57
-3349.3037 2703.4727 1318.4121 0.990 0.076 0.121 154 93 64
-3332.3606 2699.4004 1309.3438 0.976 0.162 0.147 154 93 64
-3355.8699 2724.8669 1317.0690 0.973 0.169 0.157 157 98 68
-2868.2651 2703.0454 1032.7158 0.913 0.251 0.323 206 174 167
-2887.8665 2727.9565 1038.2552 0.829 0.035 0.557 206 166 161
-2973.2781 2817.9348 1066.9452 0.850 0.109 -0.515 192 153 148
-2991.0439 2850.4668 1069.5260 0.884 0.068 -0.462 177 138 133
-3022.6855 2886.6238 1079.4623 0.858 -0.407 -0.313 175 130 126
-3083.7048 2966.6426 1096.1011 0.970 -0.080 -0.230 193 132 104
-3127.1118 3051.0166 1101.2085 0.949 -0.183 -0.257 171 109 80
-2994.9778 2959.9878 1045.0168 0.646 0.020 0.763 170 106 76
-3011.7051 2984.1614 1049.0294 0.570 -0.081 0.818 170 105 76
-3024.2385 3004.6606 1051.4510 0.635 0.017 0.772 171 106 78
-3013.8540 3004.3867 1045.3484 0.621 0.007 0.784 174 109 80
-2966.4585 2970.2415 1025.5591 0.734 0.076 0.675 174 110 80
-2994.6045 3070.1138 1017.8002 0.906 0.405 0.120 177 107 63
-2842.9368 3046.0635 933.5848 -0.193 -0.896 0.401 141 95 80
-2846.1948 3115.3828 918.5286 0.010 -0.999 0.044 148 99 89
-2837.5134 3116.2002 913.1702 0.081 -0.986 0.143 151 98 83
-2871.4531 3169.8933 920.1734 0.405 -0.598 0.692 160 95 72
-2904.5845 3223.3696 926.7494 0.430 -0.534 0.728 194 117 87
-2900.5435 3229.1775 922.9249 0.191 -0.468 0.863 203 122 77
-2390.6086 3067.2107 659.6581 0.833 0.151 0.533 207 120 66
-2397.2456 3094.2212 656.9802 0.907 0.395 0.143 201 122 75
-2433.0222 3146.5886 665.3997 0.896 0.398 0.199 182 109 68
-2503.5105 3281.7551 674.1464 0.869 0.216 0.445 162 114 92
-2458.7437 3268.1055 650.8947 -0.094 -0.995 0.038 179 133 110
-2434.1763 3449.4814 591.8385 0.804 0.367 0.469 135 91 72
-2446.6111 3477.0125 592.4779 0.582 0.099 0.807 117 74 54
-2467.2361 3515.6042 595.2720 0.585 0.101 0.804 104 61 41
-2460.6606 3518.1116 590.7507 0.617 0.115 0.779 86 41 24
-2464.2793 3534.2656 588.9409 0.591 0.107 0.800 72 29 15
-2415.8186 3491.6467 570.5958 0.401 -0.663 0.633 39 3 0
-2404.0320 3498.1392 562.0016 0.400 -0.661 0.634 24 15 10
-2392.7659 3505.3059 553.5511 0.512 -0.583 0.631 23 16 10
-2378.5281 3497.0588 547.1136 0.299 -0.270 0.915 18 13 9
-2224.1648 3348.9119 491.7160 0.386 -0.713 0.585 20 14 14
-2245.1782 3389.3132 494.2973 0.380 -0.670 0.638 20 14 14
-2251.4890 3409.1934 493.1736 0.372 -0.705 0.604 23 17 17
-2249.7520 3417.7700 490.0392 0.394 -0.722 0.569 29 23 23
-2163.7358 3349.4548 455.6800 0.886 -0.077 0.457 42 32 31
-2161.9631 3357.7629 452.5903 0.881 -0.076 0.466 41 31 30
-2255.9968 3622.2585 443.6241 0.960 -0.274 -0.059 213 192 189
-2291.0957 3687.3308 448.5265 0.724 -0.548 -0.418 213 192 189
-4053.0486 2985.9766 1656.4930 0.915 -0.083 -0.395 119 185 213
-3347.9836 2632.2446 1326.0056 0.594 -0.246 0.766 126 70 42
-3348.3706 2640.5859 1324.1763 0.475 -0.223 0.852 127 68 43
-3371.3904 2665.0266 1331.7844 0.021 -0.747 0.665 141 81 56
-3192.4370 2730.1521 1209.6698 0.977 -0.080 0.199 72 50 38
-3112.3909 2676.4988 1175.4801 -0.039 -0.746 0.664 67 51 43
-3078.7542 2674.6650 1156.0009 0.981 0.010 -0.196 77 68 66
-2975.2532 2814.4475 1060.1699 0.849 0.109 -0.517 188 145 140
-3080.8862 2958.6931 1087.1620 0.969 -0.085 -0.232 191 123 93
-3085.3516 2971.6555 1086.6086 0.964 -0.066 -0.258 193 122 92
-3059.5608 2976.0940 1070.2305 0.570 -0.203 0.796 191 120 94
-2949.6909 2887.3103 1027.0392 0.304 -0.301 0.904 183 112 84
-3007.3076 2965.6267 1041.8507 0.660 0.078 0.747 178 111 78
-2917.1782 2919.8037 999.7535 0.479 -0.317 -0.819 185 113 83
-2914.5515 2926.2971 996.5942 0.517 -0.600 -0.611 186 112 82
-2940.1814 2976.8547 999.3033 0.439 -0.795 -0.419 185 109 58
-3029.7144 3116.3997 1017.9151 0.884 0.448 0.135 197 110 66
-3018.0273 3114.8989 1011.3602 0.879 0.453 0.150 202 110 67
-2884.2725 3090.4133 938.1458 0.918 0.252 -0.307 138 82 69
-2893.3826 3176.4692 922.3043 0.072 -0.979 0.191 145 83 67
-2863.1587 3155.6089 909.5433 0.336 -0.466 0.818 161 95 73
-2901.0657 3213.7939 917.6446 0.430 -0.534 0.728 193 116 87
-2378.0928 3046.7512 648.9800 0.940 0.240 0.242 206 121 68
-2432.1008 3451.1860 581.1626 0.453 -0.049 0.890 169 109 84
-2434.2495 3465.0906 579.0040 0.589 0.074 0.805 164 103 80
-2429.2666 3469.5574 574.9488 0.589 0.074 0.805 149 88 67
-2432.4626 3484.9614 573.0407 0.570 0.102 0.816 131 71 53
-2423.4487 3484.0554 567.9230 0.271 -0.667 0.694 105 48 32
-2416.6934 3486.1526 563.4024 0.365 -0.791 0.491 85 33 19
-2411.4700 3490.3027 559.2829 0.454 -0.630 0.630 32 12 5
-2365.2202 3494.5576 530.8270 0.257 -0.281 0.925 18 11 7
-2321.6506 3445.4871 517.1207 0.260 -0.811 0.524 17 12 7
-2256.9072 3410.2886 487.4437 0.385 -0.634 0.671 24 19 19
-2153.2439 3338.6907 443.6884 0.873 -0.078 0.481 35 26 28
-2159.1780 3358.1440 442.4034 0.869 -0.086 0.488 39 31 30
-2293.7534 3696.3203 438.6805 0.460 -0.791 -0.404 215 190 187
-2007.5004 4447.4917 83.6577 0.218 -0.833 0.509 189 136 119
-2009.3156 4468.0376 79.6623 -0.047 -0.995 0.082 189 137 120
-1856.4795 4956.6792 -131.5064 0.513 -0.377 -0.771 211 196 203
-1690.0270 4941.6138 -226.4213 0.817 0.201 -0.540 232 222 230
-1585.7358 5141.4678 -337.5470 0.896 -0.309 0.319 251 239 249
-4073.4150 2856.0281 1690.0325 0.693 -0.152 -0.705 118 135 150
-4017.2747 2901.2876 1645.6069 0.992 -0.118 -0.036 126 190 225
-2068.7048 1664.3844 801.4016 0.955 -0.261 -0.137 121 182 206
-3356.4077 2633.2515 1321.6508 0.906 -0.312 -0.286 113 63 39
-3275.6011 2592.1577 1284.1069 -0.213 -0.806 0.553 133 80 57
-3241.5332 2575.8538 1268.0248 -0.325 -0.833 0.448 139 87 63
-3247.2180 2587.7734 1268.4225 -0.297 -0.816 0.497 141 91 64
-3187.5127 2552.9192 1241.7987 -0.283 -0.811 0.511 140 91 66
-3104.2427 2673.3572 1162.6578 0.105 -0.692 0.715 77 48 37
-3026.4294 2861.7766 1069.8479 0.877 0.076 -0.475 181 134 121
-3021.8572 2928.2590 1050.6248 0.416 -0.161 0.895 192 126 95
-3008.4434 2925.3076 1043.4308 0.652 0.114 0.749 188 122 91
-2994.0396 2966.2656 1024.7400 0.660 -0.127 0.740 175 109 75
-2939.1938 2925.5571 1002.4430 0.500 -0.404 -0.766 177 105 73
-2947.2341 2941.7971 1003.1591 0.544 -0.420 -0.726 186 110 79
-2948.6018 2952.0212 1001.4266 0.553 -0.702 -0.448 193 115 83
-2954.5356 2966.4700 1001.3428 0.670 -0.543 -0.505 189 114 68
-2951.7388 2972.9556 998.0782 0.670 -0.543 -0.505 184 111 60
-2951.1416 2981.4844 995.6058 0.464 -0.765 -0.447 184 112 58
-3101.3320 3197.6958 1030.6370 0.875 0.296 0.382 206 112 63
-2824.6438 3091.7512 893.4453 0.216 -0.226 0.950 137 69 40
-2790.9766 3067.2944 879.6260 0.217 -0.227 0.950 169 98 68
-2872.2944 3188.3152 897.6097 0.193 -0.433 0.881 205 122 75
-2364.3271 3024.8943 638.0179 0.896 0.134 0.423 205 130 86
-2364.4807 3034.4631 635.7308 0.878 0.179 0.443 201 126 84
-2403.5076 3099.7661 642.5671 0.916 0.361 0.177 181 110 68
-2362.2522 3167.0532 601.4647 0.358 -0.457 -0.815 163 126 108
-2303.0022 3182.2183 562.6799 0.956 0.147 0.253 176 125 101
-2416.8220 3413.5315 572.4638 0.889 0.356 0.287 191 116 80
-2434.5696 3447.8760 574.4175 0.886 0.345 0.310 191 115 79
-2417.9502 3481.1824 556.3190 0.365 -0.791 0.491 149 80 47
-2410.5935 3482.4492 551.6564 0.382 -0.608 0.696 94 48 23
-2392.3569 3480.1272 541.4558 -0.172 -0.851 0.496 63 24 5
-2379.8027 3474.2222 535.5039 0.453 -0.617 0.644 49 14 0
-2383.0249 3489.8235 533.5311 0.145 -0.573 0.807 37 9 0
-2367.1519 3479.2900 526.7679 0.100 -0.592 0.800 30 8 0
-2328.6382 3448.5457 511.6469 0.574 -0.693 0.437 19 7 1
-2326.0598 3456.1016 508.2455 0.600 -0.690 0.405 17 17 8
-2301.1375 3432.5684 499.3647 0.467 -0.726 0.505 16 18 10
-2304.1809 3447.9131 497.3502 0.503 -0.491 0.711 16 17 13
-2158.8174 3362.0457 432.7805 0.702 -0.670 0.240 43 38 41
-2160.4912 3375.4260 430.4447 0.726 -0.244 0.643 45 39 42
-2288.1265 3692.7603 427.0165 0.134 -0.964 0.231 214 190 188
-2087.9424 4749.4668 46.1139 -0.162 -0.914 -0.371 174 130 113
-4136.7339 2890.5381 1708.1152 0.732 -0.122 -0.671 127 147 164
-4043.0601 2930.8748 1642.8105 0.945 -0.034 -0.327 129 193 228
-3366.2092 2635.2087 1317.8384 0.894 -0.334 -0.299 98 63 49
-3405.0657 2670.6750 1331.8674 0.989 0.127 0.070 105 68 55
-3430.4993 2696.8645 1340.3059 0.950 -0.004 -0.313 113 74 62
-3546.2842 2839.3191 1372.9100 0.991 0.128 -0.030 155 95 71
-3098.7271 2664.1528 1152.9387 0.105 -0.692 0.715 107 56 31
-2926.3130 2753.9380 1028.8514 0.871 0.116 -0.478 185 144 127
-2976.3997 2805.0847 1045.5767 0.851 0.109 -0.514 185 139 120
-2980.8943 2878.0005 1029.9828 0.323 -0.240 0.915 187 127 93
-2965.6418 2935.1670 1006.6901 0.902 -0.387 0.190 150 86 51
-2953.9448 2951.4539 995.7209 0.553 -0.702 -0.448 183 106 74
-2958.1638 2964.3215 994.9882 0.592 -0.635 -0.495 189 113 67
-2954.7439 2970.2339 991.4932 0.592 -0.635 -0.495 188 113 64
-2955.9788 2980.4431 989.6667 0.467 -0.766 -0.442 188 114 61
-2968.5696 3001.1865 991.8981 0.631 -0.560 -0.536 187 114 59
-3024.1562 3061.9153 1009.4678 0.972 -0.059 0.226 190 116 61
-2366.7129 3012.7488 634.2618 0.860 0.168 0.482 211 139 93
-2362.5125 3017.1548 630.6837 0.885 0.139 0.445 206 135 91
-2394.9380 3083.8271 633.1146 0.839 0.384 0.386 179 110 68
-2380.9556 3359.9475 555.7896 0.905 0.301 0.300 197 118 69
-2427.7134 3443.2581 562.5055 0.742 -0.507 0.440 198 119 69
-2426.6379 3452.8547 559.4706 0.844 -0.281 0.457 185 106 59
-2407.9690 3472.2634 543.6108 0.443 -0.623 0.645 144 80 43
-2402.2368 3475.6826 539.3768 0.399 -0.783 0.477 127 66 34
-2373.7134 3448.2024 529.4401 -0.131 -0.696 0.706 107 49 22
-2367.9180 3451.4099 525.2216 -0.166 -0.845 0.508 89 36 15
-2368.2515 3474.1323 519.7332 0.145 -0.573 0.807 46 6 1
-2345.6929 3454.3254 511.3924 0.465 -0.643 0.609 35 0 0
-2307.2158 3445.5286 490.9143 0.543 -0.705 0.456 16 17 12
-2250.1433 3420.7114 463.4841 0.791 -0.011 0.612 40 35 53
-2156.9751 3363.7979 422.8087 0.510 -0.706 0.491 41 36 40
-2149.9705 3364.5171 418.5002 0.672 -0.468 0.574 44 39 42
-2297.3584 3711.7649 418.4934 0.257 -0.819 0.514 214 190 188
-2118.9751 4788.4546 43.9701 -0.179 -0.942 -0.283 177 134 117
-4094.6089 2566.3083 1754.2572 0.972 -0.219 -0.081 152 147 151
-4144.5015 2889.8430 1702.0927 0.702 -0.151 -0.696 125 148 168
-3758.3433 2869.2354 1480.2836 0.778 -0.628 0.026 88 66 64
-3358.7954 2625.0803 1306.9114 0.936 -0.213 -0.282 94 63 53
-3365.2485 2637.6699 1307.5337 0.969 -0.243 -0.053 100 68 59
-3411.3735 2678.3105 1324.4113 1.000 -0.002 -0.002 103 71 63
-3535.1189 2808.5571 1364.3468 0.971 0.223 -0.088 134 93 82
-3469.4614 2778.4363 1333.3375 0.967 0.035 -0.253 140 90 72
-3466.4861 2784.8281 1329.9786 0.963 0.029 -0.267 154 94 73
-2471.9941 2075.4397 924.0581 -0.142 -0.988 0.064 161 96 66
-3095.8743 2657.0308 1144.3075 0.146 -0.628 0.765 136 77 43
-3012.5552 2891.6348 1036.2361 0.337 -0.252 0.907 189 130 96
-2955.1580 2893.7839 1001.9540 0.953 0.278 0.117 150 101 61
-2964.2412 2919.5955 1000.7921 0.775 -0.235 0.587 121 67 29
-2966.1836 2930.2466 999.2510 0.902 -0.387 0.190 127 65 29
-2959.2981 2950.8857 990.0049 0.553 -0.702 -0.448 172 97 64
-2962.6272 2962.9319 988.9276 0.564 -0.727 -0.392 189 110 68
-2943.3669 2954.3359 979.7708 0.624 -0.695 -0.356 198 118 73
-3032.6260 3064.0918 1004.5953 0.987 0.037 0.159 198 116 67
-2896.4387 3094.6775 916.8347 0.884 0.466 0.030 207 125 95
-2911.7546 3119.2539 919.6475 0.989 0.133 -0.066 206 125 96
-2787.8867 3024.9695 870.5816 0.511 -0.828 0.232 204 124 82
-2782.0337 3028.3999 866.2768 0.511 -0.830 0.225 205 125 81
-2779.3967 3072.4675 853.6268 0.177 -0.452 0.874 206 123 79
-2344.3728 2981.0706 620.9230 0.896 0.267 0.354 210 141 96
-2335.5398 2979.9451 616.0139 0.893 0.263 0.365 207 136 94
-2377.0520 3056.9082 621.0308 0.839 0.384 0.386 180 111 70
-2395.3975 3088.2197 623.9281 0.833 0.391 0.391 174 105 64
-2425.9253 3134.2493 630.2795 0.805 0.343 0.485 166 98 59
-2422.9180 3209.9119 609.4536 0.051 -0.983 0.175 168 131 112
-2422.7268 3219.7593 606.8607 0.065 -0.929 -0.365 168 131 112
-2446.3987 3259.1111 610.8640 -0.224 -0.975 0.005 164 128 110
-2368.9526 3435.1763 520.9899 -0.132 -0.721 0.680 142 76 41
-2358.7205 3465.5835 507.3159 0.464 -0.483 0.743 55 14 6
-2305.2769 3447.3264 480.4983 0.459 -0.697 0.551 19 16 16
-2247.7695 3410.7725 455.9003 0.792 -0.017 0.611 39 37 53
-2258.7461 3437.4299 455.6382 0.955 0.253 0.155 47 44 51
-4269.1929 2684.2207 1816.5594 0.724 -0.555 -0.410 163 159 166
-4267.1997 2700.3430 1811.3027 0.673 -0.633 -0.384 164 160 166
-4279.3823 2715.9375 1814.4908 0.655 -0.652 -0.382 161 161 165
-4157.5903 2892.4851 1698.3199 0.688 -0.099 -0.719 124 149 168
-3757.0264 2854.0051 1473.2394 0.632 -0.739 -0.233 92 82 84
-3766.5657 2869.4590 1474.9133 0.806 -0.590 -0.053 89 66 62
-3363.4885 2631.4976 1298.9427 0.964 -0.265 -0.034 99 69 59
-3453.8733 2711.5361 1331.6368 0.989 0.141 -0.041 113 87 82
-3519.3154 2783.3706 1351.7881 0.961 0.255 -0.111 128 105 105
-3527.0479 2797.4929 1352.7402 0.971 0.217 -0.098 130 106 106
-3461.7463 2759.1685 1324.1742 0.969 0.105 -0.225 133 106 101
-2408.5227 2013.6392 895.7493 0.038 -0.988 -0.150 144 102 88
-3445.0681 2789.6768 1306.6602 0.965 0.162 -0.206 153 99 72
-3449.5317 2801.5312 1306.2710 0.967 0.160 -0.199 156 99 69
-3145.4963 2609.8530 1176.6294 0.075 -0.670 -0.738 170 102 65
-3098.1345 2670.0161 1133.6068 0.107 -0.723 0.682 107 75 57
-3364.2903 2975.0947 1212.2853 0.743 -0.503 -0.442 102 85 77
-3348.0508 2971.1035 1203.7769 0.789 -0.554 -0.265 107 90 82
-2939.6792 2665.0266 1041.9746 0.747 -0.088 -0.659 156 141 136
-2939.5093 2672.9512 1039.8656 0.747 -0.092 -0.659 166 151 146
-2971.8103 2833.5322 1018.0834 0.519 -0.023 0.854 187 131 94
-2971.4617 2876.5947 1006.9594 0.472 -0.178 0.863 169 110 76
-2951.5984 2885.2908 993.1091 0.953 0.278 0.117 120 75 34
-2966.7241 2925.3335 991.8230 0.902 -0.387 0.190 130 68 32
-2974.1526 2940.9543 992.2170 0.536 -0.426 -0.729 154 83 51
-2969.1199 2945.3752 988.1454 0.511 -0.458 -0.728 169 95 63
-2969.0098 2954.2649 985.8267 0.609 -0.687 -0.395 184 105 74
-2949.1494 2954.1785 974.2051 0.660 -0.675 -0.329 206 120 81
-2958.1833 2971.4841 975.1132 0.595 -0.718 -0.361 209 120 81
-2977.4841 2998.3269 979.6220 0.814 -0.287 0.504 210 120 79
-3002.2305 3030.3513 986.0094 0.965 0.032 0.261 205 115 73
-2810.2764 2870.4399 914.0222 0.958 -0.047 0.282 200 112 72
-2866.0769 2958.1497 924.4954 0.838 0.370 0.401 199 114 66
-2884.9055 2984.9919 928.7275 0.834 0.377 0.403 197 115 66
-2843.7126 2964.0403 909.8902 0.989 -0.146 0.022 200 116 67
-2842.4878 2971.9229 907.1733 0.989 -0.146 0.022 200 115 66
-2843.0293 2981.5227 905.0566 0.996 -0.053 0.066 201 116 68
-2998.8394 3228.6968 933.7260 0.995 0.031 -0.097 202 123 82
-2734.0364 2984.1313 840.4958 0.896 -0.363 0.256 201 124 81
-2737.5608 2996.7964 839.3505 0.057 -0.958 0.281 202 124 82
-2709.2595 3023.3933 816.0141 0.840 -0.281 0.464 209 123 72
-2708.4058 3031.7927 813.3837 0.922 -0.294 0.250 209 123 72
-2369.4802 3042.2805 612.0229 0.826 0.381 0.416 179 110 69
-2390.6775 3076.8772 615.6774 0.801 0.336 0.496 174 105 64
-2404.2708 3102.6348 617.1152 0.804 0.341 0.487 167 98 57
-2422.1257 3133.6318 619.7231 0.765 0.288 0.576 158 94 56
-2435.6504 3159.6245 621.0610 0.801 0.369 0.472 135 91 67
-2430.6572 3203.3164 607.0545 0.784 -0.620 0.028 162 125 106
-2421.7969 3202.5271 602.0601 0.012 -0.987 0.162 162 125 106
-2422.2422 3213.1287 599.6329 0.781 -0.625 -0.010 161 126 107
-2429.3394 3231.9709 599.0159 0.839 -0.526 0.139 163 128 109
-2431.4534 3244.7520 597.0143 0.756 -0.632 0.171 163 128 109
-2426.7444 3259.3628 590.5486 -0.205 -0.977 0.061 163 128 109
-2365.7495 3380.7537 524.0076 0.795 -0.596 0.113 188 105 59
-2391.9578 3426.5730 527.7542 0.503 -0.689 0.521 182 101 56
-2390.6846 3435.8525 524.6546 0.458 -0.609 0.647 167 93 48
-2359.4661 3426.7834 508.6519 0.192 -0.405 0.894 143 81 46
-2315.2544 3465.7883 472.8413 0.458 -0.695 0.555 27 21 22
-2251.5742 3420.6431 446.9553 0.954 0.253 0.160 52 50 55
-2132.5139 3336.9797 398.3689 0.807 -0.296 0.511 45 34 37
-2128.4248 3341.8523 394.7361 0.807 -0.296 0.511 53 41 43
-2284.1982 3689.4895 397.9092 0.182 -0.966 0.186 214 190 188
-1891.1359 4998.4141 -164.4406 0.668 0.148 0.729 200 180 189
-1628.7128 5222.3008 -375.0630 0.838 -0.508 0.199 252 236 247
-4246.7861 2657.7957 1799.5769 0.380 -0.925 0.004 156 162 166
-4151.1396 2873.7380 1688.5305 0.711 -0.148 -0.687 126 143 158
-4164.5063 2891.2231 1691.8824 0.688 -0.099 -0.719 124 149 168
-3479.3147 2609.4878 1363.1716 0.690 -0.409 -0.597 114 177 209
-3533.9565 2654.3589 1383.6664 0.486 -0.402 -0.776 111 171 200
-3761.9185 2851.9397 1466.5192 0.632 -0.739 -0.233 94 82 83
-3769.5452 2866.0593 1467.3741 0.806 -0.590 -0.053 91 65 62
-3519.8718 2787.1021 1341.5465 0.984 0.175 -0.015 132 131 141
-2435.3411 2029.4215 900.8361 -0.086 -0.975 -0.203 131 115 111
-3425.1001 2786.9241 1286.1793 -0.188 -0.940 -0.286 153 98 71
-3159.9473 2639.7122 1168.7239 0.412 -0.657 -0.631 181 105 64
-3170.5515 2655.7334 1170.8345 0.802 -0.574 0.165 169 102 63
-3170.7532 2663.9736 1168.8489 0.786 -0.593 0.177 160 99 66
-3166.8948 2669.1614 1165.2687 0.802 -0.571 0.174 151 92 63
-3165.3196 2676.0913 1162.5786 0.776 -0.595 0.208 144 88 58
-3205.9346 2715.2520 1176.3298 0.832 -0.046 -0.552 139 85 54
-3065.4065 2631.7637 1115.4752 0.667 -0.183 0.722 130 78 51
-3073.8110 2646.2559 1116.6901 0.479 -0.364 0.799 111 75 56
-3080.5576 2659.5300 1117.2462 0.830 -0.122 0.544 105 77 60
-3319.2012 2924.3367 1189.1842 0.698 -0.486 -0.526 99 85 76
-3363.5596 2968.9631 1203.7286 0.744 -0.511 -0.430 102 85 77
-3351.1072 2968.0354 1196.6847 0.791 -0.560 -0.245 108 91 83
-2914.7056 2647.7607 1023.2777 0.599 -0.263 -0.757 162 147 142
-2936.2227 2673.4226 1029.3081 0.605 -0.278 -0.746 166 152 149
-2948.0281 2773.9341 1010.5536 -0.225 -0.805 0.549 187 136 109
-2913.5439 2803.3550 982.8808 0.917 0.231 0.324 184 125 91
-2921.1592 2818.5354 983.4583 0.929 0.229 0.290 176 117 83
-2923.2861 2828.9673 982.0391 0.929 0.229 0.290 158 99 65
-2926.1145 2840.0588 980.8616 0.926 0.234 0.295 138 81 46
-2972.3843 2942.8940 981.6650 0.896 -0.441 -0.039 180 104 74
-2973.1948 2952.6104 979.6587 0.598 -0.698 -0.394 193 113 83
-2952.3022 2951.6104 967.6982 0.643 -0.688 -0.336 206 117 84
-2967.4021 2974.4438 970.6984 0.527 -0.793 -0.304 208 116 84
-2846.8657 2890.3262 921.6937 -0.050 -0.720 0.692 203 112 79
-2859.6172 2955.6206 912.4821 0.823 0.393 0.410 196 120 76
-2837.1592 2988.5984 890.9330 0.961 -0.267 0.074 203 126 80
-2805.8416 2967.4607 878.0173 0.935 0.105 0.338 207 131 84
-2735.3408 2908.1377 851.9390 0.925 0.090 0.368 210 133 88
-2759.3484 2940.3721 857.7479 0.877 0.007 0.481 205 128 84
-2725.3523 2979.0649 827.9935 0.883 -0.414 0.220 202 125 81
-2723.0630 2985.8833 824.9144 0.890 -0.393 0.229 201 124 80
-2714.1799 2986.0769 819.6711 0.891 -0.373 0.259 205 127 84
-2705.6377 3014.1213 807.5178 0.840 -0.285 0.462 206 120 69
-2703.3875 3021.0601 804.4309 0.971 -0.194 0.139 203 117 66
-2350.2087 3013.9019 599.7565 0.826 0.381 0.416 191 122 81
-2370.7095 3047.5220 603.1610 0.799 0.340 0.497 178 109 68
-2389.7861 3079.6555 606.1125 0.765 0.303 0.568 161 92 51
-2401.1982 3102.8477 606.8649 0.766 0.292 0.573 144 80 42
-2405.5142 3117.6848 605.6010 0.782 0.307 0.542 119 75 51
-2407.6873 3130.0239 603.7219 0.780 0.307 0.546 115 77 56
-2404.7183 3165.7542 592.8652 0.619 -0.222 0.753 144 107 88
-2408.4019 3180.1726 591.3385 0.626 -0.211 0.751 150 113 94
-2403.5737 3184.2314 587.4795 0.953 0.190 0.234 152 117 98
-2406.4131 3197.7168 585.6973 0.945 0.075 0.318 154 119 100
-2400.1104 3199.9854 581.4331 0.795 -0.506 -0.335 157 122 103
-2382.2690 3187.9514 574.0731 0.490 -0.725 -0.484 162 127 108
-2380.9473 3196.3306 571.1614 0.618 -0.618 -0.486 165 130 111
-2388.6602 3216.0037 570.6492 0.625 -0.624 -0.469 170 135 116
-2349.3191 3406.5261 499.0130 0.009 -0.781 0.625 167 98 58
-2343.7102 3453.9731 483.6220 0.272 -0.476 -0.836 67 32 12
-2321.3184 3467.5935 467.0527 0.518 -0.724 0.456 29 17 13
-2110.9268 3299.1072 387.0466 0.742 -0.482 0.466 43 33 35
-2123.3677 3328.0139 386.9417 0.772 -0.471 0.427 48 36 38
-2297.3123 3714.4067 390.0138 0.673 -0.479 0.563 216 192 190
-1697.6632 3680.8696 47.9629 -0.192 -0.899 -0.393 202 159 152
-4159.1128 2873.1443 1682.5690 0.714 -0.147 -0.685 131 146 161
-4171.4346 2889.9590 1685.4335 0.688 -0.099 -0.719 126 149 167
-3418.2253 2555.7634 1332.0948 0.623 -0.370 -0.690 126 189 221
-3479.8040 2604.8945 1355.3781 0.478 -0.531 -0.700 122 182 217
-3701.4678 2796.4702 1435.4084 0.884 -0.407 -0.228 104 111 122
-3761.1768 2846.0137 1457.4956 0.666 -0.650 -0.367 104 91 94
-3152.7810 2637.4575 1156.3169 0.577 -0.652 0.491 166 102 66
-3145.6643 2640.1182 1151.4833 0.577 -0.652 0.491 158 99 65
-3154.7720 2655.0435 1152.9591 0.564 -0.575 0.592 151 92 61
-3149.4873 2659.1128 1148.8318 0.553 -0.571 0.606 145 88 55
-3311.5667 2912.7905 1178.1597 0.674 -0.483 -0.558 96 82 73
-3358.2095 2959.1382 1193.4487 0.791 -0.563 -0.240 98 81 73
-3350.0374 2961.6450 1188.0393 0.823 -0.511 -0.246 107 88 81
-2938.7656 2646.5056 1029.1951 0.533 -0.298 -0.792 128 113 106
-2919.7332 2711.7651 1001.3280 -0.048 -0.798 0.601 182 155 141
-2919.5977 2719.8638 999.1679 0.589 -0.533 0.607 189 154 136
-2911.3655 2754.2810 985.5239 0.229 -0.717 0.658 192 134 97
-2929.8899 2803.9263 983.5693 0.612 0.004 0.791 182 122 88
-2906.8457 2792.3730 973.1004 0.919 0.230 0.320 171 111 77
-2911.4045 2804.8325 972.5573 0.927 0.239 0.290 157 97 63
-2915.2051 2816.6824 971.7285 0.920 0.241 0.310 137 78 44
-2917.0210 2826.8369 970.1781 0.922 0.242 0.301 117 60 25
-2950.7271 2891.4373 973.2334 0.953 0.280 0.117 137 81 43
-2969.9412 2944.2244 970.8737 0.960 0.233 0.154 201 121 92
-2956.2532 2940.7922 963.7739 0.759 -0.187 0.624 208 126 96
-2962.6497 2955.5906 963.7011 0.632 -0.703 -0.325 209 127 97
-2847.4998 2876.8457 916.7889 -0.051 -0.723 0.689 203 123 92
-2833.5532 2872.7295 909.7139 -0.048 -0.711 0.701 199 119 88
-2832.1206 2880.1443 906.9734 -0.065 -0.762 0.645 199 120 90
-2819.6299 2903.6643 893.6461 0.820 0.391 0.419 187 114 77
-2839.1621 2939.8516 895.7372 0.821 0.391 0.416 190 118 80
-2805.2612 2943.4382 875.0473 0.059 -0.952 -0.302 203 126 82
-2804.2051 2951.4077 872.3836 0.065 -0.950 -0.304 207 130 80
-2800.7515 2957.0886 868.9101 0.070 -0.950 -0.305 208 131 78
-2711.1477 2995.7913 806.7153 0.964 -0.155 0.215 218 135 86
-2706.9841 3000.7417 803.0154 0.965 -0.153 0.212 220 137 87
-2703.8210 3006.7153 799.6360 0.840 -0.285 0.462 215 129 78
-2703.4443 3015.5491 797.1465 0.971 -0.194 0.139 210 124 73
-2302.5134 2924.9634 586.6317 0.820 0.264 0.507 205 136 95
-2350.1934 3017.6296 590.6238 0.799 0.340 0.497 181 112 71
-2364.5176 3043.9778 592.2062 0.760 0.297 0.579 163 95 56
-2379.4248 3071.1738 593.9108 0.766 0.292 0.573 146 82 46
-2393.2498 3097.2378 595.2751 0.790 0.301 0.534 106 62 38
-2390.1582 3103.1934 591.9420 0.781 0.304 0.546 100 62 41
-2393.5247 3116.9226 590.3773 0.782 0.303 0.544 98 61 43
-2406.0793 3151.6248 588.7814 0.822 -0.206 0.531 117 80 61
-2409.8672 3166.0891 587.2734 0.619 -0.210 0.757 121 84 65
-2406.0176 3171.3171 583.6851 0.606 -0.204 0.769 127 90 71
-2385.4087 3156.0576 575.5887 0.938 0.176 0.299 130 93 75
-2395.4092 3178.2234 575.7247 0.949 0.060 0.310 147 112 93
-2403.1689 3197.7544 575.2309 0.941 0.048 0.335 152 117 98
-2382.6904 3182.4980 567.2096 0.862 -0.338 -0.378 159 124 105
-2380.9482 3190.3384 564.1792 0.862 -0.338 -0.378 163 128 109
-2386.1868 3206.8894 562.9810 0.939 -0.299 -0.171 170 135 116
-2362.9744 3208.1101 549.1317 0.937 -0.338 0.085 175 137 119
-2367.8179 3275.6377 534.6044 -0.256 -0.955 0.153 182 112 74
-2396.0964 3440.9863 508.6069 0.697 -0.484 0.529 190 105 54
-2292.3430 3323.1782 478.3776 -0.045 -0.709 0.703 181 108 63
-2331.0588 3397.0972 481.9597 -0.052 -0.892 0.448 152 89 54
-2346.2695 3450.8713 477.0118 0.290 -0.438 -0.851 96 49 27
-2350.9541 3468.4561 475.2249 0.247 -0.449 -0.859 81 39 20
-2257.2236 3437.6687 428.4798 0.973 0.024 0.230 49 47 52
-2255.6904 3446.6433 425.2796 0.948 0.272 0.166 49 47 52
-2105.2830 3284.5554 379.2233 0.705 -0.542 0.457 41 30 33
-2113.8594 3307.7307 378.2694 0.938 -0.199 0.284 46 34 36
-2115.6973 3321.1782 375.8857 0.957 -0.193 0.219 53 41 43
-1772.1422 5120.0898 -286.6890 0.910 0.218 -0.353 241 234 241
-4356.3481 2682.3298 1835.8475 0.735 -0.630 -0.250 140 149 146
-4102.7812 2550.6750 1722.4384 0.411 -0.681 -0.606 140 155 155
-4255.3740 2660.6084 1782.7446 0.449 -0.892 0.050 154 172 170
-4155.5635 2865.3584 1671.7421 0.728 -0.153 -0.668 130 147 163
-3483.8623 2602.6943 1349.0536 0.489 -0.522 -0.699 122 182 218
-3693.3003 2776.9807 1425.7729 0.831 -0.073 -0.552 106 135 152
-3704.7483 2793.3960 1428.1847 0.884 -0.407 -0.228 108 116 127
-3768.7480 2854.6321 1449.5652 0.444 -0.787 -0.428 100 73 71
-3281.0754 2614.5881 1228.0472 0.793 -0.110 0.599 126 169 198
-3228.7200 2665.0420 1184.5504 0.774 -0.260 -0.578 162 100 71
-3229.6306 2673.8545 1182.8007 0.734 -0.328 -0.595 167 98 62
-3210.3735 2675.7617 1171.1084 0.052 -0.913 -0.404 162 104 68
-3048.6821 2601.3264 1096.3298 0.363 -0.353 0.862 135 77 43
-3043.9463 2605.5764 1092.4764 0.366 -0.343 0.865 127 73 46
-3347.3728 2953.9873 1178.8179 0.811 -0.536 -0.235 101 83 73
-2947.6621 2656.8599 1023.2183 0.629 -0.223 -0.745 130 115 110
-2950.0303 2757.0828 998.6733 0.223 -0.747 0.626 191 145 121
-2923.4709 2751.2263 984.7425 0.187 -0.759 0.624 189 135 101
-2902.4006 2766.5742 968.5195 0.917 0.229 0.328 181 121 87
-2902.1157 2774.7180 966.2474 0.922 0.219 0.320 168 109 75
-2911.2644 2791.0864 967.3341 0.916 0.217 0.337 147 88 54
-2918.1453 2805.5596 967.5922 0.682 -0.105 0.724 126 67 33
-2920.2734 2815.9429 966.1443 0.559 -0.220 0.799 120 61 27
-2944.0933 2845.4136 972.3741 0.697 -0.202 0.688 113 55 21
-2969.6133 2938.5002 963.1385 0.957 0.238 0.165 209 131 101
-2985.1975 2961.5796 966.2321 0.953 0.261 0.156 205 136 106
-2914.4565 2915.2139 937.0853 0.699 0.327 0.636 193 131 99
-2961.9749 2976.6362 948.8328 0.484 -0.234 0.843 160 102 68
-2830.4519 2873.3125 899.0704 -0.065 -0.762 0.645 146 86 55
-2822.4583 2918.6865 882.6858 0.821 0.391 0.416 172 103 69
-2708.4746 2978.4563 800.9398 0.910 -0.110 0.401 248 165 122
-2703.5017 3010.0491 789.8765 0.971 -0.194 0.139 217 131 80
-2278.6562 2891.8291 573.3862 0.819 0.259 0.512 205 136 95
-2368.0293 3051.9375 583.9493 0.816 0.335 0.471 160 96 60
-2397.3237 3096.3237 589.5050 0.649 -0.118 0.751 132 87 63
-2392.3276 3100.0061 585.6471 0.646 -0.122 0.753 126 88 67
-2382.3533 3097.7139 580.4394 0.720 -0.365 0.590 124 87 68
-2376.6763 3100.5481 576.4048 0.858 -0.500 0.121 125 88 70
-2387.5369 3123.3452 576.8245 0.791 -0.609 0.063 108 71 52
-2385.7595 3130.9558 573.8224 0.582 -0.344 0.737 107 69 48
-2385.1079 3139.9585 571.1149 0.571 -0.341 0.747 106 68 49
-2379.5786 3143.0422 567.1018 0.937 0.179 0.301 104 67 48
-2381.1338 3154.7930 564.9668 0.937 0.179 0.301 126 91 72
-2385.9290 3170.5776 563.6728 0.942 0.173 0.286 132 97 78
-2380.6592 3174.0315 559.7150 0.918 -0.326 -0.225 139 104 85
-2378.6890 3181.5620 556.6213 0.919 -0.339 -0.202 143 108 89
-2388.7778 3204.0896 556.6618 0.819 0.252 0.515 154 119 100
-2369.1492 3199.7532 546.3685 0.915 -0.380 -0.138 168 133 114
-2361.0938 3199.7241 541.6914 0.910 -0.342 0.236 176 138 120
-2422.3708 3328.7949 543.9431 -0.331 -0.910 0.250 172 109 74
-2374.3142 3277.7800 529.1907 -0.252 -0.956 0.150 182 112 74
-2361.1206 3271.2051 523.2186 -0.150 -0.978 0.148 192 118 77
-2377.2578 3409.2458 496.8995 0.648 -0.748 -0.143 199 112 56
-2356.2563 3457.9458 472.0900 0.225 -0.460 -0.859 125 68 45
-2359.6323 3473.7395 469.9683 0.247 -0.449 -0.859 104 52 32
-2250.0229 3431.9297 417.0393 0.948 0.272 0.166 48 46 51
-2107.5391 3292.1619 370.3288 0.947 -0.137 0.291 40 28 30
-2112.0955 3309.5144 368.4903 0.954 -0.189 0.234 47 35 37
-1882.2290 5001.1919 -202.7346 -0.255 -0.904 -0.343 236 216 225
-4106.4102 2547.6489 1715.1868 0.472 -0.641 -0.605 129 148 146
-4259.9468 2657.8999 1775.5311 0.449 -0.892 0.050 120 143 139
-4153.3799 2858.4399 1661.5171 0.940 -0.265 -0.216 130 147 163
-3428.6470 2553.0767 1320.6898 0.591 -0.376 -0.713 130 188 225
-3484.6914 2598.3362 1341.4113 0.485 -0.530 -0.696 122 182 216
-3770.3655 2850.3120 1441.4955 0.677 -0.619 -0.398 105 81 79
-3775.2163 2862.5122 1441.1326 0.481 -0.761 -0.436 96 62 53
-3252.4817 2589.3267 1209.0815 0.937 -0.169 0.305 128 185 221
-3178.0996 2614.6335 1159.3538 0.335 -0.675 -0.658 132 99 93
-3179.2029 2623.4160 1157.7072 0.348 -0.698 -0.626 145 96 80
-3175.3477 2628.5437 1154.1362 0.348 -0.698 -0.626 152 95 71
-3173.1521 2642.9402 1149.1149 0.553 -0.525 -0.647 162 103 71
-3168.2908 2647.3408 1145.1498 0.548 -0.537 -0.642 155 100 68
-2957.6499 2652.0432 1021.7598 0.613 -0.214 -0.761 118 102 93
-2959.2319 2661.3525 1020.2537 0.618 -0.216 -0.756 127 112 106
-2919.8962 2743.1377 976.1483 0.190 -0.753 0.629 189 135 105
-2910.7007 2768.6462 964.1743 0.911 -0.118 0.396 152 92 59
-2912.4854 2778.5879 962.6212 0.632 -0.105 0.768 134 75 42
-2909.4985 2784.4294 959.3681 0.638 -0.112 0.762 120 61 28
-2915.3701 2797.9905 959.2430 0.485 -0.145 0.862 118 60 27
-2912.6606 2804.1208 956.0757 0.612 -0.274 0.741 122 64 31
-2937.6489 2834.5327 962.6508 0.697 -0.202 0.688 128 73 38
-2940.2305 2845.4221 961.3131 0.611 -0.258 0.749 140 90 51
-2914.8618 2848.9421 945.6836 0.766 0.172 0.619 186 131 94
-2907.8206 2912.6604 925.0115 0.711 0.324 0.624 127 87 55
-2833.0540 2853.0547 897.1666 0.444 -0.860 0.250 106 68 35
-2840.4458 2868.5247 897.4263 -0.033 -0.778 0.628 97 58 26
-2828.3105 3112.3950 826.8994 1.000 -0.003 -0.006 217 134 84
-2704.6501 3005.6707 782.9642 0.970 -0.192 0.147 205 119 68
-2316.4819 2966.7932 567.9586 0.761 0.312 0.569 187 118 77
-2331.8789 2994.1584 569.7643 0.787 0.339 0.516 180 112 72
-2364.5251 3042.1165 576.2129 0.844 0.429 0.322 173 108 72
-2386.3708 3087.1279 577.1646 0.643 -0.116 0.757 136 95 73
-2379.9646 3089.0847 572.9397 0.635 -0.140 0.760 134 95 76
-2374.5352 3092.1992 568.9800 0.635 -0.140 0.760 134 96 78
-2380.2637 3108.7527 567.9928 0.688 -0.403 0.603 117 79 60
-2380.1531 3118.3308 565.4351 0.508 -0.466 0.724 111 73 53
-2373.2061 3119.6497 561.0627 0.597 -0.333 0.730 103 66 48
-2365.0930 3119.5286 556.3890 0.877 -0.009 0.480 95 60 42
-2368.1123 3132.9807 554.6379 0.872 -0.005 0.490 93 60 41
-2366.3840 3140.6758 551.6323 0.872 -0.005 0.490 97 63 45
-2364.2671 3147.9163 548.5195 0.868 -0.019 0.496 104 70 52
-2347.7507 3137.3970 541.6791 0.788 -0.394 0.474 108 75 57
-2348.5215 3148.1958 539.3148 0.700 -0.389 0.598 123 90 71
-2353.6680 3184.4177 532.8696 0.946 -0.294 0.140 159 123 105
-2384.3691 3274.0835 527.3321 -0.191 -0.942 0.276 172 109 75
-2269.6384 3290.5374 456.5078 -0.137 -0.867 -0.479 195 121 74
-2365.0750 3463.3813 466.8606 0.225 -0.460 -0.859 145 84 62
-2370.1421 3481.5010 465.0821 0.239 -0.456 -0.857 120 65 45
-2105.1829 3282.4053 363.2453 0.897 -0.212 0.388 34 22 25
-1743.7695 3751.6394 31.4760 0.507 -0.371 -0.778 205 165 158
-1904.0859 4984.0078 -196.3774 -0.198 -0.919 -0.341 204 184 193
-1900.1630 4994.3584 -201.3473 -0.197 -0.916 -0.349 199 179 188
-2703.8879 1602.1360 1141.5771 -0.202 -0.978 -0.050 102 84 69
-2691.9153 1601.1552 1134.9092 -0.202 -0.979 -0.037 113 95 81
-4274.1230 2618.1047 1783.5834 0.629 -0.776 0.047 126 129 127
-3431.2114 2549.9670 1313.8994 0.605 -0.379 -0.700 128 189 224
-3548.8755 2652.5022 1355.0887 0.987 -0.005 -0.163 124 176 211
-3563.6753 2670.6653 1358.8896 0.974 -0.151 -0.171 118 160 192
-3735.4292 2812.3086 1421.1169 0.646 -0.748 -0.153 114 109 117
-3775.3083 2848.2649 1434.7614 0.745 -0.580 -0.331 103 87 89
-3777.4966 2858.6313 1433.3107 0.698 -0.712 -0.071 92 69 65
-3008.3135 2712.5193 1026.7028 0.960 0.212 -0.184 120 112 104
-3015.9150 2726.9587 1027.3159 0.970 0.219 -0.108 126 119 111
-2910.5303 2705.5007 971.9841 0.551 -0.565 0.614 194 156 141
-2907.9500 2744.5312 960.2646 0.577 -0.687 0.442 161 111 85
-2916.3525 2760.0496 961.0583 0.863 -0.144 0.484 141 82 57
