ply
format ascii 1.0
element vertex 792
property float x
property float y
property float z
property float nx
property float ny
property float nz
property uchar diffuse_red
property uchar diffuse_green
property uchar diffuse_blue
end_header
-1900.3165 4063.4497 -757.5129 0.477 -0.780 0.406 191 155 147
-1885.2911 4046.2920 -756.4435 0.414 -0.578 0.703 94 63 55
-1867.9469 4024.0093 -754.3489 0.373 -0.613 0.697 42 20 12
-1859.3165 4020.1809 -755.8278 0.395 -0.628 0.670 30 12 4
-1843.2797 4000.3503 -754.1593 0.626 -0.363 0.690 37 18 11
-1833.3611 3993.5352 -755.0201 0.640 -0.352 0.683 51 32 25
-1770.5936 3872.0525 -733.2546 0.752 -0.557 -0.351 40 21 14
-1782.9976 3913.1812 -743.5023 0.993 -0.040 0.111 41 22 15
-1782.0829 3954.3198 -758.0876 0.926 0.201 0.320 113 84 78
-1783.6674 3972.3481 -763.8334 0.964 -0.021 0.264 134 100 95
-1687.4503 3915.1021 -775.2628 0.818 -0.116 -0.563 229 194 192
-1695.2131 3947.6941 -784.0560 0.865 -0.140 -0.482 228 194 192
-2356.7581 1650.8740 223.1545 0.840 0.152 -0.521 50 36 28
-2362.2449 1670.6619 218.0299 0.769 0.144 -0.623 50 36 27
-2373.4006 1683.0807 217.3102 0.931 0.166 -0.324 45 29 16
-2376.9023 1690.8114 215.7478 0.931 0.169 -0.325 59 43 28
-2380.4016 1698.5731 214.1737 0.936 0.174 -0.307 83 67 52
-2386.2661 1707.8495 212.8371 0.959 0.174 -0.225 102 86 71
-2391.3369 1716.6710 211.4022 0.870 0.123 -0.478 151 134 120
-2394.0203 1724.0256 209.7060 0.849 0.069 -0.524 180 164 149
-2392.4958 1728.7411 207.5680 0.891 -0.397 0.222 194 177 163
-2391.9407 1734.0817 205.5258 0.969 -0.201 0.144 182 165 150
-2391.7827 1745.4127 201.5230 0.274 -0.897 0.346 201 177 152
-2378.4348 1742.5547 198.1987 0.785 -0.440 0.435 201 176 151
-2337.5635 1837.5848 151.8261 0.567 -0.293 0.770 199 174 144
-2359.7310 1877.2587 145.1662 0.577 -0.318 0.752 193 174 151
-2350.8579 1883.1116 140.2526 0.580 -0.320 0.749 102 83 60
-1923.2583 1742.6469 50.8134 -0.479 -0.842 -0.248 167 115 99
-2562.9707 2332.9441 52.0421 0.823 -0.255 0.508 151 102 86
-2895.5728 2797.5354 -2.3098 0.626 -0.779 -0.050 96 40 24
-2894.7891 2806.0037 -5.5168 0.635 -0.769 0.073 96 40 24
-2870.5161 2802.2642 -12.0705 -0.296 -0.821 -0.489 97 40 23
-2781.3235 2783.5657 -34.4235 -0.310 -0.938 0.153 106 41 22
-2521.6467 3024.4700 -202.5024 0.415 -0.772 0.481 184 129 122
-2520.5991 3033.1128 -205.8557 0.645 -0.724 0.245 189 134 127
-2789.2705 3351.1179 -229.7824 0.141 -0.468 -0.873 196 141 134
-2545.9053 3163.3899 -243.0970 0.732 -0.329 0.596 71 45 34
-2546.6187 3174.5745 -246.7667 0.723 -0.322 0.611 25 10 1
-2507.1675 3179.0908 -261.1131 0.076 -0.674 0.735 187 150 148
-1953.8475 3367.5488 -505.9619 0.907 -0.239 -0.348 220 189 182
-1938.8014 3353.6436 -505.9834 0.790 -0.605 0.097 220 189 184
-1922.7354 3833.3030 -678.4637 0.049 -0.389 -0.920 227 177 172
-1940.2471 3895.2302 -694.3915 -0.038 -0.567 -0.823 214 164 159
-1900.0555 4055.4797 -763.2890 0.483 -0.782 0.394 171 136 126
-1889.1350 4047.0527 -763.8853 0.466 -0.717 0.518 72 41 32
-1868.6940 4018.2397 -760.4542 0.257 -0.839 0.480 36 14 4
-1861.0153 4016.4500 -762.3159 0.278 -0.828 0.486 26 9 0
-1818.5424 3954.2671 -754.3796 0.476 -0.641 0.602 50 32 25
-1777.8146 3880.5752 -741.8646 0.738 -0.531 -0.416 35 16 9
-1777.4918 3922.5527 -756.6085 0.947 -0.274 -0.165 98 75 68
-1779.5366 3941.4187 -762.5259 0.986 0.099 -0.136 115 85 79
-1781.8390 3975.5208 -773.6735 0.998 -0.062 0.010 134 98 91
-1783.6525 3994.1877 -779.5965 0.998 -0.057 0.016 130 93 87
-1695.5929 3926.5178 -784.5042 0.784 -0.414 -0.463 227 190 188
-1736.3331 4035.4387 -809.3012 0.822 -0.510 -0.255 227 192 189
-1563.3943 3830.4949 -793.8130 0.957 0.258 0.132 229 191 190
-2338.6963 1631.9731 218.1893 0.839 0.002 -0.543 53 35 24
-2358.9167 1649.6603 218.5071 0.850 0.135 -0.509 47 30 19
-2362.7583 1657.4570 217.0138 0.881 0.147 -0.450 49 31 20
-2365.1609 1664.4052 215.3544 0.879 0.139 -0.456 53 36 25
-2367.1636 1671.1339 213.6431 0.870 0.125 -0.476 56 38 26
-2379.1597 1684.0640 212.9783 0.793 0.054 -0.606 58 38 16
-2382.8997 1691.9449 211.4228 0.803 0.068 -0.592 86 63 40
-2384.7712 1698.6957 209.6615 0.803 0.068 -0.592 129 106 83
-2388.3262 1706.5237 208.0650 0.959 0.189 -0.213 162 139 115
-2390.0479 1713.2336 206.2697 0.959 0.189 -0.213 188 165 141
-2390.3130 1724.7142 202.3347 0.934 -0.251 0.254 191 168 143
-2337.9058 1719.4474 187.3024 0.872 -0.441 -0.211 210 184 152
-2340.9211 1837.1404 147.0589 0.416 -0.511 0.752 194 173 147
-2319.2278 1845.7227 137.0676 0.516 -0.288 0.807 156 141 125
-2314.0754 1848.0305 134.6002 0.516 -0.288 0.807 80 66 50
-2334.9797 1905.4769 121.2151 0.873 0.262 0.411 38 35 21
-2275.3828 1947.4218 87.3344 -0.298 -0.847 -0.440 75 41 33
-2890.7605 2779.7102 -5.9509 0.648 -0.745 0.157 88 32 19
-2885.2070 2783.8191 -9.1781 0.651 -0.740 0.167 100 44 30
-1907.4847 2055.1436 -68.8629 0.227 -0.545 0.807 183 112 115
-1823.6992 1990.7388 -73.2908 0.978 0.209 -0.025 182 121 121
-1828.1359 2007.5520 -77.7498 0.976 0.215 0.041 170 111 110
-1758.6355 1955.6056 -81.9402 0.538 0.005 -0.843 176 118 117
-2524.4714 3032.7646 -212.5236 0.692 -0.505 -0.516 198 144 134
-2518.6038 3035.9150 -215.5164 0.681 -0.492 -0.543 198 144 134
-2539.6743 3161.3105 -252.6429 0.756 -0.297 0.584 33 11 1
-2534.0195 3164.9041 -255.7223 0.284 -0.497 0.820 25 13 1
-2504.2915 3170.5781 -267.2826 0.087 -0.679 0.729 167 138 132
-2122.0676 3463.1716 -492.8330 0.279 -0.610 -0.742 221 186 180
-1935.9696 3435.3496 -543.0194 0.422 -0.888 0.180 228 189 189
-1934.4293 3444.4153 -546.6902 0.398 -0.898 0.187 234 194 194
-1923.2891 3436.7725 -547.6013 0.464 -0.881 0.095 233 194 194
-1913.0820 3889.5430 -709.4424 -0.041 -0.653 -0.756 207 148 133
-1880.1660 3850.8628 -706.4971 0.417 -0.100 -0.903 196 137 120
-1922.6686 3979.2866 -737.7822 0.369 -0.153 -0.917 199 138 122
-1870.4556 3886.4189 -722.0754 0.308 -0.266 -0.914 204 143 127
-1908.7358 4066.3921 -772.7722 0.638 -0.760 0.122 144 110 90
-1892.6692 4047.1458 -771.2064 0.478 -0.678 0.558 85 56 38
-1870.2021 4014.1021 -766.8699 0.257 -0.839 0.480 47 26 12
-1830.0248 3971.7173 -764.9658 0.451 -0.622 0.640 44 30 19
-1770.8239 3900.7583 -759.1814 0.102 -0.966 0.236 110 88 78
-1753.2814 3876.5520 -756.3539 -0.036 -0.996 0.077 122 90 81
-1780.1215 3978.9399 -783.5655 0.998 -0.053 -0.019 132 87 81
-1785.4039 4005.3667 -791.1186 0.989 -0.139 0.055 139 88 84
-1752.2242 4034.4133 -811.9752 0.019 -0.745 0.667 183 134 131
-1691.1471 3997.3323 -818.6588 -0.017 -0.773 0.634 228 201 198
-1612.4222 3883.8865 -804.2834 0.501 -0.538 -0.678 225 193 194
-1617.7889 3911.5017 -812.2256 0.502 -0.553 -0.665 230 194 195
-1584.0156 3903.0286 -820.1345 0.106 -0.993 0.053 228 190 192
-1572.0371 3888.2451 -818.8150 0.895 -0.437 0.092 236 197 200
-1568.6086 3894.5471 -822.1259 0.889 -0.449 0.090 232 193 197
-1516.3324 3851.8674 -824.0147 0.547 -0.796 0.257 230 191 194
-2338.4592 1618.6201 217.1002 0.704 -0.142 -0.696 53 35 21
-2339.4878 1624.5895 215.3307 0.707 -0.139 -0.693 53 35 21
-2342.2712 1631.6395 213.7433 0.652 -0.067 -0.755 53 35 21
-2361.5193 1648.7147 213.9051 0.850 0.135 -0.509 55 37 23
-2365.3235 1656.4833 212.3920 0.864 0.113 -0.490 55 37 23
-2370.1724 1664.9247 210.9771 0.883 0.115 -0.456 52 34 20
-2371.8750 1671.4712 209.2205 0.839 0.120 -0.531 51 32 17
-2385.9773 1685.6908 208.7380 0.716 -0.178 -0.675 102 79 56
-2386.3560 1691.4946 206.8185 0.669 -0.188 -0.719 131 107 83
-2387.8320 1697.9980 205.0046 0.807 0.072 -0.586 163 139 115
-2389.6282 1704.7238 203.2150 0.811 0.084 -0.579 190 164 139
-2343.6987 1830.3452 144.3303 0.343 -0.618 0.708 196 172 144
-2338.3267 1832.5479 141.8350 0.413 -0.507 0.756 195 172 147
-2360.7959 1860.2200 139.3024 0.786 -0.054 0.615 177 161 145
-2302.0991 1842.6680 126.6715 0.514 -0.241 0.823 41 28 12
-2296.4050 1844.5458 124.1871 0.568 -0.196 0.799 38 25 9
-2389.8472 2160.5181 43.0157 0.886 -0.312 0.344 161 108 100
-2836.7668 2682.7034 2.5655 0.565 -0.711 0.419 151 97 85
-2907.6873 2763.2593 -3.0418 0.224 -0.646 0.730 137 81 68
-2809.7126 2711.4807 -16.2199 0.465 -0.702 0.540 105 49 36
-2800.1096 2711.6663 -19.3613 0.468 -0.701 0.538 100 44 31
-2857.8269 2772.8965 -22.4025 0.336 -0.729 0.596 95 37 25
-2848.7109 2782.7590 -28.7906 0.896 -0.364 0.252 90 30 19
-1910.2083 2100.0315 -89.3610 0.990 -0.132 0.050 163 111 108
-1768.5654 1962.7971 -86.4789 0.578 0.016 -0.816 155 103 100
-2537.6904 3153.9612 -258.9462 0.756 -0.297 0.584 33 11 0
-2533.2107 3158.9355 -262.1304 0.655 -0.388 0.649 25 13 2
-2524.8945 3159.3318 -264.9336 0.680 -0.370 0.633 20 17 2
-2320.0051 3365.3352 -403.0033 0.862 -0.331 0.385 222 175 169
-2195.9707 3574.2847 -516.2081 0.556 -0.311 -0.771 215 181 175
-1850.7875 3058.7588 -445.5098 0.972 0.230 -0.050 218 184 178
-1933.8518 3425.8682 -547.9869 0.740 -0.618 0.266 221 186 185
-1925.8910 3423.7639 -549.7971 0.564 -0.805 0.184 216 180 180
-1893.9254 3438.0740 -565.0685 0.137 -0.835 0.533 226 186 186
-1823.2413 3755.7832 -699.4263 0.553 -0.159 -0.818 189 132 113
-1843.6986 3852.1082 -726.7435 0.749 -0.101 -0.654 207 145 130
-1903.7272 4033.8132 -771.4066 0.458 -0.721 0.519 188 150 127
-1897.7048 4035.7573 -774.0195 0.458 -0.721 0.519 147 114 91
-1891.6932 4037.6987 -776.6278 0.458 -0.721 0.519 93 64 44
-1865.5880 3996.9829 -770.6734 0.005 -0.938 0.347 54 33 18
-1839.5383 3956.0254 -764.6163 0.424 -0.424 0.800 33 18 6
-1781.8204 3917.5623 -769.5807 -0.156 -0.980 0.124 102 80 69
-1756.5554 3890.7681 -768.2524 -0.095 -0.995 0.010 127 88 80
-1761.8341 3916.6755 -775.6713 0.259 -0.956 0.138 131 87 80
-1757.0029 4022.8218 -814.5427 0.434 0.027 0.900 144 85 85
-1716.7874 4019.8738 -826.3886 -0.007 -0.776 0.631 222 195 191
-1699.1191 3993.5374 -822.7878 -0.087 -0.772 0.629 222 198 194
-1680.6034 3964.9543 -818.6685 -0.058 -0.800 0.597 213 188 184
-1645.6067 3897.1794 -806.0477 -0.212 -0.946 -0.244 216 192 188
-1633.5676 3883.2510 -805.0065 0.096 -0.979 -0.178 222 198 194
-1615.6488 3884.2241 -811.0888 0.486 -0.522 -0.701 217 187 187
-1612.7104 3891.7881 -814.6898 0.486 -0.522 -0.701 223 191 192
-1610.3794 3930.4336 -829.0253 0.099 -0.953 0.285 228 195 196
-1604.9486 3932.0481 -831.3326 -0.232 -0.948 -0.217 228 195 196
-1596.7598 3926.8533 -832.1292 -0.229 -0.949 -0.218 225 192 193
-1594.1503 3935.3542 -835.9542 -0.024 -0.978 -0.209 224 189 191
-1588.4148 3936.1340 -838.0657 -0.023 -0.980 -0.196 227 191 195
-1583.1178 3937.9722 -840.4089 -0.018 -0.980 -0.197 228 191 196
-1574.4822 3931.4385 -840.8777 0.005 -0.992 0.123 229 190 198
-1557.9235 3919.8855 -842.1198 0.077 -0.953 0.292 226 191 195
-1546.4932 3906.0012 -840.8992 0.051 -0.949 0.312 227 191 195
-1535.7506 3893.7102 -840.0186 0.686 -0.695 0.216 226 191 195
-1505.8500 3832.3787 -828.0310 0.869 -0.436 0.234 227 191 193
-1559.7767 3985.3489 -864.5448 0.163 -0.871 0.463 228 192 194
-2352.8530 1619.3999 215.7238 0.773 -0.288 -0.564 52 36 21
-2353.8054 1625.3329 213.9325 0.672 -0.442 -0.593 52 36 20
-2368.4099 1639.4928 213.5867 0.677 -0.248 -0.693 52 36 20
-2364.2061 1642.3844 211.2262 0.695 -0.208 -0.688 53 36 20
-2379.9841 1657.3805 210.9592 0.887 0.191 -0.419 56 39 23
-2370.8628 1657.3171 208.0751 0.730 -0.148 -0.668 66 49 33
-2383.9900 1670.8162 207.4919 0.679 -0.049 -0.732 78 61 45
-2382.9968 1675.7335 205.4393 0.714 -0.080 -0.695 88 70 53
-2391.3220 1686.3992 204.3263 0.662 -0.194 -0.724 150 127 104
-2391.7251 1692.2229 202.3986 0.662 -0.194 -0.724 173 149 125
-2390.4617 1697.0297 200.2989 0.625 -0.255 -0.738 192 166 141
-2369.0264 1711.6294 188.3141 0.263 -0.224 0.938 204 178 152
-2359.1777 1710.9969 185.3992 0.263 -0.224 0.938 210 183 152
-2341.1411 1825.7979 139.1196 0.343 -0.618 0.708 196 172 144
-2362.1377 1852.3180 136.4466 0.791 -0.129 0.598 167 150 133
-2358.8704 1856.0472 134.0888 0.782 -0.074 0.619 127 111 96
-2282.3105 1837.6027 116.2060 0.527 -0.247 0.813 50 38 22
-2284.6272 1845.1906 114.2651 0.878 0.277 0.390 39 34 20
-2311.1729 1876.3379 111.7265 0.766 -0.635 -0.098 38 34 22
-2722.6267 2561.3977 0.9604 0.952 -0.148 0.267 158 104 92
-2847.3706 2777.2021 -35.4847 0.807 -0.548 0.219 105 45 34
-2843.5696 2819.4155 -51.6001 0.548 -0.310 -0.777 102 40 29
-2771.9521 2816.3621 -73.3421 -0.303 -0.953 0.018 178 113 107
-1847.9257 2021.4385 -87.1127 0.832 -0.552 -0.060 154 104 101
-1907.2825 2100.4697 -96.1026 0.994 -0.072 0.084 130 81 77
-2424.5454 2890.8955 -210.3550 0.335 -0.770 -0.543 196 142 132
-2535.7134 3146.6382 -265.2267 0.756 -0.297 0.584 33 10 1
-2531.2947 3151.6667 -268.4101 0.655 -0.388 0.649 26 14 2
-1938.3175 3427.7686 -554.8387 0.566 -0.824 0.000 203 172 170
-1932.1215 3428.7458 -557.1581 0.584 -0.811 0.041 209 178 176
-1924.7028 3427.5713 -559.1072 0.630 -0.761 0.153 214 182 181
-1910.7480 3426.6343 -563.2230 0.171 -0.838 0.518 220 188 186
-1847.9373 3397.0166 -572.7800 0.197 -0.975 0.101 224 188 186
-1857.6891 3426.2881 -580.0075 0.519 -0.819 0.246 224 188 186
-1880.1575 3478.7661 -591.3764 0.357 -0.786 0.505 224 187 186
-1858.8308 3918.3711 -753.3818 0.905 0.123 0.407 184 141 120
-1777.7745 3915.8118 -778.3060 -0.156 -0.980 0.124 123 91 82
-1764.2500 3900.4761 -777.2010 -0.151 -0.980 0.133 128 89 81
-1762.8887 3911.7656 -781.6207 -0.145 -0.983 0.115 131 87 81
-1749.7373 3897.0383 -780.6116 0.461 -0.779 -0.426 132 82 78
-1777.6844 3988.0088 -803.8251 0.978 0.183 0.101 136 71 72
-1713.8969 4005.5491 -830.3433 0.021 -0.732 0.681 216 190 185
-1700.3276 3988.8101 -828.7570 -0.087 -0.772 0.629 220 197 193
-1683.6882 3964.6892 -825.5427 -0.057 -0.815 0.577 192 168 164
-1660.4551 3924.7935 -818.8599 -0.278 -0.953 -0.120 180 156 152
-1616.2876 3937.2725 -837.3393 0.486 -0.666 -0.566 223 195 195
-1607.6931 3931.1968 -837.9327 -0.224 -0.951 -0.211 218 190 190
-1600.9424 3929.5571 -839.5049 -0.229 -0.949 -0.218 202 174 173
-1598.6741 3938.9109 -843.5301 -0.044 -0.986 -0.158 190 161 160
-1592.6265 3938.9495 -845.4708 -0.044 -0.986 -0.158 191 161 163
-1588.2117 3943.0059 -848.3097 -0.025 -0.985 -0.169 203 172 175
-1577.2056 3930.6108 -847.4404 0.005 -0.992 0.123 221 189 194
-1524.7611 3814.2590 -823.0714 0.593 -0.233 -0.771 236 205 208
-1561.4153 3921.0449 -849.0944 0.039 -0.955 0.295 227 197 199
-1556.5103 3923.6960 -851.5933 0.044 -0.955 0.292 224 193 196
-1549.2468 3920.3474 -852.7255 0.026 -0.963 0.267 223 192 195
-1536.3368 3902.5496 -850.5553 0.102 -0.942 0.319 225 193 194
-1532.1819 3922.0305 -858.7573 0.082 -0.961 0.265 229 193 193
-2385.4211 1647.1875 210.4835 0.937 0.047 -0.345 52 36 21
-2383.8101 1657.1531 206.4400 0.915 0.099 -0.392 54 36 22
-2383.6582 1662.5494 204.4789 0.911 0.096 -0.402 77 59 45
-2386.8269 1669.9846 202.8474 0.775 -0.086 -0.627 115 97 83
-2395.0374 1680.5370 201.7088 0.661 -0.196 -0.724 146 127 112
-2396.1128 1686.7588 199.8439 0.662 -0.194 -0.724 177 154 131
-2396.9846 1692.8754 197.9519 0.561 -0.273 -0.782 190 164 141
-2394.6328 1697.0143 195.7392 0.623 -0.252 -0.741 198 172 147
-2361.2439 1842.8937 133.4416 0.798 -0.127 0.590 194 171 147
-2358.9663 1847.2969 131.1588 0.791 -0.129 0.598 128 111 95
-2357.2109 1852.0699 128.9103 0.595 -0.391 0.702 80 67 51
-2287.5659 1826.7861 115.7999 0.560 -0.244 0.792 123 110 94
-2283.0525 1829.4631 113.4204 0.528 -0.253 0.811 133 120 104
-2277.2273 1831.1941 110.9605 0.527 -0.247 0.813 86 74 58
-2273.5527 1968.4473 61.1388 -0.341 -0.737 -0.584 68 48 37
-2306.3423 2085.3320 30.0948 0.986 -0.170 -0.001 172 119 111
-2848.1335 2773.5728 -42.1729 0.814 -0.529 0.240 131 69 58
-2840.9976 2776.1282 -45.3406 0.833 -0.533 -0.151 125 63 52
-2838.8716 2783.2615 -48.5431 0.697 -0.489 -0.524 117 55 44
-2842.9709 2814.4673 -58.3066 0.551 -0.311 -0.774 102 40 29
-1835.0999 2005.6007 -90.9978 0.882 -0.463 -0.090 126 83 77
-2671.2363 3103.0588 -215.0446 0.104 -0.550 -0.829 187 133 123
-2664.0352 3125.5137 -225.2873 -0.190 -0.873 -0.449 196 142 132
-2530.6272 3135.6626 -271.1682 0.270 -0.540 0.797 35 11 2
-2531.1897 3146.5610 -274.8535 0.651 -0.395 0.649 26 14 2
-2312.8081 3344.4221 -414.2115 0.950 0.065 0.304 218 173 167
-1935.4896 3428.7566 -563.6978 0.557 -0.830 0.010 141 115 112
-1928.7153 3428.7178 -565.8310 0.547 -0.837 -0.009 165 139 136
-1924.1365 3432.4648 -568.6107 0.139 -0.950 0.281 203 177 174
-1857.4326 3408.2397 -581.1641 0.563 -0.796 0.223 219 190 186
-1851.7742 3409.7732 -583.5012 0.552 -0.794 0.252 219 189 186
-1846.6084 3412.1736 -585.9894 0.185 -0.972 0.146 219 189 185
-1841.7191 3415.0591 -588.5619 0.179 -0.967 0.179 221 188 186
-1829.0878 3487.1638 -618.1270 0.199 -0.893 0.403 220 182 179
-1837.3333 3514.7595 -625.2965 0.152 -0.855 0.497 222 182 180
-1750.7299 3363.8914 -599.2613 -0.110 -0.993 0.031 222 182 180
-1799.2214 3479.3269 -624.8148 0.335 -0.896 0.292 220 180 178
-1699.9818 3302.4204 -593.5537 0.691 -0.637 -0.341 219 179 177
-1696.6654 3307.5547 -596.4250 0.691 -0.637 -0.341 217 179 176
-1744.0538 3457.9885 -634.7353 0.363 -0.885 0.291 224 175 166
-1808.6564 3793.2458 -733.1107 0.878 0.328 0.348 190 137 117
-1835.4376 3947.1792 -779.1928 0.978 0.026 -0.206 26 9 0
-1837.4492 3965.8247 -785.1653 0.978 -0.017 -0.208 33 16 6
-1787.1254 3914.6982 -782.9905 -0.161 -0.980 0.119 76 51 41
-1779.9244 3913.2957 -784.7756 -0.161 -0.980 0.119 114 82 73
-1770.8121 3907.6580 -785.6651 -0.160 -0.981 0.112 121 83 74
-1753.9862 3899.2163 -788.0053 0.352 -0.865 -0.357 123 75 69
-1721.1224 3999.8518 -834.0972 0.581 0.107 0.807 124 93 88
-1713.4940 3997.0547 -835.5234 0.015 -0.737 0.676 141 116 111
-1701.5341 3984.0889 -834.7176 -0.087 -0.772 0.629 146 124 119
-1687.6851 3966.5530 -832.8904 -0.063 -0.817 0.573 117 93 89
-1664.5085 3926.8979 -826.1782 -0.278 -0.953 -0.120 92 68 64
-1649.2241 3905.5190 -823.4435 -0.028 -1.000 -0.003 101 77 73
-1637.8463 3907.8066 -827.8607 0.324 -0.511 -0.796 152 128 124
-1621.9990 3913.9497 -835.0611 0.326 -0.511 -0.795 163 141 138
-1619.0106 3921.5022 -838.6856 0.326 -0.511 -0.795 163 142 139
-1618.8693 3935.9932 -843.8676 0.461 -0.673 -0.579 147 125 122
-1609.7931 3928.7686 -844.1830 -0.230 -0.949 -0.215 128 106 103
-1603.2102 3927.5515 -845.8380 -0.230 -0.949 -0.215 109 88 85
-1596.9033 3926.9639 -847.6287 -0.054 -0.989 -0.141 92 71 68
-1592.7269 3931.5928 -850.5933 0.007 -0.998 -0.056 91 68 68
-1590.2574 3940.4524 -854.5167 -0.020 -0.986 -0.164 112 88 88
-1536.4100 3821.4260 -829.3878 0.565 -0.261 -0.782 145 121 124
-1536.7118 3836.7532 -834.7258 0.565 -0.261 -0.782 174 151 151
-1537.0154 3852.1733 -840.0961 0.565 -0.261 -0.782 203 181 181
-1562.6293 3931.4824 -860.0935 -0.204 -0.979 -0.015 220 198 197
-1556.1428 3930.1582 -861.6798 -0.204 -0.979 -0.015 219 195 195
-1547.7977 3924.0591 -862.1627 -0.191 -0.981 -0.005 218 192 190
-1538.0151 3914.2009 -861.7684 0.053 -0.981 0.186 223 193 193
-2387.3301 1640.3568 207.7111 0.920 -0.004 -0.391 55 39 24
-2388.0972 1646.2614 205.8513 0.920 -0.004 -0.391 63 45 31
-2388.8669 1652.1859 203.9851 0.920 -0.004 -0.391 50 32 18
-2392.6377 1659.9409 202.4135 0.938 0.053 -0.342 95 77 63
-2387.1809 1662.1353 199.9122 0.913 0.078 -0.399 123 105 91
-2393.4197 1671.4365 198.5682 0.912 0.058 -0.407 152 134 120
-2400.4993 1681.2968 197.2903 0.662 -0.194 -0.724 177 158 143
-2400.9167 1687.1194 195.3494 0.662 -0.194 -0.724 193 170 147
-2402.4009 1693.6162 193.5048 0.561 -0.287 -0.777 196 170 147
-2361.3845 1834.2285 130.5240 0.795 -0.126 0.593 170 146 120
-2358.1370 1837.9437 128.1778 0.798 -0.127 0.590 131 109 85
-2356.5129 1842.7871 125.9418 0.792 -0.128 0.597 50 34 18
-2283.2310 1820.9570 110.6100 0.556 -0.251 0.792 97 84 68
-2278.0596 1823.1512 108.1987 0.528 -0.253 0.811 107 94 78
-2246.1475 1975.3755 43.9548 1.000 -0.000 -0.026 148 118 105
-2248.0146 1983.1660 41.7704 0.964 -0.181 0.193 169 132 121
-2246.6309 1988.3882 39.4754 0.964 -0.170 0.206 171 127 118
-2248.3770 1996.1320 37.2695 0.943 -0.188 0.274 170 122 115
-2855.2791 2757.6628 -42.4682 0.336 -0.729 0.596 172 116 103
-2859.4185 2770.4426 -45.7121 0.371 -0.737 0.565 173 115 103
-2857.0964 2777.4038 -48.9219 0.861 -0.460 0.216 178 116 105
-2845.5398 2775.9514 -52.0482 0.862 -0.491 -0.124 178 116 105
-2848.1223 2787.4006 -55.3093 0.696 -0.494 -0.521 178 116 105
-2855.5806 2821.7578 -65.1874 0.546 -0.316 -0.776 150 88 77
-2839.7810 2816.3105 -68.2293 0.577 -0.656 -0.487 150 88 77
-2824.2285 2811.0166 -71.2478 0.539 -0.626 -0.564 150 88 77
-1834.3009 2001.8278 -95.2955 0.737 -0.073 0.672 105 70 62
-1782.6987 1986.6716 -106.1684 0.958 -0.199 -0.208 99 51 42
-2685.0188 3113.3545 -222.7496 0.102 -0.548 -0.830 198 144 134
-2674.8396 3112.2698 -225.5725 0.100 -0.591 -0.801 198 144 134
-2556.2288 3130.1384 -269.3249 0.210 -0.500 0.840 199 143 136
-2525.9031 3125.1443 -277.1075 0.341 -0.322 0.883 52 28 19
-2528.7756 3138.7349 -281.0394 0.272 -0.571 0.775 20 8 0
-1976.2504 3342.6423 -527.8031 0.735 -0.672 0.087 30 10 3
-1979.4236 3359.1631 -532.6832 0.586 -0.798 -0.142 30 10 3
-1939.8047 3430.3931 -570.5272 0.505 -0.860 0.080 30 12 6
-1932.6030 3429.6370 -572.5283 0.574 -0.819 -0.005 40 23 16
-1926.2594 3430.3303 -574.7750 0.139 -0.950 0.281 81 64 57
-1855.8003 3411.1748 -590.1689 0.199 -0.971 0.132 211 190 184
-1849.8062 3412.0981 -592.3872 0.199 -0.971 0.132 205 182 176
-1844.9052 3414.9724 -594.9554 0.198 -0.970 0.141 214 185 181
-1707.3037 3404.1614 -634.4861 0.462 -0.883 0.082 202 159 148
-1712.1761 3425.6931 -640.6142 0.961 0.018 0.277 196 153 141
-1705.1548 3423.8635 -642.1765 0.651 -0.659 0.375 193 147 132
-1664.8610 3427.6455 -656.2253 0.614 -0.611 0.499 196 139 119
-1739.2311 3616.9072 -700.1470 0.817 0.364 0.447 192 130 112
-1759.0400 3696.9783 -722.4031 0.834 0.357 0.421 172 126 103
-1764.1221 3720.8398 -729.2944 0.828 0.336 0.449 165 126 101
-1775.9242 3758.9141 -739.1262 0.863 0.349 0.366 139 105 82
-1838.5956 3975.4297 -796.4368 0.977 -0.003 -0.212 34 17 7
-1823.5803 3957.6133 -794.8287 -0.091 -0.972 0.216 33 16 6
-1802.0183 3925.4810 -790.1888 -0.097 -0.966 0.238 35 16 6
-1787.7560 3923.1460 -793.8539 -0.097 -0.966 0.238 76 44 35
-1779.1182 3918.6135 -794.9636 0.256 -0.792 0.555 98 60 51
-1769.2510 3911.3088 -795.4742 -0.024 -0.952 0.306 102 59 52
-1754.0231 3892.1021 -793.4382 0.389 -0.875 -0.289 97 49 44
-1753.2949 3933.5051 -808.4050 0.990 -0.100 -0.095 107 40 41
-1685.5953 3954.1724 -837.1037 -0.057 -0.814 0.578 63 39 35
-1670.3223 3933.1167 -834.4240 -0.275 -0.954 -0.119 54 30 26
-1651.7684 3904.1204 -829.9518 0.297 -0.524 -0.798 48 24 20
-1629.0883 3923.5261 -844.0093 0.334 -0.506 -0.795 61 47 42
-1627.3223 3934.0720 -848.3197 0.341 -0.502 -0.795 62 47 42
-1624.0579 3941.0312 -851.8259 0.457 -0.694 -0.556 53 38 33
-1615.5544 3935.2544 -852.4504 0.023 -0.963 0.269 46 30 25
-1607.0508 3929.3904 -853.0439 0.013 -0.968 0.252 39 24 19
-1601.2413 3930.0503 -855.1102 -0.051 -0.989 -0.139 33 18 13
-1545.6454 3851.6184 -844.7194 0.576 -0.256 -0.777 66 50 48
-1546.0331 3867.2959 -850.1775 0.576 -0.256 -0.777 104 88 86
-1560.2262 3932.8147 -869.0243 -0.167 -0.986 -0.007 211 194 192
-1551.0844 3924.7373 -869.0311 -0.191 -0.981 -0.005 209 188 185
-1540.3789 3912.5706 -868.0753 0.003 -0.981 0.195 220 192 191
-2397.8652 1660.5432 198.0026 0.920 0.109 -0.376 137 119 105
-2399.3665 1666.9590 196.1805 0.920 0.109 -0.376 158 140 126
-2398.8438 1672.1672 194.1552 0.930 0.097 -0.355 177 159 145
-2402.2427 1679.7800 192.5002 0.939 0.055 -0.340 192 174 158
-2343.4502 1795.6290 132.6629 0.710 -0.391 0.586 195 171 145
-2360.1150 1824.6337 127.5224 0.638 -0.365 0.678 170 149 120
-2358.2505 1829.2849 125.2755 0.795 -0.126 0.593 117 96 69
-2355.0437 1833.0154 122.9368 0.798 -0.127 0.590 69 48 25
-2294.9619 1814.7657 110.6199 0.395 -0.555 0.732 44 31 15
-2259.8787 1976.9646 41.6520 -0.263 -0.732 -0.628 84 69 50
-2246.2751 1972.5056 38.9800 1.000 -0.000 -0.026 104 81 65
-2244.8975 1977.7047 36.6900 0.971 -0.105 0.215 147 117 104
-2244.1370 1983.4070 34.4136 0.948 -0.026 0.316 156 120 108
-2243.2188 1988.9974 32.1278 0.948 -0.026 0.316 165 124 114
-2244.7466 1996.5677 29.9013 0.946 -0.006 0.325 173 127 119
-2256.1860 2012.1643 27.9143 0.716 0.144 0.683 173 122 113
-2249.6223 2013.2676 25.4618 0.935 -0.053 0.351 174 121 113
-2255.4343 2024.4115 23.3016 0.883 -0.065 0.465 174 121 113
-2260.1621 2034.7252 21.0981 0.925 -0.013 0.379 174 121 113
-2838.6711 2738.4067 -48.9919 0.349 -0.723 0.596 173 115 103
-2847.3530 2755.2183 -52.2779 0.350 -0.747 0.565 173 115 103
-2849.7808 2766.4392 -55.5269 0.927 -0.351 -0.130 178 116 105
-2851.2461 2776.8284 -58.7803 0.699 -0.546 -0.461 178 116 105
-2853.0496 2787.5652 -62.0520 0.696 -0.494 -0.521 178 116 105
-2853.7053 2815.6277 -71.8755 0.696 -0.535 -0.479 173 111 100
-2815.3237 2798.3494 -77.7352 0.593 -0.482 0.646 172 111 100
-2818.1768 2810.1572 -81.0606 0.361 -0.470 0.805 173 109 103
-2785.0247 2815.6304 -93.4117 0.418 -0.399 0.816 174 109 103
-1790.3447 1931.0896 -89.1783 0.889 0.449 -0.087 96 56 48
-1815.9974 1968.4160 -94.4746 0.899 0.438 -0.016 93 63 53
-1811.1871 1969.7209 -96.4492 0.675 -0.239 0.698 95 66 56
-1809.2743 1973.9011 -98.5429 0.691 -0.275 0.669 98 69 59
-2676.2241 3088.7209 -225.1252 0.148 -0.520 -0.841 198 144 134
-2542.1279 3118.9241 -277.9659 0.211 -0.514 0.831 175 122 114
-2522.9897 3116.7856 -283.2025 0.213 -0.515 0.830 53 28 22
-2527.4563 3132.2209 -287.3184 0.483 -0.203 0.852 20 8 0
-2509.1633 3120.7634 -288.9595 0.487 -0.193 0.852 26 23 10
-2481.2212 3128.1042 -300.3445 0.086 -0.538 0.839 195 152 151
-1978.8562 3386.7373 -550.2956 0.558 -0.511 -0.654 35 14 9
-1942.0671 3428.4827 -576.7502 0.505 -0.860 0.080 25 12 4
-1935.7144 3429.2036 -578.9998 0.517 -0.851 0.090 23 11 3
-1931.1787 3433.0457 -581.7951 0.143 -0.950 0.278 17 5 0
-1923.2241 3430.9302 -583.5331 0.142 -0.947 0.288 23 10 3
-1915.8771 3429.8247 -585.4418 0.146 -0.947 0.286 31 18 10
-1874.8190 3415.9441 -593.3552 0.195 -0.929 0.314 171 153 146
-1865.9548 3411.8337 -594.6656 0.310 -0.950 0.048 192 176 168
-1860.3690 3413.5374 -597.0259 0.310 -0.950 0.048 198 183 174
-1854.7937 3415.2375 -599.3817 0.310 -0.950 0.048 206 188 181
-1849.5736 3417.5576 -601.8477 0.171 -0.954 0.245 211 185 180
-1784.8580 3392.7358 -613.2686 -0.148 -0.989 0.028 223 184 182
-1752.1368 3389.9639 -622.5379 -0.174 -0.984 0.024 223 183 181
-1747.9091 3393.7058 -625.2009 -0.147 -0.968 0.201 224 184 182
-1740.2284 3390.8398 -626.5849 -0.149 -0.967 0.207 223 184 178
-1734.0753 3390.8496 -628.5178 -0.228 -0.965 0.133 219 181 172
-1709.2825 3366.6157 -627.6309 -0.172 -0.949 0.265 218 180 167
-1696.6176 3389.1230 -639.6459 0.918 -0.297 0.263 191 152 139
-1688.5990 3385.2068 -640.7605 0.843 -0.495 0.210 189 146 131
-1747.1907 3692.1091 -732.0709 0.859 0.360 0.365 143 109 87
-1738.0123 3686.1318 -732.8126 0.929 0.369 0.038 113 84 64
-1810.3373 3936.2168 -799.5113 0.297 -0.742 0.601 34 16 6
-1802.2780 3933.1284 -800.9346 0.298 -0.746 0.595 42 19 9
-1791.2023 3923.4246 -800.9395 0.235 -0.800 0.553 70 39 29
-1780.3102 3914.0049 -800.9883 0.256 -0.792 0.555 92 55 46
-1771.6118 3909.2734 -802.0248 -0.017 -0.950 0.311 98 53 47
-1752.0468 3880.5830 -797.9060 0.377 -0.894 -0.243 93 43 38
-1764.8195 3937.3743 -814.1973 0.988 -0.019 -0.150 100 36 36
-1695.1906 3969.0935 -847.3658 -0.096 -0.784 0.613 47 23 19
-1678.9503 3945.8940 -844.1669 -0.114 -0.970 0.216 49 25 21
-1661.9768 3920.7432 -840.5005 0.057 -0.998 -0.023 54 29 25
-1654.9462 3918.8269 -842.0202 0.342 -0.503 -0.793 55 31 27
-1652.0422 3926.6396 -845.7229 0.342 -0.503 -0.793 54 34 29
-1649.1337 3934.4646 -849.4315 0.342 -0.503 -0.793 43 27 22
-1639.2650 3925.6787 -849.3859 0.641 -0.576 -0.507 36 25 18
-1635.9230 3932.4443 -852.8517 0.641 -0.576 -0.507 39 31 24
-1629.5808 3931.9961 -854.6802 0.628 -0.681 -0.377 43 34 27
-1618.5236 3934.9221 -859.1930 0.025 -0.965 0.262 47 37 30
-1554.0455 3850.4177 -849.2099 0.622 -0.199 -0.757 32 21 19
-1552.8096 3862.0078 -853.7395 0.595 -0.254 -0.763 38 28 24
-1555.0024 3882.2261 -860.2776 0.578 -0.270 -0.770 37 28 23
-1553.9987 3924.4617 -875.6867 -0.177 -0.984 0.016 211 195 193
-1542.8826 3911.2944 -874.4664 0.003 -0.981 0.195 223 199 197
-1536.8549 3910.9636 -876.2383 0.003 -0.981 0.195 223 192 190
-932.4056 2561.2393 -583.3961 0.244 -0.925 0.292 229 191 190
-2419.5208 1665.4832 197.1405 0.842 -0.230 0.487 145 128 112
-2401.3228 1660.0728 193.4066 0.939 0.108 -0.327 179 160 145
-2419.7505 1676.7108 193.1834 0.922 -0.067 0.382 187 168 153
-2431.3347 1706.1812 186.2214 0.501 -0.363 0.786 207 183 157
-2410.2908 1704.4928 180.2644 0.498 -0.350 0.793 208 182 157
-2328.7073 1659.4625 170.9795 0.936 -0.314 -0.160 206 180 155
-2329.9829 1665.7084 169.1362 0.922 -0.350 -0.166 206 180 155
-2344.9011 1788.0657 129.8840 0.855 -0.367 0.366 195 171 143
-2338.5483 1789.5861 127.3573 0.694 -0.378 0.613 192 168 142
-2356.5300 1819.4078 122.2643 0.781 -0.097 0.617 111 90 63
-2355.8591 1824.8639 120.0973 0.772 -0.112 0.626 65 43 19
-2294.3223 1811.5764 105.6741 0.429 -0.675 0.600 43 31 15
-2242.6294 1966.6569 33.9066 0.981 -0.178 0.077 63 46 28
-2241.7373 1972.2227 31.6312 0.979 -0.184 0.085 99 76 60
-2239.0288 1976.3553 29.3037 0.943 -0.237 0.233 118 88 74
-2238.3706 1982.1300 27.0263 0.940 -0.241 0.242 141 107 95
-2237.3706 1987.6456 24.7353 0.942 -0.243 0.233 159 120 109
-2243.0005 1998.5144 22.5911 0.710 0.086 0.699 171 123 113
-2240.6099 2002.9517 20.2533 0.705 0.087 0.703 172 122 113
-2242.6785 2011.0126 18.0061 0.690 0.041 0.722 172 122 113
-2242.8967 2017.5980 15.7111 0.688 0.037 0.725 172 122 113
-2249.2100 2029.1869 13.5216 0.763 -0.248 0.597 174 121 113
-2843.5845 2747.5293 -58.8734 0.939 -0.275 -0.204 173 115 103
-2846.7886 2759.4229 -62.1419 0.925 -0.295 -0.239 178 116 105
-2821.2166 2808.6184 -87.7694 0.595 -0.472 0.651 187 124 117
-2813.4717 2810.5442 -90.8758 0.584 -0.479 0.655 190 127 120
-2783.8757 2791.9163 -93.4214 0.399 -0.421 0.814 193 130 123
-2746.6838 2765.9526 -95.7038 0.370 -0.478 0.797 196 132 125
-1767.8721 1894.5209 -88.2682 0.783 0.622 0.009 76 39 31
-1785.6685 1917.7471 -91.0523 0.783 0.623 0.007 82 45 37
-2529.3110 3078.9753 -275.8141 -0.223 -0.772 0.595 203 146 139
-2523.7231 3122.8772 -293.3097 0.478 -0.203 0.855 22 7 0
-2511.9165 3119.0947 -295.6345 0.480 -0.195 0.855 27 22 10
-2464.0469 3132.9966 -315.5515 0.182 -0.558 0.810 203 150 144
-2005.0913 3436.2717 -567.5046 0.266 -0.926 -0.270 41 22 16
-1997.0370 3434.4448 -569.3609 0.281 -0.920 -0.272 39 20 14
-1934.4922 3352.3196 -559.3978 0.444 -0.873 -0.203 33 12 7
-1929.1444 3354.6357 -561.8967 0.454 -0.869 -0.198 33 13 7
-1927.7588 3363.6672 -565.5696 0.652 -0.749 -0.119 29 14 7
-1923.9019 3391.4727 -576.7496 0.472 -0.882 0.015 24 15 6
-1915.3695 3388.3115 -578.2762 0.450 -0.891 0.060 22 14 4
-1910.1287 3390.7900 -580.8000 0.450 -0.891 0.060 19 11 2
-1925.3146 3428.7432 -589.6826 0.142 -0.947 0.288 19 11 2
-1917.9661 3427.6455 -591.5804 0.146 -0.947 0.286 19 10 1
-1877.5210 3414.9202 -599.6275 0.209 -0.921 0.328 49 36 28
-1869.6085 3412.5266 -601.2363 0.261 -0.950 0.169 67 56 47
-1862.9746 3412.3694 -603.2487 0.310 -0.950 0.048 88 79 70
-1857.3956 3414.0715 -605.5994 0.310 -0.950 0.048 116 103 95
-1837.7793 3413.8125 -611.6241 -0.014 -0.866 0.499 179 145 143
-1830.6949 3412.6599 -613.4199 -0.014 -0.866 0.499 191 157 155
-1822.4021 3409.2515 -614.7830 -0.016 -0.859 0.511 192 159 157
-1789.2743 3395.0896 -620.0327 -0.159 -0.987 0.023 206 170 166
-1762.3575 3391.6567 -627.1952 -0.174 -0.984 0.024 204 169 165
-1755.4701 3390.3960 -628.8908 -0.174 -0.984 0.024 204 167 164
-1750.5542 3392.8401 -631.3008 -0.147 -0.968 0.201 204 168 164
-1743.4368 3391.0669 -632.8842 -0.141 -0.971 0.193 203 168 161
-1737.0782 3390.6995 -634.7354 -0.228 -0.965 0.133 189 157 146
-1717.8234 3377.2329 -635.9081 -0.178 -0.973 0.146 183 153 140
-1700.4734 3390.7400 -646.1656 0.945 -0.234 0.230 164 134 120
-1692.0000 3385.9580 -647.0923 0.652 -0.701 0.288 164 129 114
-1634.1410 3329.9058 -645.0234 -0.064 -0.997 -0.032 185 127 111
-1623.7512 3332.4165 -649.1645 -0.074 -0.997 -0.004 184 126 111
-1729.9569 3636.5015 -725.1558 0.861 0.366 0.353 157 122 100
-1725.0748 3639.3530 -727.7015 0.918 0.359 0.171 144 114 92
-1729.0067 3660.6355 -734.1119 0.928 0.364 0.080 118 91 72
-1821.4791 3952.9731 -810.1709 0.523 -0.835 0.172 34 16 6
-1803.2384 3927.9919 -806.8956 0.298 -0.746 0.595 40 18 7
-1792.4261 3918.8765 -806.9967 0.235 -0.800 0.553 64 33 23
-1781.5004 3909.4023 -807.0045 0.256 -0.792 0.555 85 49 40
-1779.6714 3919.6882 -811.2657 0.410 -0.907 0.091 90 48 41
-1686.6576 3941.7400 -848.1859 -0.032 -0.725 0.688 45 21 17
-1671.3673 3920.7168 -845.4107 -0.053 -0.910 0.410 54 29 25
-1560.0597 3701.5637 -801.4861 0.747 -0.523 0.411 47 26 21
-1640.7383 3921.7234 -855.3240 0.656 -0.664 -0.359 43 36 28
-1629.3210 3909.1382 -854.3688 0.718 -0.611 -0.335 52 48 39
-1628.5719 3922.0637 -859.2404 0.674 -0.682 -0.284 62 58 49
-1624.6036 3927.2827 -862.3506 0.674 -0.682 -0.284 59 54 45
-1569.6793 3866.9746 -857.8395 0.572 -0.247 -0.782 25 19 13
-1567.1750 3875.4795 -861.6722 0.584 -0.242 -0.775 26 20 16
-1562.2380 3892.7607 -869.4127 0.578 -0.270 -0.770 48 43 37
-1548.1570 3917.0420 -882.5168 -0.098 -0.972 0.214 217 196 193
-1542.4471 3917.5637 -884.4847 -0.042 -0.858 0.512 223 193 193
-1530.7900 3902.8418 -882.8375 -0.025 -0.847 0.532 227 192 191
-2416.3743 1655.5312 193.8643 0.620 -0.253 0.743 161 142 122
-2417.6865 1661.8230 192.0047 0.835 -0.215 0.507 187 167 148
-2405.7310 1660.1692 188.8922 0.936 0.024 -0.350 195 175 156
-2415.8245 1710.9370 173.7332 0.984 -0.110 0.138 206 180 154
-2415.8606 1716.6168 171.6982 0.983 -0.116 0.146 205 179 153
-2340.7285 1770.9899 128.8061 0.913 0.130 0.387 199 174 144
-2340.6633 1776.7146 126.7235 0.913 0.130 0.387 201 180 151
-2335.4883 1779.0161 124.2891 0.947 0.116 0.298 195 176 148
-2335.4785 1784.7970 122.2035 0.700 -0.394 0.596 185 166 140
-2365.4551 1810.9316 122.0860 0.815 0.218 0.537 176 156 133
-2363.7358 1815.6597 119.8494 0.816 0.221 0.534 80 61 35
-2320.8206 1798.0530 112.8814 0.686 -0.420 0.595 43 23 1
-2315.9521 1812.2164 106.2688 0.461 -0.826 0.326 44 31 16
-2240.5356 1968.3060 26.6439 0.975 -0.191 0.110 52 33 17
-2238.3518 1972.8466 24.3308 0.862 -0.458 0.214 76 52 38
-2237.1741 1978.1959 22.0384 0.933 -0.290 0.215 109 82 68
-2234.5051 1982.3625 19.7094 0.933 -0.252 0.258 134 101 90
-2235.0913 1989.1497 17.4461 0.820 0.124 0.559 170 123 115
-2234.5540 1995.0524 15.1529 0.705 0.087 0.703 171 123 114
-2234.1379 2001.0696 12.8561 0.704 0.088 0.705 171 123 114
-2234.7100 2007.9069 10.5703 0.690 0.041 0.722 171 123 114
-2235.4729 2014.9226 8.2795 0.688 0.036 0.725 171 123 114
-2233.9651 2020.1024 5.9457 0.685 0.036 0.727 173 122 114
-2237.4089 2029.3636 3.6774 0.845 0.095 0.526 173 122 114
-2082.0913 2096.1487 -68.5574 0.602 -0.774 0.197 182 121 110
-2080.5168 2101.2876 -70.8971 0.573 -0.803 0.162 180 121 110
-2094.1836 2127.2554 -76.0133 0.418 -0.907 -0.044 180 124 115
-1843.9540 1971.8143 -97.6272 0.784 0.620 0.039 90 60 52
-2507.9121 3049.4009 -279.9012 -0.204 -0.756 0.621 203 146 138
-2524.1216 3108.2903 -296.0891 0.501 -0.169 0.849 55 28 19
-2519.6013 3113.1008 -299.2243 0.432 -0.196 0.880 24 7 0
-2509.3706 3111.1675 -301.7010 0.481 -0.192 0.856 29 21 9
-2019.1879 3134.8760 -462.2816 0.337 -0.934 0.123 220 177 170
-1985.3077 3432.2437 -579.9203 0.900 -0.028 0.435 39 15 10
-1928.9432 3382.8835 -579.6202 0.538 -0.843 -0.014 24 18 5
-1914.1450 3369.0125 -579.2130 0.294 -0.941 0.167 23 17 6
-1904.2271 3363.4045 -580.2690 0.296 -0.939 0.178 21 16 4
-1925.3065 3411.2791 -590.9781 0.324 -0.724 0.609 15 11 0
-1914.0255 3403.3535 -591.6218 0.377 -0.646 0.664 19 13 2
-1907.8572 3404.2334 -593.8521 0.384 -0.650 0.656 24 18 5
-1901.8949 3405.4451 -596.1379 0.384 -0.650 0.656 23 17 5
-1893.1934 3401.8269 -597.5334 0.372 -0.649 0.663 18 11 2
-1887.2190 3402.9473 -599.7901 0.372 -0.649 0.663 19 12 3
-1880.6469 3402.9854 -601.8422 0.378 -0.651 0.659 21 11 3
-1874.7242 3404.1404 -604.0953 0.378 -0.651 0.659 25 15 7
-1867.7853 3403.4602 -606.0026 0.386 -0.743 0.547 31 22 14
-1861.0977 3403.1892 -607.9792 0.387 -0.748 0.540 30 23 14
-1857.0538 3407.6228 -610.8308 0.361 -0.780 0.511 32 22 14
-1853.2994 3412.5762 -613.7798 0.174 -0.954 0.243 42 21 16
-1848.1022 3414.9248 -616.2379 0.013 -0.873 0.487 54 26 23
-1840.5691 3413.0195 -617.8881 0.014 -0.876 0.482 66 37 33
-1832.0972 3409.3560 -619.1959 -0.014 -0.866 0.499 77 48 44
-1825.0393 3408.2141 -620.9737 -0.014 -0.866 0.499 90 61 57
-1791.2186 3392.8418 -625.9258 -0.095 -0.937 0.336 116 85 80
-1754.2758 3382.2598 -633.5720 -0.176 -0.984 0.008 115 84 79
-1752.5687 3390.7737 -637.1686 -0.147 -0.966 0.211 114 83 78
-1740.0847 3390.5496 -640.9601 -0.228 -0.965 0.133 103 76 65
-1720.0011 3375.5422 -641.7828 -0.179 -0.972 0.153 95 74 60
-1693.2703 3382.5149 -652.5859 0.652 -0.701 0.288 90 65 50
-1639.6617 3335.0913 -652.1287 -0.156 -0.987 -0.036 151 110 93
-1630.4658 3328.3511 -652.5527 -0.093 -0.996 -0.004 156 114 98
-1747.2476 3718.7363 -756.9715 0.932 0.363 0.014 79 67 56
-1828.1296 3960.0144 -818.8077 0.308 -0.847 0.433 35 17 7
-1812.3644 3940.4629 -816.6539 0.312 -0.698 0.644 40 18 8
-1795.6797 3918.7285 -813.9989 0.230 -0.797 0.558 59 30 20
-1790.8901 3922.6182 -816.8857 0.469 -0.882 0.039 75 40 31
-1785.5670 3925.3352 -819.5156 0.469 -0.882 0.039 76 41 32
-1772.5093 3911.1030 -818.4384 0.188 -0.896 -0.402 71 33 25
-1737.3055 3848.0496 -806.6418 0.984 0.162 -0.070 70 27 21
-1761.4397 3915.3777 -823.4119 0.998 0.008 0.059 76 27 23
-1664.5292 3882.9006 -841.7702 0.681 0.280 0.676 52 28 24
-1550.7141 3915.8806 -888.9535 -0.098 -0.972 0.214 203 185 182
-1545.3317 3917.2463 -891.1151 -0.031 -0.869 0.495 215 187 186
-2415.2356 1646.8240 190.7980 0.625 -0.202 0.754 160 135 107
-2411.9629 1650.3600 188.5094 0.603 -0.139 0.786 176 149 122
-2409.2424 1654.2250 186.2723 0.617 -0.132 0.776 187 161 134
-2401.4675 1682.6785 173.5823 0.738 0.163 0.655 214 188 154
-2373.8735 1671.3081 169.1829 0.844 -0.134 0.520 215 189 155
-2383.0952 1688.0613 165.9679 0.998 0.032 -0.046 199 173 139
-2415.4548 1713.7324 166.6648 0.983 -0.116 0.146 197 171 137
-2333.5239 1763.4985 123.3908 0.857 0.244 0.455 200 181 155
-2333.7051 1769.3613 121.3261 0.857 0.249 0.451 186 174 154
-2329.8057 1772.4999 118.9880 0.943 0.141 0.303 184 175 158
-2358.7065 1797.7548 118.7685 0.900 -0.003 0.436 137 128 111
-2355.2688 1801.2833 116.4318 0.790 0.100 0.605 65 56 39
-2354.3638 1806.5317 114.2542 0.802 0.102 0.589 39 30 13
-2353.4287 1811.7715 112.0706 0.802 0.102 0.589 39 30 13
-2232.6018 1977.8618 14.7237 0.872 -0.427 0.239 55 38 29
-2228.6514 1980.9915 12.3731 0.888 -0.282 0.363 98 64 58
-2196.5996 1961.4764 9.5444 0.347 -0.733 0.584 119 81 77
-2194.8892 1966.3241 7.2634 0.391 -0.724 0.568 146 107 103
-2191.3669 1969.7097 4.9523 0.342 -0.719 0.606 165 125 122
-2191.0479 1975.7024 2.6863 0.865 0.293 0.408 165 126 122
-2202.5730 2004.0653 -4.0174 0.929 0.245 0.276 172 130 126
-2215.5535 2021.1609 -6.1966 0.865 0.281 0.416 168 122 114
-2221.1587 2032.2349 -8.4730 0.868 0.278 0.411 170 121 113
-2245.7004 2059.1357 -10.6324 0.870 0.304 0.388 172 120 113
-2253.6921 2072.3713 -12.9545 0.859 0.270 0.436 176 118 113
-1934.7533 1951.4650 -67.6077 -0.071 -0.983 0.170 184 123 113
-2002.0121 2032.0298 -76.0002 0.911 -0.210 0.355 172 127 112
-2179.4514 2288.5459 -114.0462 0.854 0.496 0.158 109 94 95
-2507.5256 3044.1624 -286.1495 -0.204 -0.756 0.621 209 151 139
-2510.5093 3097.5142 -304.5264 0.498 -0.171 0.850 36 11 0
-2503.1182 3098.8914 -307.3045 0.481 -0.194 0.855 46 23 8
-2494.4397 3108.8132 -313.5703 0.186 -0.553 0.812 45 22 7
-2189.5767 3210.0056 -444.2145 0.625 0.087 -0.776 226 170 154
-2252.2825 3342.3167 -472.7281 0.534 0.070 -0.843 225 169 155
-2114.3772 3261.2278 -485.9388 0.022 -0.995 -0.097 213 170 161
-1991.2832 3483.5063 -604.3083 0.719 -0.183 -0.670 36 28 10
-1899.2601 3360.5876 -588.2355 0.375 -0.738 0.561 26 18 0
-1875.6879 3331.2271 -584.8872 0.146 -0.860 0.489 25 18 0
-1871.7609 3347.1155 -591.8455 0.387 -0.719 0.578 22 16 5
-1849.4407 3365.0647 -605.2230 0.733 -0.031 0.679 25 16 15
-1846.3052 3371.0015 -608.3375 0.733 -0.031 0.679 25 17 16
-1844.8484 3379.9534 -612.0248 0.735 -0.024 0.678 25 16 14
-1839.2208 3381.4441 -614.2999 0.737 -0.022 0.675 27 15 10
-1836.1582 3387.5374 -617.4486 0.737 -0.022 0.675 29 14 7
-1822.7922 3386.6001 -621.2327 0.321 -0.633 0.705 31 14 6
-1817.2065 3388.0762 -623.4896 0.310 -0.645 0.699 35 19 11
-1758.4735 3292.2224 -606.9371 -0.043 -0.852 0.522 40 23 15
-1691.9617 3270.0955 -619.4511 -0.177 -0.898 0.402 41 23 13
-1727.2706 3383.6428 -649.6292 -0.207 -0.966 0.158 35 24 15
-1723.6156 3388.3921 -652.4745 -0.172 -0.960 0.223 35 24 15
-1721.1902 3395.5264 -655.8030 0.102 -0.935 -0.339 30 17 10
-1716.0123 3397.3267 -658.0515 0.174 -0.922 -0.347 27 15 8
-1705.1029 3387.9153 -658.0126 0.885 -0.375 0.278 27 16 7
-1695.8783 3381.6997 -658.6101 0.691 -0.687 0.223 28 16 6
-1688.6570 3379.3442 -659.9858 0.604 -0.712 0.359 36 22 13
-1628.2083 3341.3694 -664.8972 0.782 -0.367 0.504 79 62 52
-1808.1594 3924.2065 -820.1985 0.287 -0.896 0.339 41 22 14
-1790.3506 3900.0427 -816.9521 0.485 -0.870 0.088 51 30 21
-1797.3206 3929.3586 -825.4056 0.659 -0.210 -0.722 53 29 20
-1798.2778 3945.7817 -831.0505 0.659 -0.210 -0.722 53 29 20
-1618.0194 3852.8704 -853.0499 0.945 -0.069 -0.319 66 59 55
-1618.7089 3868.9692 -858.6602 0.946 -0.070 -0.317 72 67 64
-1621.4846 3890.1560 -865.4672 0.951 -0.062 -0.304 80 75 70
-1550.2878 3922.1755 -899.0110 -0.036 -0.879 0.475 200 185 180
-1539.9796 3911.0059 -898.1509 -0.080 -0.927 0.367 214 194 189
-1524.3290 3886.0437 -893.9498 -0.138 -0.980 0.142 216 192 190
-2413.0696 1637.5532 187.6513 0.674 -0.028 0.738 171 144 117
-2410.0073 1641.1979 185.3884 0.603 -0.139 0.786 183 156 127
-2406.2322 1644.4194 183.0604 0.603 -0.139 0.786 192 165 136
-2408.6184 1656.7971 179.2977 0.931 0.013 -0.366 208 179 149
-2375.1235 1653.0714 170.3749 0.980 -0.005 0.198 207 180 151
-2396.6345 1677.1479 168.2310 0.956 0.159 -0.246 210 184 149
-2402.4727 1686.2740 166.7081 0.955 0.161 -0.249 210 184 149
-2383.6174 1685.8007 161.0955 0.998 0.038 -0.045 199 173 138
-2285.6025 1701.1226 125.4622 0.895 0.297 0.333 194 174 147
-2329.6931 1741.1991 124.4352 0.790 0.183 0.585 187 167 140
-2324.2288 1748.9443 119.9462 0.843 0.273 0.464 206 186 159
-2357.3123 1788.2576 115.8196 0.900 -0.003 0.436 121 114 98
-2356.2368 1793.3611 113.6364 0.900 -0.003 0.436 69 62 46
-2350.6838 1795.4496 111.1744 0.802 0.102 0.589 40 34 20
-2195.8604 1957.9425 4.6700 0.347 -0.733 0.584 80 48 43
-2191.5310 1960.6665 2.3526 0.357 -0.741 0.568 112 78 74
-2185.8914 1962.3218 0.0214 0.422 -0.741 0.523 134 100 95
-2179.8279 1963.6173 -2.3092 0.883 -0.351 0.312 176 142 137
-2179.9399 1969.9358 -4.5694 0.871 0.322 0.372 171 137 133
-1796.3419 1955.4604 -116.9942 0.106 -0.626 0.773 84 54 42
-1765.8229 1931.0485 -117.4920 -0.283 -0.899 0.334 91 63 51
-2492.1025 3101.1399 -319.5854 0.215 -0.571 0.793 47 19 5
-2438.7949 3394.8965 -442.6132 0.271 -0.950 0.158 215 161 149
-2194.6921 3201.4858 -447.2653 0.666 0.051 -0.745 221 164 147
-2173.7268 3311.0317 -493.4772 0.091 -0.794 -0.602 216 173 161
-2157.0281 3297.3779 -493.6420 0.057 -0.929 -0.366 215 172 163
-1993.1206 3433.8186 -593.4727 0.758 -0.304 0.577 59 33 23
-1696.5431 3273.1077 -626.0975 -0.116 -0.860 0.496 32 20 8
-1725.4747 3386.0679 -658.2418 -0.170 -0.960 0.223 28 19 12
-1726.4807 3399.8318 -662.9313 0.175 -0.925 -0.338 26 17 10
-1721.2910 3401.6379 -665.1793 0.175 -0.925 -0.338 25 16 9
-1640.6877 3337.0972 -666.4699 -0.100 -0.994 -0.037 21 12 3
-1632.2812 3331.9485 -667.1793 -0.070 -0.998 -0.006 22 13 4
-1624.8505 3328.6951 -668.2774 0.775 -0.411 0.479 25 15 5
-1630.5172 3351.9058 -674.9676 0.833 -0.015 0.553 40 27 18
-1613.7421 3821.1362 -850.5090 0.699 -0.695 0.171 56 42 37
-1610.1031 3826.8047 -853.6838 0.109 -0.927 -0.358 55 48 44
-1605.0457 3829.1042 -856.0704 0.190 -0.952 -0.238 55 50 46
-1603.3805 3839.4912 -860.3531 0.198 -0.937 -0.286 56 51 47
-1584.8680 3838.2300 -865.5744 0.187 -0.939 -0.290 35 30 26
-1579.6198 3839.9658 -867.8149 0.187 -0.939 -0.290 27 24 19
-1541.7830 3907.9565 -904.1125 -0.075 -0.922 0.381 224 207 200
-1530.5918 3894.4312 -902.6342 -0.129 -0.968 0.215 217 194 192
-1281.5431 3506.3879 -838.1252 0.241 -0.243 -0.940 193 158 154
-2408.9714 1627.2000 184.3452 0.691 -0.019 0.723 172 147 128
-2407.3657 1631.6794 182.2223 0.674 -0.028 0.738 189 162 135
-2401.4207 1633.6057 179.7062 0.607 -0.107 0.787 193 166 137
-2397.0325 1641.8788 175.3513 0.978 0.026 0.207 200 171 141
-2385.3345 1645.7863 170.3577 0.929 -0.034 0.369 209 180 150
-2322.3418 1728.0973 121.1308 0.916 -0.256 0.310 194 174 147
-2316.0198 1729.5797 118.6615 0.944 -0.267 0.191 183 163 136
-2353.5200 1783.0022 110.6260 0.899 -0.008 0.437 64 57 41
-2352.4116 1788.0668 108.4415 0.899 -0.008 0.437 30 24 10
-2351.3013 1793.1405 106.2529 0.899 -0.008 0.437 33 27 13
-2340.7617 1797.6649 101.3879 0.779 0.067 0.624 36 30 16
-2191.7964 1945.5676 2.0184 0.478 -0.640 0.601 68 44 37
-2186.4058 1947.4185 -0.3010 0.478 -0.640 0.601 69 41 34
-2185.8770 1953.1732 -2.5604 0.248 -0.789 0.562 65 36 30
-2179.6204 1954.3109 -4.8840 0.756 -0.332 0.564 63 34 28
-2174.1060 1956.0325 -7.1940 0.862 -0.419 0.286 107 78 72
-1991.4642 2099.7449 -115.3102 0.660 0.483 -0.576 95 83 85
-2538.9365 3060.7617 -298.6437 -0.114 -0.561 0.820 198 140 128
-2524.9626 3074.5574 -307.9365 0.206 -0.613 0.763 189 132 121
-2511.9719 3069.4666 -310.0438 0.365 -0.667 0.650 180 129 116
-2502.9980 3068.9873 -312.6069 0.376 -0.650 0.660 135 97 84
-2499.6370 3075.0381 -315.8383 0.374 -0.650 0.661 110 75 61
-2181.6902 3157.3279 -442.8417 0.659 0.045 -0.751 220 163 146
-2253.5220 3355.3579 -493.1232 0.694 -0.506 -0.512 214 157 140
-1983.3499 3400.1711 -591.8880 0.884 0.140 0.445 59 32 21
-1647.2539 3344.3420 -674.0739 -0.095 -0.994 0.056 25 18 8
-1638.8539 3339.2593 -674.7837 -0.056 -0.996 0.069 22 13 4
-1629.8453 3344.6233 -679.4877 0.810 -0.149 0.567 28 18 8
-1636.7994 3370.5337 -686.8123 0.844 -0.044 0.534 31 18 9
-1601.7661 3785.7019 -848.8604 0.908 0.276 0.317 48 36 30
-1616.7271 3864.0327 -872.8533 0.821 0.313 0.478 31 26 22
-1543.2169 3903.9751 -909.8425 -0.009 -0.813 0.582 206 189 185
-1532.5027 3891.6941 -908.6341 -0.132 -0.968 0.213 214 192 189
-1523.2118 3882.9116 -908.2667 -0.124 -0.965 0.229 219 191 190
-2411.0225 1620.4856 181.6179 0.554 -0.290 0.781 178 155 139
-2406.2578 1623.1083 179.2124 0.554 -0.290 0.781 182 157 139
-2399.9421 1624.8131 176.6722 0.573 -0.293 0.766 187 160 133
-2382.5725 1630.7720 169.2213 0.471 -0.403 0.785 186 157 127
-2406.4802 1677.9950 159.1907 0.986 0.147 -0.072 198 172 137
-2451.6802 1716.8281 158.6909 0.935 0.212 -0.286 198 172 137
-2449.6978 1721.3064 156.4503 0.589 -0.713 0.381 197 171 136
-2307.1865 1704.4562 119.3800 0.061 -0.961 0.270 194 175 145
-2334.9258 1728.0480 119.1612 0.318 -0.793 0.519 194 175 145
-2321.2092 1724.7358 116.2119 0.939 -0.305 0.157 193 173 146
-2319.4036 1729.1747 114.0394 0.939 -0.305 0.157 185 165 138
-2317.4929 1733.5509 111.8579 0.885 0.218 0.412 195 175 148
-2318.3640 1745.4325 107.7734 0.970 0.086 0.226 106 90 64
-2351.5684 1784.7860 103.4438 0.812 -0.574 0.107 41 35 21
-2348.5791 1788.5854 101.1462 0.812 -0.574 0.107 45 39 25
-2213.2722 1941.2147 4.2302 0.813 0.075 0.577 48 41 31
-2175.9409 1942.2565 -7.4774 0.778 -0.322 0.539 56 36 27
-2172.8474 1945.9176 -9.7560 0.778 -0.322 0.539 57 35 27
-2168.6409 1948.6770 -12.0422 0.947 -0.149 0.284 63 40 32
-2166.9446 1953.4714 -14.3117 0.942 -0.160 0.296 70 48 40
-2165.3948 1958.3938 -16.5836 0.942 -0.160 0.296 82 59 51
-2165.2690 1964.4928 -18.8540 0.869 -0.349 0.350 90 67 58
-2171.2676 1981.9042 -23.4068 0.865 -0.092 0.494 103 70 58
-2169.4500 1986.6748 -25.7044 0.865 -0.092 0.494 106 69 58
-2167.6760 1991.4899 -28.0049 0.864 -0.101 0.493 110 67 58
-2166.6072 1996.9017 -30.3100 0.868 -0.119 0.483 174 123 116
-2194.0574 2026.2191 -32.7122 0.783 -0.177 0.597 179 120 116
-2191.8105 2030.7542 -35.0537 0.779 -0.175 0.602 182 118 116
-2334.1223 2213.0977 -58.6163 0.935 -0.283 -0.216 183 122 114
-1791.9092 1939.3250 -122.9193 0.137 -0.640 0.756 81 39 32
-2262.4573 3373.8645 -505.2133 0.762 -0.108 -0.638 211 154 135
-2074.2131 3123.4426 -470.6691 0.678 -0.544 0.495 212 156 137
-1668.5916 3198.1467 -621.0768 0.263 -0.567 0.781 25 9 1
-1625.5342 3306.7158 -673.8779 -0.109 -0.993 0.033 21 12 3
-1633.6111 3334.5701 -681.6224 0.040 -0.996 0.077 17 8 1
-1817.8715 3909.3220 -836.0837 0.877 0.311 -0.366 35 21 12
-1614.6177 3866.1343 -881.9435 0.826 0.311 0.470 13 8 4
-1550.6478 3812.2688 -881.6366 0.810 0.349 0.471 16 12 11
-1543.9141 3898.1372 -915.1083 0.033 -0.769 0.639 161 145 140
