ply
format ascii 1.0
element vertex 787
property float x
property float y
property float z
property float nx
property float ny
property float nz
property uchar diffuse_red
property uchar diffuse_green
property uchar diffuse_blue
end_header
-1814.0466 6092.7935 1226.6904 0.459 -0.813 0.358 51 108 143
-1801.3556 6109.0151 1217.4852 0.545 -0.031 -0.838 59 105 129
-1794.6624 6115.9971 1212.6688 0.364 0.092 -0.927 106 147 170
-1815.8739 6243.0732 1224.2778 0.423 0.211 -0.881 36 67 87
-1829.9738 6318.8979 1232.2064 0.335 0.196 -0.922 22 51 68
-1580.9906 5967.5986 1068.0089 0.206 -0.957 0.205 10 22 34
-1447.6665 5916.3584 976.7330 -0.042 -0.909 0.415 194 162 151
-2556.2900 5898.1904 1731.4868 -0.131 -0.934 -0.333 168 147 130
-2439.2136 5901.8496 1650.3909 0.480 -0.353 -0.803 5 27 41
-2486.3533 6061.0830 1678.8420 -0.086 -0.721 -0.688 13 32 46
-2168.6902 6042.5693 1459.5483 0.640 -0.143 -0.755 104 121 130
-2148.0667 6066.3984 1444.6570 0.550 -0.816 0.178 30 28 28
-2147.2112 6090.6162 1443.4320 0.492 -0.320 -0.810 39 41 36
-2141.3247 6101.2979 1439.0802 0.488 -0.865 -0.112 34 40 35
-2133.4578 6106.5894 1433.4990 0.454 -0.885 -0.108 44 44 46
-1914.2181 5966.1191 1285.4886 0.071 0.136 -0.988 107 238 255
-1886.4243 6046.1138 1264.1680 0.478 -0.347 -0.807 61 182 223
-1919.6393 6175.5435 1283.7644 0.633 0.008 -0.774 51 164 209
-1927.8295 6229.1001 1288.0308 0.541 -0.290 -0.789 62 166 214
-1824.6313 6105.4497 1219.8649 0.414 -0.835 0.362 41 98 133
-1799.0460 6080.3794 1202.8188 0.408 0.146 -0.901 66 112 136
-1805.0521 6128.2153 1205.7238 0.391 0.166 -0.905 130 171 194
-1842.7665 6308.7891 1227.0959 0.423 0.211 -0.881 36 68 87
-1890.1874 6649.3931 1251.0002 -0.418 -0.833 -0.361 33 61 78
-1994.8135 7170.2739 1309.7694 0.747 -0.609 -0.267 14 26 38
-1579.3042 6056.8594 1051.4037 0.418 0.197 -0.887 21 35 44
-1644.7195 6357.0034 1088.8153 0.476 0.214 -0.853 17 28 26
-1622.9562 6339.7871 1074.2083 0.400 -0.851 0.340 13 15 15
-2574.9771 5899.1709 1729.2693 0.900 -0.436 0.017 166 142 122
-2552.9004 5874.8130 1714.7201 -0.135 -0.950 -0.281 170 149 132
-2504.1184 5862.9741 1681.4047 0.613 -0.363 -0.702 9 10 6
-2494.3162 5987.5806 1671.1814 0.575 -0.391 -0.719 13 32 47
-2495.7827 6015.8491 1671.4075 0.605 -0.415 -0.680 3 19 34
-2317.2146 5992.5122 1548.8993 0.480 -0.829 -0.288 133 180 198
-2216.1040 6018.5327 1478.4414 0.204 -0.405 -0.891 1 55 84
-2175.0813 6041.1245 1449.5205 0.605 -0.102 -0.790 101 111 122
-2169.4106 6052.2749 1445.2997 0.437 -0.328 -0.838 85 90 95
-2166.7407 6071.4692 1442.9248 0.486 -0.309 -0.818 67 68 70
-2163.8694 6090.2173 1440.4236 0.522 -0.176 -0.835 46 46 45
-2161.7542 6111.0947 1438.3845 0.506 -0.221 -0.833 40 42 37
-1737.2343 5375.2803 1166.0454 -0.257 -0.836 -0.485 109 243 253
-1879.4930 5977.6309 1247.4209 0.581 0.030 -0.814 59 182 224
-1936.6730 6235.2856 1279.6973 0.541 -0.290 -0.789 60 163 212
-1930.7228 6245.5679 1275.3077 0.533 -0.301 -0.791 59 156 209
-1917.1896 6319.1045 1263.9305 -0.455 -0.889 0.058 36 100 146
-1826.0658 6174.5107 1205.1016 0.397 0.160 -0.904 34 75 98
-1843.9213 6261.0977 1215.0101 0.427 0.193 -0.884 35 71 92
-1917.7449 6685.9194 1254.1201 -0.419 -0.824 -0.381 21 50 68
-1906.0917 6678.7715 1246.2816 -0.417 -0.827 -0.377 22 50 67
-1604.0869 6123.6538 1053.4183 0.465 0.213 -0.859 24 39 48
-1638.0551 6277.3774 1072.5740 0.465 0.209 -0.860 14 27 31
-1634.5453 6326.8003 1068.7799 0.357 -0.882 0.308 13 20 17
-1628.7412 6336.8130 1064.4987 0.390 -0.857 0.337 15 17 17
-1621.2373 6340.5342 1059.2200 0.108 -0.887 -0.450 17 13 13
-1081.9578 637.1436 842.5642 -0.044 0.249 -0.968 200 192 179
-1494.7126 923.3040 1117.9214 0.454 0.263 -0.851 204 194 184
-2258.7495 1584.6429 1623.7516 0.868 -0.342 -0.359 219 208 202
-2598.6035 5934.9512 1729.3701 0.837 -0.522 0.166 166 142 122
-2512.4731 5865.6719 1672.1923 0.817 -0.282 -0.504 20 20 16
-2518.5715 6026.5430 1671.6503 0.691 -0.326 -0.645 4 26 40
-2493.7466 6019.3921 1654.7928 0.233 -0.941 0.245 29 49 64
-2475.7937 6002.8101 1642.9379 0.426 -0.841 0.333 11 30 44
-2370.4453 5929.0303 1572.6797 -0.289 -0.793 -0.536 68 99 117
-2235.5835 6024.9878 1477.1343 0.183 -0.475 -0.861 0 46 65
-2238.9900 6059.6777 1478.4553 0.255 -0.388 -0.886 0 40 59
-2176.2185 6078.2065 1434.7531 0.486 -0.309 -0.818 117 119 121
-2174.8267 6100.9141 1433.1278 0.500 -0.184 -0.847 107 109 107
-2163.6682 6097.4844 1425.5570 0.437 -0.495 -0.751 89 91 87
-1759.0475 5421.5591 1167.2639 0.179 0.163 -0.970 102 238 249
-1929.9993 6027.6978 1266.9576 0.703 0.291 -0.649 81 211 247
-1883.5720 6107.6587 1232.6842 0.936 -0.320 -0.147 48 140 192
-1867.2334 6314.4062 1215.3658 0.427 0.193 -0.884 35 71 92
-1864.6569 6455.6860 1209.4363 0.809 -0.311 -0.500 21 50 68
-1838.9033 6554.6870 1188.8162 0.149 -0.950 0.273 26 38 50
-1817.9634 6514.6431 1175.5980 0.329 -0.828 0.454 22 34 46
-1631.9480 6324.3774 1053.3076 0.328 -0.872 0.364 15 17 17
-1623.1974 6323.4448 1047.3187 0.371 -0.866 0.336 20 17 16
-1490.7891 977.8276 1108.9714 0.819 -0.130 -0.559 208 198 188
-2514.8650 5855.0854 1659.2909 0.817 -0.330 -0.473 5 5 2
-2521.0144 6015.5010 1658.5211 0.704 -0.413 -0.578 69 93 107
-2429.4766 5903.4814 1599.2649 -0.186 -0.727 -0.661 20 42 56
-2427.8345 5924.2075 1597.4954 0.319 -0.436 -0.841 1 18 33
-2422.9692 5937.4888 1593.7482 0.379 -0.408 -0.831 5 33 51
-2250.4333 6071.0972 1471.3464 0.269 -0.412 -0.871 2 39 53
-2180.0540 6096.2520 1422.3291 0.449 -0.250 -0.858 149 151 150
-2153.6116 6078.2119 1404.7670 0.415 -0.876 0.246 140 140 138
-2034.9143 6069.7236 1323.6794 0.539 -0.825 -0.172 118 248 254
-2066.8198 6187.8003 1341.8776 0.479 -0.857 0.191 113 251 255
-1974.6958 6168.1011 1279.3510 0.265 -0.236 -0.935 70 199 239
-1861.4941 5884.0864 1210.5913 0.275 -0.664 -0.695 49 170 213
-1849.5250 6149.6079 1194.1377 0.269 0.065 -0.961 27 77 106
-1852.5240 6187.6509 1195.0110 0.402 0.152 -0.903 31 76 101
-1791.7551 6371.5718 1147.6472 -0.105 -0.978 -0.178 26 38 50
-1556.8181 5879.2871 1001.9257 0.909 0.258 -0.327 13 25 38
-1635.4657 6313.1777 1042.3461 0.333 -0.889 0.315 15 17 16
-3882.8574 5366.1265 2595.0857 0.072 0.165 -0.984 120 89 69
-3599.2603 5815.5874 2386.6272 0.027 -1.000 -0.017 184 147 131
-2537.1255 5840.6807 1660.1437 0.825 -0.562 -0.059 106 95 85
-2531.4290 5852.0122 1655.8810 0.824 -0.565 -0.051 20 14 8
-2525.2422 5862.2764 1651.3184 0.899 -0.216 -0.382 17 18 13
-2525.4314 6009.0132 1646.6481 0.701 -0.454 -0.550 178 208 223
-2430.8123 5939.2168 1584.2863 0.330 -0.434 -0.839 15 44 63
-2415.6150 5928.3062 1574.2601 0.061 -0.830 -0.555 13 47 61
-2149.3196 5995.9492 1390.1115 0.488 -0.803 -0.343 153 156 158
-2142.0671 6002.5659 1384.9399 0.488 -0.803 -0.343 152 151 152
-2136.9800 6014.9780 1381.0583 0.531 -0.766 -0.363 146 143 143
-2154.4111 6088.1353 1390.5746 0.422 -0.866 0.269 138 137 141
-2035.3285 6051.6470 1310.4095 0.487 -0.829 -0.276 109 246 255
-2035.1274 6077.9106 1309.4131 0.504 -0.814 -0.289 103 247 254
-1959.1792 6047.3413 1258.5242 0.087 0.144 -0.986 76 206 238
-1917.4409 6227.1670 1224.1262 0.487 -0.711 0.508 33 106 149
-1792.3235 6173.4937 1140.4001 0.466 -0.794 0.392 19 48 66
-1786.2368 6182.4854 1135.9476 0.460 -0.806 0.373 21 49 67
-1799.1382 6283.7930 1141.4482 0.895 0.257 -0.365 22 45 60
-1832.1530 6423.7451 1159.4266 0.896 0.254 -0.364 22 38 50
-1628.9557 6174.0171 1028.7682 0.905 0.253 -0.340 7 20 24
-1634.2805 6254.0947 1029.7870 0.765 -0.579 0.281 11 18 15
-1621.3232 6425.9058 1015.3146 0.211 -0.946 -0.245 189 161 148
-2527.4824 5851.4219 1638.3856 0.893 -0.229 -0.388 10 15 11
-2523.1919 5987.4546 1630.7917 0.830 -0.536 0.155 53 98 117
-2410.6953 5924.7891 1556.3269 0.190 -0.889 -0.417 166 207 219
-2397.9431 5919.3936 1547.8271 0.174 -0.934 -0.312 91 132 144
-2391.3154 5928.3799 1543.0046 0.167 -0.932 -0.322 108 147 160
-2382.4678 5932.0874 1536.8514 0.167 -0.932 -0.322 115 154 166
-2362.6860 6034.6768 1519.8557 0.427 -0.082 -0.900 126 178 188
-2340.3015 6056.0581 1503.8763 -0.070 -0.886 -0.459 142 198 208
-2331.0244 6058.6455 1497.4691 -0.070 -0.886 -0.459 48 92 107
-2241.6204 6064.1499 1436.3905 0.260 -0.448 -0.855 26 27 57
-2252.3657 6118.0405 1441.8580 0.195 -0.459 -0.867 29 26 58
-2226.8110 6103.9014 1424.9393 -0.210 -0.943 -0.258 42 41 67
-2181.8044 6090.1738 1394.7584 0.323 -0.940 0.107 159 151 167
-2172.3049 6091.1582 1388.2549 0.768 -0.487 -0.416 152 141 149
-2150.8457 6059.9312 1374.7123 0.391 -0.883 0.261 146 140 147
-2030.4945 6045.4941 1293.2416 0.755 0.025 -0.655 90 241 255
-1875.3749 5705.5649 1199.2695 -0.138 -0.596 -0.791 68 212 239
-1784.9172 5542.0464 1143.2780 0.128 -0.952 -0.277 65 186 225
-1777.3795 5544.6050 1138.0565 0.220 -0.944 -0.247 60 179 221
-1923.2816 6224.2515 1214.0841 0.535 -0.698 0.476 31 98 128
-1914.8796 6226.7397 1208.2764 0.535 -0.698 0.476 30 91 115
-1932.4775 6457.1187 1212.3499 -0.481 -0.875 0.058 37 62 89
-1825.1555 6377.6865 1141.9849 0.782 0.256 -0.567 9 26 37
-1628.2255 6178.3828 1014.7080 0.368 -0.816 -0.446 11 17 23
-1637.9972 6243.9941 1019.1099 0.765 -0.579 0.281 14 16 20
-1633.8668 6448.0703 1009.2884 0.204 -0.950 -0.235 189 157 147
-1037.8884 599.1676 801.2250 -0.420 -0.031 -0.907 196 180 164
-1804.5649 1216.8251 1299.5146 -0.076 -0.197 -0.978 218 209 200
-2568.6824 5830.8599 1652.3081 0.710 -0.544 0.447 147 128 127
-2560.5085 5836.7954 1646.5453 0.710 -0.544 0.447 134 122 122
-2535.7390 5853.9019 1629.1135 0.893 -0.205 -0.400 4 9 5
-2531.3901 6014.3140 1620.3906 0.797 -0.462 0.389 92 137 160
-2518.1431 6008.8887 1611.5920 0.804 -0.454 0.382 104 145 168
-2473.3630 5955.5806 1583.1080 0.659 -0.617 0.430 27 73 89
-2459.4038 5972.5981 1573.0187 0.843 -0.409 -0.349 45 80 99
-2411.9021 5935.6421 1542.0983 0.166 -0.780 -0.603 64 106 118
-2416.1204 5970.3086 1543.7152 0.204 -0.741 -0.640 122 164 176
-2416.6125 5996.3599 1543.1122 0.032 -0.793 -0.609 127 167 179
-2355.7473 5876.4321 1506.1040 0.410 -0.283 -0.867 128 170 182
-2289.2710 6116.4375 1452.3387 0.555 -0.107 -0.825 17 41 63
-2302.1797 6175.6494 1458.9725 0.452 -0.248 -0.857 21 35 60
-2262.2971 6099.3770 1434.6394 0.265 -0.380 -0.886 24 28 57
-2267.7285 6139.5425 1436.8820 0.229 -0.398 -0.888 27 27 58
-2241.9404 6098.8911 1420.8364 0.324 -0.289 -0.901 27 27 57
-2234.4551 6105.5542 1415.5148 -0.157 -0.965 -0.208 25 26 54
-2206.3359 6058.1274 1398.1304 0.460 -0.858 0.229 47 50 79
-2198.1895 6062.7734 1392.4325 0.453 -0.870 0.197 97 99 129
-2197.4702 6087.0190 1391.0719 0.062 -0.995 -0.080 138 138 165
-2167.8450 6034.6431 1372.8431 0.172 -0.977 -0.126 156 150 168
-2179.1968 6091.0225 1378.5219 0.769 -0.469 -0.435 155 147 159
-2162.9150 6073.7915 1368.0878 0.472 -0.766 -0.436 143 142 149
-2151.2839 6068.8447 1360.3693 0.477 -0.650 -0.592 125 137 143
-2051.3833 6166.7002 1289.0251 -0.319 -0.938 -0.135 67 214 246
-1869.6295 5824.4102 1177.9426 0.705 -0.690 -0.165 46 158 202
-1943.1840 6409.5889 1206.8296 -0.407 -0.914 -0.012 33 66 95
-1787.0665 6113.4048 1111.4935 0.022 -0.970 0.241 24 50 65
-1788.2194 6174.5493 1110.0768 0.746 0.211 -0.631 18 41 55
-1779.7098 6263.2632 1101.1083 -0.300 -0.954 0.002 11 25 34
-1627.5511 6152.8872 1001.7759 0.517 -0.710 -0.478 11 16 24
-1638.7651 6223.3467 1006.8547 0.807 -0.530 0.262 15 15 21
-1647.7737 6286.4473 1010.7009 0.622 -0.697 0.356 19 14 18
-1644.1630 6461.6699 1001.9463 0.196 -0.957 -0.214 190 158 147
-3511.2554 5751.1245 2278.4009 0.409 0.055 -0.911 149 117 97
-2935.9536 6451.2578 1862.7278 0.961 0.246 -0.124 154 131 116
-2477.9006 5949.5869 1571.5922 0.745 -0.524 0.412 146 189 205
-2428.8079 6008.3594 1536.1576 0.045 -0.796 -0.604 135 175 187
-2384.9329 6003.7842 1506.6364 0.179 -0.193 -0.965 123 175 186
-2231.5649 6028.0649 1401.9279 0.687 -0.383 -0.618 23 29 58
-2231.4326 6053.5137 1400.8817 0.727 -0.330 -0.602 23 28 57
-2208.7463 6046.2773 1385.8002 0.420 -0.895 0.152 19 26 54
-2198.6174 6045.6821 1378.9675 0.463 -0.867 0.182 43 49 78
-2185.6462 6089.7095 1368.5337 0.769 -0.469 -0.435 136 133 147
-2172.2266 6080.1982 1359.8092 0.541 -0.770 -0.339 140 144 155
-2164.2241 6085.0581 1354.2107 0.470 -0.591 -0.655 139 153 163
-2021.1617 6060.7432 1258.3041 -0.460 -0.865 -0.202 65 206 241
-1819.1736 6138.9761 1118.6625 0.117 -0.954 0.275 21 44 60
-1810.2628 6138.7646 1112.6398 0.089 -0.956 0.281 25 48 64
-1797.0654 6181.9087 1102.0861 0.746 0.211 -0.631 20 42 56
-1811.8984 6259.6108 1109.2030 0.754 0.251 -0.607 14 33 46
-1839.2010 6379.1602 1123.1858 0.774 0.253 -0.580 9 25 37
-1691.4985 6358.3750 1024.0062 0.618 -0.762 0.194 11 16 25
-1642.2146 6212.4810 996.1376 0.659 -0.740 0.138 15 15 22
-1653.7189 6284.3188 1001.2224 0.196 -0.980 0.039 20 14 18
-1636.4865 6283.2993 989.5983 0.249 -0.926 0.283 122 107 100
-3707.4956 5931.2686 2387.0569 0.258 -0.722 -0.642 169 133 119
-3666.7629 5936.5747 2359.3691 -0.047 -0.968 -0.247 158 122 106
-3068.9829 6687.3604 1926.6377 0.119 -0.936 -0.331 157 130 115
-2908.3872 6376.3604 1830.4924 0.965 0.231 -0.126 156 130 116
-2532.0164 5982.9341 1592.0104 0.748 -0.539 0.387 53 89 107
-2472.7705 5921.5005 1554.4506 0.465 -0.680 -0.567 44 80 94
-2474.5862 5950.0850 1554.5542 0.606 -0.484 -0.631 48 85 99
-2470.7637 5965.8242 1551.3582 0.652 -0.059 -0.756 89 128 144
-2464.7927 5976.6401 1546.9058 0.550 -0.280 -0.787 133 175 187
-2452.2915 6046.9048 1535.7161 0.111 -0.634 -0.765 174 216 228
-2411.9331 6051.5469 1508.3066 0.615 -0.377 0.692 126 180 187
-2180.6733 6032.1440 1353.0516 0.429 -0.886 0.175 68 76 97
-2173.4792 6039.0566 1347.9271 0.552 -0.829 0.088 107 111 130
-2177.2253 6075.0825 1349.0414 0.544 -0.770 -0.334 136 144 159
-2173.6870 6091.8706 1345.9958 0.532 -0.755 -0.382 153 169 183
-2159.6472 6080.5215 1336.9692 0.441 -0.858 -0.264 134 158 169
-2008.3837 6005.1470 1237.8778 -0.172 -0.749 -0.640 62 198 231
-1932.2521 5839.6782 1193.0067 -0.364 -0.852 -0.375 61 183 222
-2057.1270 6752.9741 1241.4302 -0.531 -0.845 -0.059 34 62 91
-1807.7983 6109.6929 1098.4552 0.022 -0.970 0.241 27 50 66
-1705.6643 6385.1841 1018.7465 0.581 -0.789 0.202 11 16 26
-1653.4846 6229.6602 989.6442 -0.176 -0.892 -0.417 15 15 24
-1623.4005 6273.3154 967.6362 -0.374 -0.883 -0.285 183 158 146
-1824.0502 1218.1821 1295.5842 0.611 0.116 -0.783 201 192 183
-2285.8572 1534.9557 1593.2128 0.317 -0.346 -0.883 205 195 186
-4608.8530 3435.7153 3077.8013 -0.115 -0.596 -0.795 222 211 205
-4589.8799 3436.4509 3065.0117 -0.096 -0.617 -0.781 227 216 210
-4212.5000 4858.8916 2753.1265 0.233 -0.932 0.278 228 223 219
-3727.1475 5948.4976 2382.2234 0.002 -0.999 -0.050 157 121 107
-2992.6487 6510.3525 1865.3237 0.237 -0.847 -0.476 154 126 112
-2939.3064 6424.6465 1832.9513 0.087 -0.990 -0.110 153 127 114
-2565.4727 5848.3467 1605.0847 0.561 -0.263 -0.785 13 14 10
-2562.6914 5938.0249 1599.5516 0.939 -0.297 -0.175 55 79 73
-2535.8479 5926.6650 1581.9633 0.823 -0.531 0.203 97 127 135
-2529.6741 5937.0654 1577.3866 0.824 -0.551 0.134 144 174 184
-2529.1189 5960.1396 1576.0708 0.797 -0.463 0.387 153 183 193
-2513.5332 5949.3169 1566.0314 0.745 -0.664 -0.072 148 179 189
-2497.1584 5936.5342 1555.5415 0.698 -0.699 0.158 170 201 209
-2482.6541 5927.8359 1546.1425 0.455 -0.660 -0.597 97 128 137
-2302.6921 6019.9087 1421.3572 0.218 -0.266 -0.939 12 37 59
-2127.4338 6053.7480 1302.1134 0.429 -0.874 0.228 22 58 77
-2018.1562 6013.9165 1230.2509 -0.172 -0.749 -0.640 50 176 213
-1953.7179 6178.2656 1180.2034 -0.024 -0.266 -0.964 43 107 150
-1797.2745 6111.2803 1077.7307 0.973 -0.101 -0.208 12 35 51
-1795.4109 6133.6421 1075.5641 0.973 -0.101 -0.208 13 35 49
-1712.5896 6386.1270 1009.5544 0.574 -0.803 0.162 11 17 27
-1663.8855 6243.6118 982.6215 -0.184 -0.903 -0.387 16 15 24
-1071.8103 615.2325 811.2229 -0.290 0.097 -0.952 134 118 102
-4188.7842 4973.0166 2715.7305 0.412 -0.812 -0.414 237 226 219
-3217.7007 4778.6519 2072.9944 0.338 0.241 -0.910 99 68 50
-3278.0857 4901.1045 2108.2756 0.237 0.173 -0.956 91 62 48
-3739.8403 5954.9951 2373.0759 0.026 -0.999 -0.031 157 121 107
-3544.3164 5831.5381 2247.2439 0.724 0.502 -0.473 142 110 89
-3627.8225 5986.4116 2296.6484 0.717 0.516 -0.469 139 107 86
-2554.3223 5927.6650 1579.4966 0.951 -0.310 -0.009 56 78 81
-2518.3469 5944.0112 1554.6854 0.741 -0.667 -0.078 67 94 97
-2506.9824 5942.6226 1547.1261 0.576 -0.626 -0.527 84 110 114
-2496.3994 5942.9243 1540.0187 0.531 -0.611 -0.587 82 106 111
-2499.6902 6099.0898 1535.5939 0.602 -0.651 0.462 169 209 221
-2415.8906 5952.4473 1485.6434 -0.073 -0.904 -0.421 140 182 194
-2332.0068 5949.4438 1429.5375 0.470 -0.877 0.104 181 233 241
-2307.9619 5965.2910 1412.7454 -0.037 -0.642 -0.766 114 141 162
-2337.1946 6114.0620 1426.0256 0.135 -0.970 -0.200 37 64 85
-2215.4646 5984.3125 1349.9302 0.133 -0.991 0.030 9 34 56
-2027.9585 6022.7124 1222.6005 -0.172 -0.749 -0.640 45 162 205
-1814.5651 5539.4634 1100.0657 0.881 -0.444 -0.160 31 124 172
-1986.8351 6173.8281 1188.6161 0.844 -0.334 -0.420 34 111 143
-1974.8875 6165.9741 1180.9403 0.860 -0.269 -0.434 31 100 137
-1985.8043 6226.2930 1185.6975 -0.163 -0.599 -0.784 48 111 147
-1810.3016 6132.1821 1072.0410 0.402 -0.131 -0.906 12 35 51
-1717.6461 6380.4629 999.3854 0.574 -0.803 0.162 10 16 25
-1666.3469 6413.6519 963.5865 0.044 -0.998 0.039 188 158 148
-4189.5659 4964.6162 2699.8706 0.405 -0.812 -0.421 237 226 219
-3244.9294 4807.2183 2075.5554 0.334 0.229 -0.914 99 68 50
-2989.6360 5613.4268 1869.4238 0.286 -0.158 -0.945 153 116 90
-2506.4504 6097.9302 1525.1820 0.626 -0.669 0.401 153 193 203
-2363.5884 5910.0889 1437.9932 0.808 -0.388 -0.444 136 188 196
-2319.2556 5975.9702 1405.4642 -0.101 -0.432 -0.896 133 160 181
-2335.7651 6067.2568 1412.4735 0.254 -0.232 -0.939 147 174 195
-2184.6260 5962.9858 1316.0706 0.050 -0.999 0.001 11 41 62
-2173.1101 5958.3564 1308.5791 0.099 -0.953 0.288 14 42 66
-2163.0281 5957.3770 1301.8849 0.099 -0.953 0.288 18 42 69
-2044.6677 6077.5269 1217.4954 -0.285 -0.899 -0.332 38 146 189
-1982.2245 6140.2227 1173.0045 0.884 -0.194 -0.425 30 104 131
-1976.3154 6177.7314 1167.4027 0.627 -0.050 -0.777 34 92 124
-1975.9403 6204.3457 1165.9790 0.791 -0.378 -0.481 33 88 122
-1923.7439 6565.7910 1115.1688 0.928 0.007 -0.374 11 28 39
-1668.1552 6396.1016 951.8506 0.013 -1.000 -0.027 185 155 145
-2286.7292 1548.0547 1571.7108 0.179 -0.423 -0.888 223 212 206
-2476.1616 1701.9171 1690.8682 0.261 -0.456 -0.851 212 203 198
-4184.1284 4949.2065 2680.2456 0.543 -0.464 -0.700 237 226 219
-3743.2373 5957.0918 2340.5120 0.377 0.282 -0.882 150 114 99
-3532.0874 6420.9390 2178.6687 0.941 -0.170 0.292 150 113 87
-2725.0417 6024.3755 1659.1890 -0.041 -0.478 -0.877 96 77 60
-2607.8950 6014.1899 1581.6194 -0.330 -0.229 -0.916 31 45 46
-2349.7039 6109.8643 1405.2604 0.233 -0.946 -0.226 73 100 122
-2186.7944 5950.9258 1304.0026 -0.251 -0.445 -0.860 51 85 105
-2173.4094 5941.4116 1295.5210 -0.308 -0.496 -0.812 43 73 98
-2161.3162 5935.1221 1287.7527 -0.293 -0.470 -0.833 31 59 87
-2178.2478 6030.7578 1294.6624 -0.259 -0.562 -0.786 5 32 60
-2170.0483 6034.8833 1289.0120 -0.259 -0.562 -0.786 8 32 62
-2157.5303 6027.4619 1281.0123 -0.269 -0.580 -0.769 14 36 67
-1985.1477 6128.9976 1161.5449 0.862 -0.163 -0.480 29 98 121
-1982.3524 6203.2412 1156.2913 0.791 -0.378 -0.481 31 84 113
-1956.3955 6236.8359 1137.4658 -0.416 -0.445 -0.793 46 92 112
-1854.5782 6231.8145 1069.8718 0.126 -0.582 -0.804 12 35 50
-1712.8685 6347.4482 970.1924 -0.385 -0.866 -0.318 15 16 20
-1698.0697 6325.6631 961.3297 -0.360 -0.914 -0.188 23 17 20
-1688.8051 6323.2632 955.2679 -0.360 -0.914 -0.188 84 74 73
-1682.4077 6423.8354 946.4119 -0.082 -0.996 -0.032 182 152 143
-1234.8967 754.4908 903.6536 0.487 0.387 -0.783 202 195 187
-4194.5742 4951.8032 2670.4221 0.543 -0.464 -0.700 237 229 221
-4090.9629 4927.2178 2602.7856 -0.136 -0.957 0.257 126 104 90
-3802.5674 6011.7944 2359.9968 0.357 -0.400 -0.844 148 115 95
-3728.7554 5990.2832 2312.0020 0.464 0.187 -0.866 141 108 87
-3728.5034 6012.8184 2310.7690 0.420 0.170 -0.891 138 106 82
-2822.3220 5900.1802 1714.3802 0.791 -0.596 0.142 140 122 105
-2790.8093 5883.5591 1694.2413 0.731 -0.672 0.121 144 127 112
-2794.6584 5914.7671 1695.3214 0.849 -0.505 0.157 137 120 103
-2620.4670 6074.8926 1572.0836 -0.313 -0.157 -0.937 9 16 15
-2602.9570 6060.6035 1561.1326 -0.318 -0.165 -0.934 9 14 14
-2384.8123 6127.7778 1413.1050 -0.090 -0.828 -0.553 74 99 127
-2372.8857 6124.0298 1405.3628 0.204 -0.469 -0.859 1 26 54
-2354.8752 6105.0981 1394.2990 0.138 -0.974 -0.181 8 34 63
-2294.3628 6056.0117 1356.4392 -0.469 -0.400 -0.788 18 47 68
-2083.0193 5989.0713 1219.2701 0.661 -0.557 0.504 9 50 78
-1976.2164 6083.0947 1143.9054 0.712 -0.493 -0.500 31 88 106
-1970.7548 6094.0903 1139.7588 0.537 -0.601 -0.592 34 89 108
-1981.1505 6179.5142 1142.6219 0.870 -0.119 -0.479 35 88 108
-1972.6570 6237.4536 1134.2422 -0.412 -0.484 -0.772 30 62 78
-1529.5969 5174.9790 890.2899 -0.448 -0.581 -0.680 9 28 41
-1711.3746 6319.0117 956.8904 -0.361 -0.914 -0.183 15 13 11
-1706.0341 6330.5483 952.7986 -0.360 -0.914 -0.188 39 32 29
-1696.2214 6449.7700 940.6449 -0.071 -0.997 -0.027 175 144 142
-1532.7456 959.2105 1087.1431 0.732 0.166 -0.661 189 185 174
-2300.0657 1558.0695 1565.7516 0.234 -0.158 -0.959 214 205 198
-4202.2920 4951.3130 2658.9246 0.509 -0.516 -0.689 237 229 221
-3296.3962 4831.5303 2065.1685 0.237 0.282 -0.930 88 60 48
-1657.1772 2634.7625 1087.5789 0.292 -0.926 -0.239 75 49 34
-3759.4607 5956.0693 2316.6870 0.557 -0.750 -0.358 137 105 84
-3750.7563 5965.5010 2310.4644 0.557 -0.750 -0.358 137 105 84
-3749.5571 5986.4473 2308.6465 0.561 -0.745 -0.361 137 105 84
-3397.0159 5507.6909 2098.7080 0.789 0.506 -0.347 129 97 72
-2776.0049 5702.1377 1678.1530 0.865 -0.409 -0.290 142 116 89
-2833.3857 5860.9360 1708.3689 0.724 -0.664 0.188 137 116 93
-2827.2925 5872.0186 1703.7941 0.719 -0.668 0.193 134 116 96
-2824.6389 5889.9839 1701.1591 0.787 -0.600 0.145 134 118 102
-2806.7839 5877.5415 1689.9493 0.829 -0.534 0.165 133 119 103
-2793.3010 5873.7236 1681.2117 0.779 -0.622 0.086 123 110 94
-2794.7793 5900.0425 1680.9032 0.843 -0.512 0.166 130 117 101
-2787.9785 5909.6978 1675.9298 0.844 -0.508 0.172 129 113 97
-2819.2209 5996.8887 1692.3461 0.969 0.232 -0.081 113 97 81
-2828.1040 6136.0493 1691.4214 0.209 -0.691 -0.692 106 99 91
-2813.2578 6154.1909 1680.7076 0.313 0.150 -0.938 58 54 43
-2759.3594 6065.3799 1649.3746 -0.147 -0.541 -0.828 36 32 21
-2415.0835 6133.1255 1418.1858 -0.220 -0.837 -0.501 36 61 86
-2244.0134 6037.8208 1309.6144 -0.369 -0.130 -0.920 47 81 101
-1982.1124 6245.4551 1126.1099 0.870 -0.130 -0.475 16 43 59
-1986.6958 6315.6392 1125.7119 0.331 -0.254 -0.909 34 63 79
-1701.8958 6262.8770 939.7824 0.278 -0.960 -0.028 16 13 10
-1698.7721 6281.9126 936.7841 0.209 -0.977 -0.042 39 33 29
-1689.2491 6278.4663 930.6494 0.196 -0.976 -0.096 115 102 102
-1673.0813 6251.3335 921.2745 0.089 -0.938 -0.336 157 139 141
-1077.7277 609.5896 799.9846 0.407 0.559 -0.723 118 102 86
-2309.6177 1542.6495 1565.6615 0.656 -0.593 -0.467 198 189 182
-4214.2290 4955.5728 2649.9731 0.162 -0.448 -0.879 237 229 221
-3805.8416 6036.6719 2325.9314 -0.005 -0.941 -0.339 130 98 77
-3576.5286 5708.4214 2191.2075 -0.212 -0.587 -0.781 130 98 77
-3416.0898 5525.2886 2094.5986 0.788 0.505 -0.352 116 84 59
-3553.4358 6413.3091 2140.3774 0.250 -0.905 0.345 123 92 63
-2796.7583 5595.3906 1682.4282 0.302 -0.437 -0.847 141 114 84
-2978.0469 6036.2207 1779.7812 0.894 -0.037 -0.446 140 116 92
-2986.1443 6075.8262 1783.1240 0.895 -0.062 -0.442 141 115 92
-2826.9844 5879.8970 1688.0050 0.708 -0.693 0.135 128 114 98
-2806.8843 5862.9795 1675.5972 0.731 -0.654 0.196 128 115 101
-2794.2651 5860.8711 1667.3777 0.967 -0.137 0.214 99 87 73
-2797.4146 5890.4634 1667.9614 0.947 -0.143 0.289 82 70 56
-2794.6182 5908.1851 1665.2214 0.964 -0.140 0.225 75 62 46
-2806.7544 5956.3301 1670.7979 0.978 0.199 -0.055 63 50 34
-2418.9392 6125.1079 1406.3977 -0.222 -0.836 -0.501 1 19 40
-2329.2473 6032.1724 1351.9124 0.129 -0.907 -0.400 13 32 57
-2336.8020 6076.2100 1354.6732 0.082 -0.980 0.179 12 32 57
-2299.7642 6059.9028 1331.0593 -0.528 -0.695 -0.488 10 38 60
-2284.7131 6047.3828 1321.7609 -0.520 -0.679 -0.518 16 44 66
-2158.7959 6002.2676 1240.9597 -0.397 -0.233 -0.888 94 127 148
-2149.9844 6004.5093 1235.0328 -0.396 -0.236 -0.887 134 166 189
-2055.0488 6329.6182 1155.9785 0.498 0.265 -0.826 18 62 84
-1996.6467 6212.9429 1123.3368 0.456 -0.890 -0.005 19 60 79
-1972.4872 6224.0562 1106.8353 0.452 -0.892 -0.005 24 53 69
-1951.8424 6189.6367 1094.9521 0.448 -0.885 -0.128 27 56 72
-1697.3451 6254.0581 923.7835 0.014 -0.965 -0.263 40 33 30
-1689.2804 6255.6479 918.3823 0.014 -0.965 -0.263 115 102 102
-3365.6145 4908.1172 2077.7097 0.080 0.096 -0.992 88 60 48
-3880.0076 5818.9263 2368.5737 0.238 -0.815 -0.528 76 50 37
-3437.7217 5525.7334 2092.9604 0.606 0.203 -0.769 106 74 50
-3394.2493 5479.5303 2066.7759 0.783 0.501 -0.367 106 74 49
-3617.9397 5937.4956 2190.0378 0.900 0.435 0.028 112 81 53
-3674.0403 6049.0137 2221.1252 0.899 0.436 0.026 119 88 60
-3551.3840 6370.2515 2123.7214 0.245 -0.902 0.355 111 80 52
-3552.8298 6397.4014 2123.2581 0.243 -0.906 0.346 118 87 58
-3426.5830 6274.7695 2046.6150 -0.339 -0.863 -0.376 127 96 65
-3425.0583 6296.4058 2044.4851 -0.344 -0.863 -0.369 131 100 69
-3379.5962 6264.3467 2016.2552 0.394 -0.874 0.285 139 108 77
-2858.3777 5904.2432 1692.2142 0.278 -0.958 0.069 118 99 80
-2849.5732 5910.0767 1686.1198 0.619 -0.785 0.001 124 110 94
-2790.7332 5839.0801 1651.1198 0.981 -0.136 0.141 83 71 57
-2795.5171 5871.8179 1652.5607 0.947 -0.143 0.289 56 44 28
-2798.2761 5900.6597 1652.8728 0.972 -0.119 0.201 56 43 27
-2769.2305 5888.4639 1634.4050 0.863 -0.475 0.174 58 47 33
-2858.8132 6217.5151 1676.1814 0.311 0.153 -0.938 46 42 31
-2479.6121 6051.3052 1435.4431 -0.234 -0.283 -0.930 12 24 32
-2451.4995 6110.1313 1413.8894 -0.068 -0.731 -0.679 20 32 40
-2439.6453 6107.0493 1406.2535 0.042 -0.620 -0.784 12 24 34
-2436.5881 6125.0146 1403.3070 -0.088 -0.774 -0.627 9 22 35
-2265.8894 5883.1250 1303.6410 0.329 -0.816 0.476 16 31 53
-2303.7935 6002.0352 1322.3759 0.124 -0.988 0.089 13 31 55
-2106.9585 6051.2778 1190.3544 -0.326 -0.176 -0.929 132 182 205
-2107.4473 6105.1641 1187.8688 -0.434 -0.710 -0.555 52 109 139
-2089.3662 6107.9458 1175.8320 -0.263 -0.897 -0.355 32 89 122
-2004.9760 6162.6338 1117.4806 -0.015 -0.472 -0.882 18 56 79
-1996.7548 6165.7954 1111.9089 0.017 -0.446 -0.895 13 51 74
-1877.9075 6027.2881 1040.9596 -0.003 -0.999 0.050 20 49 63
-1077.5096 603.4249 794.0378 0.389 0.545 -0.743 106 89 71
-2138.7986 1427.0377 1445.5908 0.763 -0.324 -0.559 213 206 196
-4244.9541 4971.7251 2636.0608 0.162 -0.448 -0.879 236 228 220
-3930.1255 5878.8618 2380.9604 0.321 -0.857 -0.403 63 37 24
-3443.9688 5565.4858 2079.0652 0.916 0.387 -0.100 90 58 33
-3534.1357 6399.4854 2093.4023 -0.393 -0.776 -0.494 118 87 56
-3446.3132 6270.5469 2042.7493 -0.345 -0.879 -0.328 119 88 57
-3462.1177 6421.2163 2045.0214 0.234 -0.972 -0.008 126 95 64
-3292.6064 6537.4468 1927.6514 0.220 -0.971 -0.089 130 103 74
-2841.7192 5879.7773 1667.3627 0.432 -0.899 0.075 119 104 87
-2798.0293 5885.3081 1638.4231 0.784 -0.593 0.184 54 38 22
-2817.2825 6066.6436 1641.3098 0.315 0.214 -0.925 49 44 38
-2830.0098 6117.1938 1646.9399 0.376 0.188 -0.907 45 41 32
-2845.0857 6172.9678 1653.8291 0.373 0.188 -0.909 44 40 29
-2477.2520 6078.8052 1417.7363 -0.555 -0.764 -0.329 8 15 21
-2465.4900 6076.1094 1410.1700 0.002 -0.749 -0.662 8 16 21
-2452.0146 6094.3057 1400.3588 0.004 -0.756 -0.654 11 18 22
-2401.9348 6024.7578 1371.2609 -0.013 -0.842 -0.539 14 20 30
-2390.0112 6071.0693 1360.9575 -0.236 -0.842 -0.485 18 26 39
-2274.4165 5911.9629 1293.7167 0.894 0.236 -0.382 15 29 51
-2268.6277 6124.6470 1278.5031 0.163 -0.882 0.442 12 30 62
-2133.6851 6132.1382 1189.6339 -0.325 -0.180 -0.928 60 113 137
-2080.9561 6065.7002 1158.6322 -0.273 -0.867 -0.416 29 79 116
-2215.7795 6582.2495 1219.2889 0.933 0.283 -0.223 24 69 104
-2239.0098 6706.8452 1227.8291 0.098 -0.557 -0.825 24 56 83
-1970.8540 6124.0654 1083.3168 0.676 -0.007 -0.737 14 43 62
-1976.0575 6166.7944 1084.4342 0.683 -0.012 -0.730 17 45 60
-1975.1334 6191.5356 1082.5000 0.469 -0.845 -0.256 35 64 78
-2007.5228 6316.3853 1097.0314 0.512 -0.858 -0.039 23 52 68
-1896.3619 6063.6240 1037.7255 -0.069 -0.997 -0.023 12 41 55
-1652.9551 6383.3022 860.9877 -0.115 0.023 -0.993 168 138 130
-1100.7426 680.7337 801.8990 0.529 0.400 -0.748 197 190 182
-1533.4645 962.6555 1069.0964 0.706 0.203 -0.679 203 199 188
-3895.6768 5795.2095 2345.6541 -0.011 -0.928 -0.373 63 37 24
-3543.5334 6401.0083 2082.0425 -0.372 -0.780 -0.504 114 83 52
-3449.2742 6309.6777 2025.4930 -0.395 -0.915 -0.080 118 87 56
-3431.7134 6303.0688 2014.3824 -0.395 -0.915 -0.080 126 95 64
-3523.0566 6489.5117 2063.7686 0.212 -0.823 0.527 126 95 64
-3381.5664 6262.6836 1983.8441 0.266 -0.963 0.039 126 95 64
-2874.5581 5883.6440 1673.4694 0.294 -0.846 0.444 109 88 64
-2862.8213 5883.6919 1665.7968 0.294 -0.846 0.444 106 88 67
-2806.3286 5840.9805 1631.2401 0.841 0.344 -0.417 82 69 53
-2819.4553 5890.2959 1637.0922 0.831 0.258 -0.494 50 37 21
-2797.0178 5868.4995 1623.6344 0.791 -0.591 0.155 49 33 17
-2613.5012 6175.8315 1486.7183 0.940 0.338 -0.038 11 10 16
-2485.9172 6132.4360 1405.7417 -0.489 -0.741 -0.460 13 18 17
-2220.3103 6058.7603 1236.2416 0.217 -0.882 0.418 16 30 61
-2156.0901 6148.1450 1189.3328 -0.402 -0.901 -0.163 1 44 65
-2141.7471 6135.4487 1180.6616 -0.447 -0.804 -0.391 5 55 79
-2130.2524 6130.3833 1173.4299 -0.434 -0.710 -0.555 23 73 104
-2043.4698 6020.9346 1122.7679 0.844 0.305 -0.442 22 67 108
-2087.6035 6171.6172 1143.2797 0.844 0.303 -0.442 24 68 107
-1959.5892 5912.9136 1073.9237 0.778 0.205 -0.593 28 55 82
-1701.5228 5890.2173 906.5331 0.352 0.178 -0.919 10 20 29
-1721.8687 6154.3003 905.2309 0.495 -0.847 -0.191 5 15 18
-1732.9874 6250.5522 907.1764 0.609 -0.653 0.451 12 14 11
-1566.7437 5900.5596 817.8839 -0.011 -0.009 -1.000 164 133 129
-1123.1565 640.3376 815.5835 0.396 0.548 -0.737 186 175 163
-3522.9890 2446.3020 2276.1455 0.352 -0.911 -0.214 210 203 197
-4273.0410 4984.8047 2620.3767 0.467 -0.606 -0.643 236 228 220
-4264.8945 4994.5259 2614.5173 0.344 -0.812 -0.472 244 224 212
-3938.1904 5799.8838 2355.9031 -0.109 -0.993 -0.044 63 37 24
-3845.8503 5733.6797 2299.5168 0.567 -0.810 -0.152 63 37 24
-3945.6936 5943.6792 2352.6133 0.301 -0.949 0.090 66 40 25
-3606.6372 5814.3447 2139.1055 0.588 0.385 -0.712 117 85 60
-3673.6787 5940.6558 2175.5935 0.700 0.444 -0.560 121 89 64
-3537.4583 5838.7368 2092.6548 0.336 0.301 -0.893 126 93 60
-3656.7480 6097.0718 2155.6699 0.728 -0.682 -0.064 123 90 57
-3496.6887 5907.4971 2062.1873 0.332 -0.609 -0.720 125 92 59
-3552.7778 6426.9688 2069.1833 -0.342 -0.940 0.021 107 76 45
-3517.7744 6390.5796 2048.4512 -0.359 -0.926 -0.121 107 76 45
-3462.4136 6318.0757 2016.5120 -0.391 -0.916 -0.095 114 83 52
-3443.3904 6308.9639 2004.6384 -0.395 -0.915 -0.080 126 95 64
-3428.9573 6307.8198 1995.3018 -0.403 -0.911 -0.085 126 95 64
-3421.7778 6319.4712 1989.9624 -0.413 -0.905 -0.098 126 95 64
-2866.2905 5875.9438 1653.3375 0.294 -0.846 0.444 65 48 27
-2789.4746 5815.7534 1606.7220 0.997 -0.074 0.034 36 24 9
-2773.9194 5807.5239 1597.0575 0.995 -0.066 -0.081 41 27 12
-2734.7227 6128.9214 1553.2476 0.636 -0.763 0.119 24 24 22
-2632.4897 6004.9150 1493.7045 -0.381 -0.787 -0.486 17 21 20
-2586.1965 5975.5435 1465.2192 -0.402 -0.771 -0.494 10 15 10
-2258.0000 5741.8999 1264.7172 0.092 0.112 -0.989 14 14 21
-2158.7886 6163.2046 1176.1321 0.026 -0.875 0.483 12 59 84
-2110.7004 6084.2891 1149.2950 -0.045 -0.868 0.494 26 64 102
-2066.8823 6094.1870 1120.1888 0.935 0.275 -0.224 28 66 105
-2136.1790 6316.3862 1152.6934 0.924 0.312 -0.221 31 65 101
-2170.6355 6441.6934 1168.0126 0.919 0.312 -0.241 28 55 86
-1971.5770 5928.6323 1067.5210 0.747 0.166 -0.644 32 55 83
-1988.0768 6135.4517 1066.5079 0.782 -0.161 -0.603 79 106 125
-2011.7545 6232.5708 1076.4089 0.217 -0.969 0.121 24 54 66
-1992.2300 6202.3179 1065.4109 0.208 -0.956 -0.207 13 45 58
-1974.7137 6177.6963 1055.4010 0.151 -0.953 -0.261 9 38 54
-1963.7507 6172.3936 1048.5612 0.140 -0.953 -0.269 25 54 70
-1958.9104 6185.3818 1044.6696 0.060 -0.953 -0.297 37 66 82
-1943.7666 6167.2783 1035.8344 0.251 -0.939 -0.237 34 63 77
-1943.5929 6222.1733 1032.5994 0.217 -0.923 -0.318 13 31 45
-1868.3173 6019.5269 995.0884 -0.203 -0.965 -0.169 16 31 44
-1832.5865 6127.6738 965.6633 0.151 -0.563 -0.813 19 32 41
-1727.8777 6152.8682 896.0227 0.495 -0.847 -0.191 5 14 18
-1728.2422 6241.3906 891.2263 0.600 -0.659 0.454 27 25 20
-4274.2383 4995.7939 2603.8640 0.383 -0.790 -0.478 244 224 212
-3562.9534 5238.0825 2127.8523 0.277 0.116 -0.954 59 35 21
-3962.1836 5821.8081 2352.9600 -0.165 -0.965 -0.204 62 38 24
-3903.8147 5782.7793 2317.3413 -0.044 -0.894 -0.446 62 38 24
-3892.4656 5832.2378 2307.0811 0.381 -0.925 0.007 66 40 24
-3954.8003 5944.4248 2340.9985 0.320 -0.940 0.115 67 41 25
-3941.6536 5947.8311 2332.2632 0.320 -0.940 0.115 73 47 31
-3924.3145 5945.0713 2321.1658 0.340 -0.938 0.065 128 102 86
-3907.0557 5942.3237 2310.1199 0.362 -0.930 0.069 133 107 91
-3684.7424 5900.0317 2168.2402 -0.037 -0.195 -0.980 117 85 59
-3772.7573 6104.5703 2213.4341 0.499 0.458 -0.736 128 97 69
-3780.9290 6140.5703 2216.6360 0.867 0.252 -0.429 127 96 68
-3597.0752 5897.7964 2111.4470 0.463 -0.157 -0.872 127 94 62
-3634.8616 6025.6372 2128.5098 0.430 -0.902 0.033 126 93 60
-3594.2117 5983.5596 2104.5747 0.309 -0.951 -0.019 123 90 57
-3582.4846 5987.5322 2096.7278 0.309 -0.951 -0.019 123 90 57
-3565.2939 5982.6450 2085.8513 0.342 -0.939 -0.025 122 89 56
-3533.9399 6403.9858 2040.8646 -0.322 -0.946 0.033 102 71 40
-3406.4983 6205.4819 1969.7173 0.946 -0.155 0.286 112 81 50
-3455.0908 6314.8716 1994.8754 -0.395 -0.915 -0.080 126 95 64
-3424.7292 6285.6582 1976.8687 -0.407 -0.910 -0.082 126 95 64
-3288.2205 6282.8354 1888.3960 0.433 -0.761 -0.483 133 102 72
-3172.9272 6118.3218 1823.1501 0.485 -0.808 -0.335 134 104 76
-2875.1606 5878.8110 1643.8048 0.305 -0.830 0.467 49 34 16
-2815.3716 5875.8599 1605.1553 0.988 0.102 -0.117 32 22 9
-2654.9717 5688.1206 1511.9784 0.166 -0.749 -0.642 17 12 6
-2593.3340 5975.4292 1455.1625 -0.339 -0.829 -0.444 8 15 12
-2594.2085 6001.4722 1454.2080 -0.363 -0.829 -0.426 9 13 8
-2709.5430 6307.5132 1511.2081 -0.131 -0.718 -0.684 14 12 14
-2700.8906 6313.6865 1505.2292 0.278 -0.596 -0.754 14 11 15
-2319.8057 5875.1812 1283.4153 0.054 0.094 -0.994 10 9 14
-2329.5015 5923.0181 1286.9148 -0.001 0.025 -1.000 13 11 14
-2172.5112 6181.7725 1169.8538 0.059 -0.860 0.507 2 45 69
-1992.7552 5970.4644 1065.4862 0.458 -0.102 -0.883 30 50 79
-1994.6925 6135.2388 1057.1128 0.906 -0.134 -0.401 70 98 115
-2019.5150 6235.4360 1067.3739 0.217 -0.968 0.124 14 45 57
-1999.1510 6202.8418 1056.0564 0.208 -0.956 -0.207 13 45 57
-1974.8129 6185.4375 1041.2705 0.060 -0.953 -0.297 26 58 72
-1955.4219 6182.3022 1028.8628 0.059 -0.952 -0.300 35 64 77
-1946.5114 6210.6543 1021.4199 0.213 -0.921 -0.326 13 30 44
-1855.9778 6181.1323 964.3605 -0.194 -0.636 -0.747 18 29 38
-1850.6217 6192.2778 960.2311 -0.227 -0.624 -0.747 13 26 34
-1734.0294 6151.9268 886.8843 0.495 -0.838 -0.230 6 13 17
-1756.8033 6257.8472 895.4806 -0.003 -0.882 -0.471 9 13 13
-1752.1528 6271.4058 891.6685 -0.041 -0.878 -0.477 18 19 17
-4702.9443 3313.8054 2965.6785 0.836 -0.532 0.135 200 195 189
-4305.3955 4835.4678 2617.0205 0.317 -0.346 -0.883 225 220 217
-4356.8354 4909.2529 2645.8848 0.090 -0.996 -0.028 220 215 212
-4196.4297 4844.6260 2545.9443 0.178 -0.472 -0.863 235 228 222
-4005.5820 5590.7983 2377.6260 0.194 -0.687 0.700 81 52 41
-3997.0256 5600.3311 2371.5156 0.198 -0.685 0.701 71 46 34
-3883.6829 5763.8857 2288.3374 0.093 -0.948 -0.303 53 31 14
-3882.7190 5828.0195 2283.8635 0.639 -0.641 0.424 78 53 34
-3338.2444 5625.4165 1943.6234 0.871 -0.016 0.491 107 74 43
-3615.0178 6308.6743 2081.7429 0.157 -0.445 -0.882 121 86 57
-3482.0701 6347.5532 1993.3604 -0.429 -0.881 -0.201 122 91 60
-3433.0117 6285.6357 1965.3252 0.972 0.222 0.073 123 92 61
-3385.0557 6225.0933 1937.9209 -0.171 -0.847 -0.504 122 91 62
-2918.2842 5547.0483 1676.5151 0.268 -0.665 -0.697 126 95 66
-2779.2244 5610.8594 1582.6801 0.869 -0.364 0.335 46 32 18
-2846.9500 5809.2246 1614.6060 0.627 -0.767 0.138 32 24 15
-2722.6838 5928.1328 1527.0381 0.201 -0.979 -0.002 20 20 17
-2615.7598 5937.0562 1457.2975 -0.402 -0.746 -0.531 8 29 52
-2622.0447 5998.6064 1457.6702 -0.369 -0.845 -0.388 4 32 49
-2704.3987 6304.6294 1492.6011 -0.112 -0.720 -0.684 21 22 18
-2711.8948 6346.9917 1494.9095 -0.154 -0.641 -0.752 22 22 18
-2789.0098 6680.9585 1524.7721 0.516 -0.856 0.015 14 15 10
-2469.8945 5970.8164 1360.8617 0.969 0.214 -0.127 14 15 10
-2482.1511 6048.2417 1364.1465 0.945 0.310 -0.100 14 15 10
-2500.4075 6115.7134 1371.9121 0.949 0.300 -0.094 15 16 11
-2119.1277 5866.7871 1140.0781 0.152 -0.981 0.118 17 37 59
-2160.1267 6025.8613 1157.0646 0.756 0.295 -0.585 14 38 60
-2133.5713 6031.7881 1139.5211 -0.031 -0.880 -0.473 12 37 58
-2028.4609 5949.2349 1076.4459 -0.419 -0.704 -0.573 29 58 84
-1993.5165 6006.0913 1050.4154 0.693 0.053 -0.719 25 51 72
-2004.4053 6090.3706 1052.4034 0.934 -0.137 -0.331 24 51 72
-2002.2935 6110.9980 1049.7982 0.934 -0.137 -0.331 30 59 77
-2002.2186 6137.6860 1048.1477 0.913 -0.140 -0.384 69 101 111
-1866.3384 6193.0728 956.8762 -0.194 -0.636 -0.747 11 26 32
-1863.1106 6211.0171 953.7098 -0.225 -0.600 -0.767 12 25 31
-1774.7212 6095.3828 903.4430 0.444 0.155 -0.883 10 18 22
-1730.7759 6119.4116 873.5575 0.295 -0.955 0.014 8 12 14
-1769.7032 6279.3198 889.1529 -0.033 -0.874 -0.485 10 9 10
-1761.4250 6280.6650 883.7142 -0.050 -0.868 -0.495 13 6 6
-1744.7223 6253.2476 874.5496 0.172 -0.960 -0.221 45 35 34
-4064.2119 2909.2603 2563.6831 0.673 -0.202 -0.711 221 213 210
-4314.1240 4836.1226 2606.1985 0.536 -0.380 -0.754 225 220 217
-4217.7793 4859.3286 2542.6113 0.268 -0.396 -0.878 235 228 222
-4073.4133 5606.8359 2403.4175 0.604 -0.772 0.197 98 68 57
-4107.4092 5715.8223 2418.6355 0.981 0.169 -0.097 81 52 41
-3866.9385 5815.0293 2257.3818 0.689 -0.606 0.396 104 79 57
-3864.9482 5856.1050 2253.5669 0.715 -0.595 0.367 108 83 61
-3937.2878 5983.9990 2292.3574 0.722 -0.538 0.435 108 83 61
-3818.0317 6148.3252 2205.2942 0.256 0.416 -0.873 138 105 74
-3391.9326 5613.7847 1963.3275 0.895 0.180 0.409 130 97 64
-3558.7271 6223.8120 2033.3513 0.739 -0.104 0.665 127 92 62
-3432.6040 6294.5039 1947.6267 0.974 0.177 0.141 116 85 56
-3527.8694 6512.5342 1995.6545 0.972 -0.084 0.220 119 88 59
-3198.4680 6136.2539 1806.3224 0.139 -0.261 -0.955 122 95 67
-3191.3755 6146.9399 1801.0883 0.143 -0.251 -0.957 122 95 66
-3139.0249 6120.8608 1768.9207 0.659 -0.574 -0.486 113 87 58
-2773.2756 5585.7402 1565.9248 0.540 -0.819 0.194 40 28 16
-2834.3472 5838.4580 1589.7551 0.996 -0.063 -0.056 22 22 14
-2696.1089 6269.3228 1474.0234 -0.206 -0.843 -0.497 21 22 18
-2272.6252 5499.9668 1248.2115 0.958 0.250 -0.140 19 20 15
-2559.8716 6288.8901 1384.9235 0.995 0.033 0.091 20 21 16
-2052.9363 5651.4595 1097.1440 0.264 -0.879 0.397 16 29 43
-2140.1311 6005.6616 1131.5754 -0.074 -0.562 -0.824 11 31 49
-2136.4324 6021.3447 1128.2228 -0.080 -0.560 -0.824 10 31 49
-2089.2283 6073.8696 1094.5327 0.109 -0.950 -0.292 30 56 77
-2068.0078 6041.0347 1082.8652 -0.260 -0.865 -0.429 24 50 71
-2062.0601 6076.7666 1076.8263 -0.304 -0.673 -0.674 21 45 65
-2048.2954 6064.3140 1068.7133 -0.081 -0.865 -0.495 21 45 65
-2008.7290 5978.5503 1048.4708 -0.254 -0.556 -0.791 21 45 66
-2031.1042 6068.2788 1057.3781 -0.298 -0.815 -0.496 21 45 65
-2002.4431 6012.7969 1042.3054 0.693 0.053 -0.719 20 45 62
-2008.9492 6084.2725 1042.0991 0.934 -0.137 -0.331 20 45 63
-2009.9773 6113.9336 1040.9349 0.931 -0.152 -0.333 20 47 63
-2011.2186 6144.4077 1039.8583 0.879 -0.078 -0.471 20 49 58
-2015.5745 6211.4604 1038.5372 0.231 -0.945 -0.230 7 37 42
-1876.7404 6205.0601 949.3618 -0.194 -0.636 -0.747 12 25 31
-1796.2290 6144.4346 901.1546 0.429 0.148 -0.891 13 18 22
-1729.4728 6093.6543 861.2151 0.341 -0.939 0.037 9 12 13
-4300.6758 4997.7925 2570.9351 0.428 -0.814 -0.392 242 223 212
-4083.8035 5630.4785 2391.4907 -0.421 -0.521 -0.742 94 64 53
-3881.3613 5736.8071 2254.5852 -0.111 -0.937 -0.330 52 31 13
-3800.8921 6085.4741 2180.8057 0.287 0.426 -0.858 125 92 61
-3682.6089 6272.5396 2092.9197 0.741 0.492 -0.457 125 90 62
-3469.8855 5946.2998 1976.7352 -0.281 -0.800 -0.530 125 90 62
-3542.0559 6181.7720 2008.2678 0.739 -0.104 0.665 133 98 68
-3636.8757 6365.2124 2057.6538 0.739 -0.115 0.664 131 96 66
-3508.1382 6462.3550 1968.7268 0.964 -0.105 0.244 112 81 52
-3163.4705 6104.3784 1769.6965 0.283 -0.787 -0.549 123 95 71
-3148.3386 6123.5854 1758.7520 0.652 -0.562 -0.510 96 70 41
-2778.3030 5517.2363 1559.1018 0.279 -0.931 -0.237 51 41 31
-2775.2109 5532.7734 1556.1317 0.297 -0.811 -0.504 47 37 27
-2767.2778 5539.1050 1550.6301 0.297 -0.811 -0.504 36 26 16
-2855.2458 5842.2993 1588.0428 0.495 -0.069 -0.866 22 21 16
-2628.4116 5909.7627 1437.9069 0.691 0.190 -0.698 43 87 168
-2660.7620 6149.2812 1443.5763 -0.364 -0.527 -0.768 16 24 27
-2306.9509 6090.0688 1219.7881 0.101 0.146 -0.984 13 17 20
-2363.7998 6312.1304 1242.3153 0.399 0.227 -0.888 15 20 26
-2496.6965 6736.0942 1300.9897 0.552 0.272 -0.788 20 25 29
-2069.2102 5725.3794 1089.9449 0.912 0.278 -0.303 9 24 41
-2150.0989 6014.3071 1123.7065 0.211 -0.560 -0.801 8 24 38
-2150.5825 6041.2124 1122.3174 -0.080 -0.560 -0.825 8 24 39
-2129.7983 6036.7178 1109.2356 -0.067 -0.551 -0.832 27 46 63
-2075.4583 5991.4526 1077.1506 -0.411 -0.730 -0.546 51 72 88
-2091.5479 6061.6934 1083.0592 0.037 -0.953 -0.300 46 67 84
-2067.0698 6019.8945 1069.9591 -0.286 -0.462 -0.840 40 61 78
-2056.7256 6017.0488 1063.4866 -0.293 -0.479 -0.827 36 55 73
-2070.3518 6081.2231 1068.1943 -0.302 -0.707 -0.640 24 43 60
-2056.9180 6069.7876 1060.2778 -0.276 -0.688 -0.671 25 45 60
-2057.3477 6097.3413 1058.8132 0.358 -0.492 -0.793 24 43 60
-2026.1744 6061.6572 1041.0210 0.732 -0.105 -0.673 18 38 53
-2014.5254 6054.7368 1033.9670 0.847 -0.465 -0.257 18 38 53
-2003.0304 6127.9937 1021.9459 0.807 -0.248 -0.536 11 37 44
-1847.0135 5876.8364 937.4841 -0.335 -0.896 -0.292 17 30 39
-1885.5873 6212.0874 941.1066 -0.189 -0.644 -0.741 12 26 30
-1855.6451 6287.1553 917.1081 0.359 0.160 -0.920 8 16 22
-1819.8871 6200.1084 899.6129 0.430 0.152 -0.890 14 19 23
-1788.4834 6298.2871 873.2142 -0.113 -0.549 -0.828 11 9 10
-4695.4980 3280.6250 2918.6304 0.890 -0.451 0.076 201 196 190
-4319.5991 4842.8359 2576.5066 0.169 -0.591 -0.789 220 215 212
-4315.2222 5004.8218 2563.2107 0.353 -0.845 -0.401 242 223 212
-4099.1948 5639.6348 2383.6248 -0.421 -0.517 -0.745 93 63 52
-4092.1099 5651.4033 2378.3208 -0.423 -0.525 -0.738 86 56 45
-3817.4292 6120.8936 2171.8433 0.707 0.472 -0.527 114 81 50
-3794.0205 6107.8110 2157.6853 0.735 0.531 -0.422 120 87 56
-3705.4851 6296.0088 2088.7456 0.725 0.501 -0.473 125 90 62
-2803.6370 5573.4526 1557.4421 0.457 -0.857 0.238 43 35 24
-2817.7913 5622.0967 1563.3651 -0.118 -0.824 -0.555 30 20 10
-2798.2915 5606.5894 1551.8699 -0.065 -0.833 -0.550 29 17 5
-2637.9736 5914.9272 1429.1364 0.693 0.185 -0.696 45 78 161
-2440.8135 6462.8916 1267.2684 0.893 -0.340 0.294 13 18 21
-2162.6619 6029.8008 1117.0165 0.203 -0.557 -0.805 9 17 28
-2163.2319 6056.9492 1115.6239 0.063 -0.620 -0.782 7 17 28
-2150.1433 6047.6162 1107.8384 0.044 -0.628 -0.777 7 18 30
-2144.6284 6058.5352 1103.5961 0.006 -0.633 -0.774 25 38 49
-2126.4951 6035.3252 1093.4755 -0.021 -0.826 0.563 36 50 64
-2078.4958 5981.5669 1066.1887 -0.372 -0.737 -0.565 52 68 81
-2067.9900 6029.8926 1056.3248 -0.284 -0.461 -0.841 44 58 71
-2044.5470 6068.6162 1038.7899 0.338 -0.453 -0.825 26 40 51
-2126.4143 6327.5850 1074.4972 0.952 -0.081 -0.297 18 32 43
-2117.9033 6414.2417 1063.4296 0.981 -0.073 -0.180 23 41 51
-2023.4260 6194.9453 1017.0701 0.674 -0.236 -0.700 27 45 55
-1803.8368 6099.3071 882.5042 0.449 -0.119 -0.885 8 16 22
-1773.8560 6030.3672 867.7506 0.452 -0.327 -0.830 12 18 21
-1799.1068 6311.7837 865.7124 -0.113 -0.549 -0.828 11 8 9
-1771.9756 6250.1377 852.3131 -0.272 -0.877 -0.395 18 11 11
-1707.5110 6176.2607 815.7747 -0.072 -0.887 -0.456 139 129 128
-4089.3911 2901.3164 2541.8379 0.681 -0.217 -0.699 214 207 201
-4258.4229 4877.4517 2518.7659 0.208 -0.431 -0.878 231 224 218
-4093.8679 5600.4194 2365.6707 -0.376 -0.679 -0.631 91 61 50
-4045.8704 5578.9297 2336.4282 -0.375 -0.606 -0.701 80 50 39
-3848.9128 5731.4668 2200.4656 0.724 -0.572 0.386 84 59 37
-3787.2622 6084.2041 2137.6775 0.734 0.534 -0.420 124 91 60
-3758.1487 6108.0229 2117.4956 0.200 -0.485 -0.852 117 84 51
-3554.7480 6489.6963 1962.2178 0.971 -0.147 -0.187 117 86 57
-3523.1572 6458.8857 1944.0765 0.906 -0.069 0.417 113 82 53
-3516.9275 6472.6943 1939.1802 0.910 -0.064 0.410 113 82 53
-2818.6982 5632.0288 1548.8094 -0.118 -0.824 -0.555 27 17 5
-2902.5928 6288.6182 1558.8629 -0.462 -0.677 -0.573 21 23 21
-2729.8130 6169.3838 1456.3746 -0.368 -0.526 -0.767 3 39 96
-2720.2297 6173.2197 1449.9969 -0.359 -0.526 -0.771 11 37 82
-2603.6121 7001.1611 1320.5685 0.654 0.315 -0.688 4 9 13
-2164.9114 6017.8540 1105.4836 -0.275 -0.766 -0.581 7 10 15
-2159.5669 6054.7510 1099.6216 -0.236 -0.724 -0.648 5 10 17
-2126.3850 6016.8916 1080.9313 -0.038 -0.835 0.548 5 13 20
-2057.7458 6034.7466 1035.8901 -0.347 -0.790 -0.505 20 28 35
-2030.9761 6170.2847 1009.7957 0.758 -0.176 -0.628 21 33 44
-2025.8112 6209.4106 1003.9005 0.238 -0.904 -0.354 20 33 47
-1786.9644 6052.1030 861.7242 0.446 -0.310 -0.840 10 18 21
-1791.9052 6237.0586 852.6133 -0.028 -0.790 -0.613 10 11 13
-1797.1886 6283.4751 852.9104 -0.010 -0.211 -0.978 13 10 11
-1783.9324 6268.3076 845.4465 -0.074 -0.247 -0.966 27 19 20
-1779.3347 6281.9863 841.6015 -0.074 -0.247 -0.966 66 54 54
-1881.3590 1198.9480 1238.3500 0.808 0.252 -0.533 192 187 183
-3166.1230 2286.3186 1982.7692 0.370 0.096 -0.924 214 207 201
-4098.6221 2938.8760 2532.3579 0.524 -0.477 -0.706 204 196 193
-4088.2715 2943.8816 2525.4258 0.528 -0.263 -0.807 208 200 197
-4320.8657 4845.0337 2544.4834 0.266 -0.578 -0.771 235 228 223
-4277.4038 4889.3892 2513.7917 0.444 -0.610 -0.656 238 231 225
-4046.4302 5527.1357 2323.3889 0.357 0.086 -0.930 91 61 50
-4157.5386 5694.1211 2382.8147 -0.430 -0.582 -0.690 87 57 46
-3745.0645 5655.5103 2122.7378 0.085 -0.992 -0.096 126 101 79
-3745.7908 5677.8096 2121.6865 0.129 -0.991 -0.024 109 83 61
-3877.4851 6094.3286 2177.2810 0.034 -0.891 -0.453 124 91 60
-3857.5610 6087.0688 2165.0847 0.013 -0.891 -0.455 124 91 60
-3819.0310 6120.1230 2138.3013 0.665 0.553 -0.502 129 96 65
-3649.1030 5969.5396 2040.3007 0.038 -0.999 0.037 121 88 55
-3483.2212 5839.4844 1943.4832 0.823 0.486 -0.294 117 82 54
-3428.4280 6088.1509 1891.7032 0.408 -0.835 -0.370 114 83 52
-3519.7612 6413.3345 1927.7937 0.173 0.185 -0.967 114 83 54
-3513.0833 6426.1963 1922.6674 0.937 -0.195 0.290 113 82 53
-3411.4265 6517.0522 1851.7552 -0.328 -0.455 -0.828 108 80 56
-2699.4692 5308.6367 1480.3657 0.392 -0.863 0.319 62 50 40
-2838.9260 5635.1641 1547.0142 0.360 -0.933 0.011 27 17 7
-2933.7312 5837.7134 1593.6421 0.512 -0.854 0.091 27 17 5
-2952.6660 6376.4707 1569.1227 -0.486 -0.671 -0.559 22 24 24
-2724.3057 7353.2417 1357.3661 0.779 0.331 -0.532 8 8 11
-2039.2223 6256.1528 995.5338 0.678 -0.240 -0.695 21 26 40
-2032.9187 6265.1172 990.9105 0.688 -0.204 -0.697 20 26 40
-2032.4963 6291.4497 988.8536 0.547 -0.270 -0.793 19 27 40
-2030.1151 6312.1338 985.9327 0.559 -0.264 -0.786 18 26 39
-2046.0851 6387.6006 990.9800 0.585 0.162 -0.795 14 24 36
-1800.4933 6243.8687 844.3251 -0.026 -0.782 -0.623 10 11 13
-1797.7480 6263.5771 841.2386 0.284 0.062 -0.957 13 10 11
-1787.2085 6257.4443 834.9426 0.551 0.205 -0.809 27 19 20
-1798.3102 6323.5718 837.5233 0.320 0.101 -0.942 66 54 54
-1807.3915 6383.4604 839.2409 0.346 0.115 -0.931 116 106 105
-1806.9255 6411.5986 837.0338 0.358 0.119 -0.926 135 125 124
-1980.4069 7197.2217 894.1817 0.941 -0.333 -0.058 145 121 121
-1973.9677 7312.2778 882.2690 0.948 -0.307 0.081 149 123 124
-4109.0137 2929.5635 2526.7402 0.559 -0.362 -0.746 210 202 199
-4395.5859 4916.3696 2570.6653 -0.286 -0.954 0.086 230 222 218
-4361.4854 4898.2266 2550.2776 -0.279 -0.954 0.107 238 231 225
-4280.7363 4884.1968 2499.9902 0.438 -0.621 -0.650 247 240 234
-4162.1919 5710.2788 2367.3574 -0.364 -0.900 -0.240 80 50 39
-3734.2217 5628.0991 2101.3789 0.246 -0.969 -0.028 120 95 73
-3885.1807 5957.1719 2174.3550 0.769 0.480 -0.422 127 96 67
-3855.7925 5958.3979 2155.6135 0.873 0.094 -0.479 125 94 65
-3822.8157 5998.8652 2131.8682 0.295 0.308 -0.905 124 91 60
