ply
format ascii 1.0
element vertex 802
property float x
property float y
property float z
property float nx
property float ny
property float nz
property uchar diffuse_red
property uchar diffuse_green
property uchar diffuse_blue
end_header
-1061.8202 4581.1074 -1411.4449 0.184 -0.873 -0.451 216 98 88
-1054.9153 4581.3931 -1415.9698 0.233 -0.808 -0.541 216 91 83
-1050.3256 4593.3569 -1423.9962 0.249 -0.813 -0.527 213 83 77
-1016.7919 4563.2563 -1432.5486 0.174 -0.747 -0.641 226 71 73
-1011.9390 4573.8755 -1440.1699 0.160 -0.751 -0.640 233 65 72
-3545.9644 2050.4434 1242.2875 0.267 -0.586 0.765 86 73 54
-4305.1553 2608.3206 1486.4202 0.079 -0.651 0.755 45 36 21
-3802.9905 2696.9998 1128.8491 0.493 -0.393 -0.776 34 24 14
-3870.7793 2781.7317 1135.6874 0.590 -0.581 -0.561 69 36 12
-3752.7495 2796.0967 1054.4188 0.529 -0.450 0.719 111 59 29
-3483.3367 2971.8096 807.6827 0.858 -0.513 0.005 24 21 15
-3479.8298 2977.6377 802.9539 0.858 -0.513 0.005 22 21 13
-3230.6616 2806.9133 717.5283 0.228 -0.918 0.325 35 14 7
-3302.0508 2991.6267 683.8220 0.810 -0.541 0.225 61 27 9
-3290.3865 2989.4219 677.3434 0.818 -0.529 0.225 65 34 15
-3370.7493 3145.4192 661.6511 0.498 -0.664 0.558 114 76 68
-3191.3594 3126.9111 555.4169 0.788 -0.607 0.102 124 87 74
-3174.1526 3128.3489 543.8506 0.339 -0.939 -0.056 123 88 75
-3230.5630 3270.2058 518.9732 0.800 -0.111 0.590 57 45 32
-2446.7300 3444.2991 -54.4457 -0.083 -0.887 0.454 29 24 30
-2496.1990 3676.8923 -122.6155 0.736 0.022 -0.677 211 177 175
-2303.7822 3756.8621 -279.3317 0.592 -0.805 -0.048 137 96 93
-2213.2751 3738.5771 -329.0963 -0.194 -0.914 -0.356 142 99 96
-1923.8540 4158.9258 -693.3771 0.427 -0.890 0.159 242 203 198
-1209.3873 4613.8911 -1342.9878 0.008 -0.895 -0.446 226 149 139
-1204.7710 4625.3228 -1350.8235 0.093 -0.962 -0.257 226 149 139
-1016.3892 4532.8521 -1431.0916 0.398 -0.595 -0.698 219 68 68
-3845.9294 2740.2078 1126.7152 0.494 -0.375 -0.785 32 24 15
-3857.4658 2757.2363 1126.7100 0.352 -0.713 -0.606 35 24 13
-3873.0557 2777.4790 1127.8948 0.525 -0.605 -0.599 65 36 14
-3758.0525 2753.0347 1065.3787 0.973 -0.200 0.115 87 44 19
-3665.8479 2913.9036 937.5456 0.401 -0.800 0.446 113 61 30
-3629.9739 2891.8091 924.2749 0.541 -0.841 -0.023 114 61 29
-3328.6904 3010.8352 681.6674 0.832 -0.500 0.240 62 28 17
-3322.1160 3079.7390 647.8212 0.435 -0.849 0.299 122 76 69
-3178.6326 2982.1096 598.7303 0.831 -0.420 0.366 119 79 71
-3231.3379 3252.9883 515.5632 0.817 -0.098 0.568 40 39 34
-3069.3174 3096.5786 480.0099 0.295 -0.524 -0.799 47 48 41
-3055.9653 3091.8071 473.5842 0.831 -0.337 0.443 53 54 46
-2458.9160 3441.1614 -56.0540 -0.074 -0.890 0.450 38 38 40
-2448.5854 3437.7332 -61.1391 -0.074 -0.890 0.450 40 38 43
-2301.1541 3755.5793 -291.6436 0.577 -0.814 -0.062 122 81 75
-2264.3496 3762.1895 -317.8656 0.369 -0.915 0.161 121 80 75
-1917.7460 4129.9868 -696.3797 0.463 -0.837 0.292 236 199 190
-1553.5593 3937.2556 -844.6947 0.630 -0.597 0.497 240 190 191
-1205.9974 3280.3535 -782.5764 0.833 -0.501 -0.234 241 211 205
-1207.0319 4610.2607 -1354.5847 -0.083 -0.973 -0.215 228 152 145
-1066.5544 4169.2002 -1253.8832 -0.311 -0.900 0.305 231 141 132
-1040.8860 4595.4082 -1453.7135 -0.126 -0.891 -0.437 216 79 72
-1031.6021 4583.3389 -1454.4130 -0.103 -0.917 -0.385 222 76 72
-1071.6694 4865.5923 -1550.5048 0.270 -0.326 -0.906 245 49 66
-3846.0605 2734.3892 1118.3711 0.497 -0.798 -0.342 32 25 15
-3983.7207 2865.4280 1148.9188 0.617 -0.319 -0.720 71 34 11
-3762.5627 2783.5056 1044.1887 0.938 -0.076 0.338 102 58 33
-3709.9912 2841.3274 985.8420 0.815 -0.265 0.514 102 49 13
-3706.9741 2847.3264 981.3335 0.809 -0.264 0.525 102 49 13
-3704.0901 2870.5679 969.4471 0.934 -0.199 0.298 99 46 10
-3695.9558 2889.5979 956.0554 0.247 -0.636 0.731 101 48 16
-3646.7671 2891.1384 924.2098 0.324 -0.877 0.355 108 55 24
-3629.3616 2884.8938 915.8796 0.594 -0.800 -0.083 108 55 23
-3142.6404 3149.1611 492.9977 0.867 -0.280 0.413 38 40 37
-3029.7380 3075.3062 453.3955 0.966 -0.204 0.161 42 51 45
-3035.9966 3092.0388 450.1213 0.905 -0.294 0.309 41 50 43
-2671.0879 2750.4341 366.6563 0.760 -0.337 0.556 31 46 44
-2687.5110 3390.9275 99.8787 0.413 -0.105 -0.905 65 32 30
-2408.8120 3249.5757 -15.6051 0.078 -0.995 0.064 10 11 6
-2403.4990 3253.2583 -20.5665 0.068 -0.995 0.067 10 10 8
-2376.3667 3247.5850 -35.3094 -0.193 -0.964 0.183 19 19 21
-2462.7898 3437.6868 -62.7997 -0.173 -0.878 0.446 34 34 36
-2453.0483 3435.1714 -67.8859 -0.171 -0.878 0.446 36 34 39
-2432.7109 3441.0852 -83.3364 -0.263 -0.963 0.059 36 34 39
-2230.7168 3748.1907 -344.2796 -0.194 -0.914 -0.356 196 157 150
-2140.1877 3711.6926 -385.8673 0.309 -0.729 0.611 230 189 185
-1588.9530 3771.8455 -761.3068 -0.125 -0.756 0.642 241 204 198
-1568.2588 3753.2461 -766.3748 0.254 -0.764 0.594 238 204 195
-1540.6265 3885.3147 -841.0454 0.609 -0.655 0.448 242 195 195
-1296.3402 3626.5088 -883.8853 -0.022 -0.334 -0.942 39 24 17
-1252.9742 3526.8916 -868.2618 0.286 -0.823 -0.491 39 24 17
-1074.1387 4180.2432 -1264.3712 -0.293 -0.901 0.319 231 141 132
-1080.2457 4659.7529 -1468.0187 -0.065 -0.903 0.425 209 91 77
-3847.5637 2729.6375 1110.4587 0.446 -0.823 -0.352 32 25 15
-3764.1475 2745.8962 1050.6184 0.794 -0.429 0.432 85 45 20
-3759.1553 2750.1125 1045.6266 0.794 -0.429 0.432 86 45 17
-3727.1584 2798.7463 1004.2330 0.939 -0.270 0.214 119 66 36
-3756.1714 2873.2197 990.1950 0.619 -0.636 0.461 102 48 13
-3737.3867 2866.2598 981.3391 0.612 -0.649 0.453 102 48 12
-3651.2571 2888.5945 917.1397 0.322 -0.856 0.403 102 49 18
-3584.7644 2980.7449 834.9971 0.627 -0.657 0.418 58 24 9
-3574.3650 2980.4268 828.5569 0.497 -0.716 0.491 54 22 9
-3216.2605 3044.1440 574.3088 0.650 -0.408 0.641 84 46 37
-3188.8975 3131.8367 518.8583 0.963 -0.268 -0.037 42 16 15
-3177.1694 3139.1211 508.2708 0.809 -0.479 0.339 45 29 33
-2685.2737 2724.4656 377.4498 -0.694 -0.667 -0.270 28 43 42
-2416.5615 3252.2566 -22.0924 0.068 -0.995 0.067 10 11 6
-2408.8750 3252.4502 -27.0391 0.068 -0.995 0.067 10 10 8
-2388.9075 3245.9451 -36.8411 -0.203 -0.956 0.211 19 19 21
-2381.7422 3246.8291 -41.7583 -0.197 -0.963 0.184 19 19 21
-2434.7939 3434.8708 -89.9846 -0.296 -0.945 0.137 29 27 32
-2424.1230 3430.8035 -94.9659 -0.296 -0.945 0.137 32 30 35
-2468.3284 3511.7002 -102.1870 -0.273 -0.928 0.255 32 30 35
-1863.0275 3937.3450 -670.2261 0.485 -0.835 0.260 239 198 190
-1858.0751 3943.3840 -675.9856 0.255 -0.939 0.232 230 192 183
-3436.3657 2095.9368 1116.9321 0.849 -0.194 0.492 36 34 22
-3898.0559 2770.5503 1113.5337 0.479 -0.354 -0.804 33 23 11
-3747.5049 2751.2400 1026.9274 0.782 -0.437 0.445 85 40 17
-3744.1328 2814.7532 997.0367 0.943 -0.287 0.166 117 67 39
-3668.6404 2897.0422 913.4075 0.415 -0.826 0.383 99 45 17
-3581.9534 2935.8647 841.7101 -0.088 -0.604 -0.792 73 36 15
-3528.2163 2914.6353 817.0641 0.703 -0.645 0.298 68 28 5
-3522.5503 2918.3989 811.8417 0.703 -0.645 0.298 69 29 9
-3191.9819 3127.7615 511.6320 0.970 -0.240 -0.035 39 17 15
-3184.7317 3129.9241 506.1094 0.928 -0.335 0.162 42 25 26
-3137.7476 3089.7195 494.0207 0.936 -0.247 0.251 47 36 38
-2395.0911 3246.3701 -43.3109 -0.055 -0.833 -0.551 19 19 21
-2386.9873 3245.8726 -48.2096 -0.197 -0.962 0.187 19 19 21
-1872.0876 3944.8240 -678.7937 0.248 -0.962 -0.110 238 198 190
-1789.0498 3819.8145 -676.5757 0.877 0.231 -0.421 221 184 175
-1382.3394 3825.8423 -935.9778 -0.163 -0.921 0.354 34 14 9
-3828.4214 2792.7393 1048.8444 0.694 -0.594 0.408 76 32 7
-3744.5774 2734.8110 1021.4636 0.774 -0.536 0.337 77 31 7
-3632.1970 2911.6633 872.9717 0.218 -0.339 -0.915 93 46 16
-3268.0688 2997.8562 605.6874 0.505 -0.838 0.206 130 83 75
-3207.0459 2946.3979 589.8433 -0.135 -0.918 0.373 129 85 76
-3179.0205 2945.8237 572.4379 0.851 -0.516 -0.095 118 75 66
-3234.0068 3010.4119 578.7109 0.666 -0.656 -0.355 109 67 60
-3204.3770 3017.9282 556.7407 0.556 -0.404 0.727 112 74 65
-3126.3721 3070.3623 484.5603 0.944 -0.255 0.209 62 58 56
-2411.6370 3250.5645 -44.9226 -0.064 -0.866 -0.496 11 11 11
-2405.9407 3253.6821 -49.8810 -0.029 -0.786 -0.617 16 16 18
-2408.4539 3268.9795 -55.0172 -0.124 -0.761 -0.637 23 23 25
-1846.5443 3959.7087 -712.4692 0.828 -0.541 0.146 233 196 187
-1814.4689 3991.0208 -746.4331 -0.415 -0.664 -0.622 56 31 19
-1399.2065 3883.1675 -960.6965 -0.008 -0.891 0.453 40 23 16
-3498.4587 2066.5137 1150.9203 0.251 -0.431 0.867 66 62 51
-3433.2737 2091.0852 1099.0858 0.575 -0.655 0.491 42 40 28
-3440.0330 2101.8174 1098.5984 0.695 -0.448 0.562 38 36 24
-3875.4631 2733.2664 1093.6517 0.193 -0.447 -0.874 30 23 13
-3938.3572 2797.6548 1104.7758 0.719 -0.161 -0.676 60 32 10
-3691.1477 2776.1394 958.8298 0.717 -0.374 0.588 118 66 35
-3617.0332 2900.8411 857.1799 0.620 -0.773 -0.135 93 46 16
-3446.1396 2906.9934 747.0073 0.952 -0.255 0.172 55 17 0
-2480.8967 2689.3743 236.1337 0.290 -0.953 0.093 101 39 18
-2777.4409 3124.1604 230.6698 0.884 -0.008 -0.468 138 80 65
-2726.9214 3397.8535 78.0865 0.596 -0.055 -0.801 74 34 27
-2434.7852 3264.3176 -46.6596 -0.166 -0.800 -0.577 9 9 7
-2428.4758 3266.5999 -51.6343 -0.166 -0.800 -0.577 11 11 11
-1842.1284 3865.7888 -684.8270 0.698 -0.407 0.589 222 184 175
-1848.8428 3951.3601 -718.3790 0.821 -0.547 0.165 237 199 190
-1855.3840 3984.6592 -728.9651 0.266 -0.964 0.014 194 158 148
-1853.1716 3997.3987 -735.9799 0.242 -0.968 -0.060 79 46 36
-1844.1737 3994.0098 -740.1417 0.259 -0.963 -0.070 49 22 10
-1569.1997 3983.5913 -908.4444 0.953 0.299 0.056 229 206 198
-1376.5664 3755.6719 -928.9598 0.746 -0.467 0.475 70 48 42
-1108.4216 4329.8672 -1351.0356 -0.337 -0.532 -0.777 202 110 99
-970.9717 4173.7905 -1368.5660 0.436 -0.879 0.191 237 75 75
-3382.6943 1987.0527 1104.4904 0.377 -0.398 0.836 74 67 57
-3398.7524 2003.3822 1107.3235 0.522 -0.332 0.785 74 68 57
-3355.8428 2077.4670 1047.5328 0.021 -0.898 0.440 37 35 23
-3625.1614 2692.3530 943.7762 -0.170 -0.762 0.625 84 34 8
-3525.6221 2928.1147 776.7296 0.323 -0.275 0.906 84 38 14
-3242.6028 2816.6179 648.5872 0.840 -0.477 0.259 65 28 19
-3201.3740 2963.8044 557.4237 0.696 -0.545 -0.467 72 30 23
-3197.2334 2968.8652 552.5804 0.690 -0.546 -0.475 104 64 56
-3233.0801 3023.6851 550.7572 0.579 -0.679 -0.451 124 86 77
-3169.4729 3131.0745 463.2044 0.522 -0.761 -0.385 28 55 46
-2551.7014 2739.9482 249.0388 0.359 -0.689 -0.629 93 35 11
-2536.5459 2731.0093 243.4936 0.168 -0.943 -0.288 93 35 11
-2448.5867 3275.7583 -53.3516 -0.122 -0.768 -0.629 9 9 7
-2440.2698 3275.1455 -58.2990 -0.117 -0.768 -0.629 11 11 11
-2497.0923 3530.1982 -135.7818 0.220 -0.959 0.177 22 17 21
-2452.0347 3498.5469 -150.0161 -0.098 -0.985 0.145 40 33 27
-1843.4601 3855.5906 -690.2960 0.698 -0.407 0.589 215 176 168
-1122.7511 4370.1704 -1370.8254 -0.329 -0.529 -0.782 201 109 98
-3193.1267 1991.6886 974.9927 0.527 -0.644 0.555 36 33 24
-3589.5601 2763.0823 879.4069 0.611 -0.380 0.694 98 51 22
-3600.4851 2970.6038 793.7444 0.500 -0.223 0.836 95 39 9
-3231.4202 2968.5750 563.5180 0.223 -0.868 0.444 79 35 24
-3156.0955 2985.1379 508.9620 0.832 -0.470 0.294 113 80 71
-3113.9224 2978.9714 485.2996 0.880 -0.367 0.302 77 49 38
-3119.0215 2993.6345 481.9566 0.781 -0.538 0.315 51 21 11
-3087.5015 3007.7424 455.9283 0.820 -0.479 0.315 70 77 74
-2562.9636 2746.4846 243.8893 0.372 -0.675 -0.637 95 37 12
-2553.0010 2743.7275 238.8792 0.376 -0.879 -0.292 95 37 12
-2445.1233 2633.6707 220.3786 0.248 -0.964 0.099 102 40 19
-2696.3120 3327.8801 68.2377 0.633 0.032 -0.773 90 50 40
-2500.1565 3525.2654 -142.5930 0.758 -0.611 0.230 23 17 21
-2452.5261 3489.7078 -156.5719 0.095 -0.993 0.074 55 43 38
-2443.5598 3488.3918 -161.6006 0.065 -0.995 0.074 76 60 56
-1884.8583 4026.3474 -751.2917 0.851 -0.018 0.524 165 122 114
-1770.6973 3861.2437 -749.1896 -0.013 -0.944 -0.329 64 35 25
-1183.1503 4551.9590 -1425.0397 -0.180 -0.498 -0.849 219 130 121
-3198.4397 2002.9203 964.8020 0.648 -0.751 0.128 36 32 23
-3391.4478 2812.1887 722.9418 0.607 -0.196 0.770 97 40 14
-3151.1890 2973.1936 500.6638 0.811 -0.460 0.361 122 87 78
-3153.0796 2984.4346 496.8103 -0.260 -0.779 0.570 116 86 76
-3124.2288 3039.4109 454.1537 0.963 -0.236 0.131 70 73 72
-2567.0908 2744.6084 237.9943 0.356 -0.684 -0.637 103 48 19
-2558.3765 2743.3340 233.1187 0.212 -0.850 -0.482 103 48 18
-2774.7986 3077.5708 218.6692 0.321 -0.000 -0.947 162 101 78
-2511.1438 3519.8284 -144.2103 0.762 -0.579 0.291 18 7 9
-2507.5811 3527.0186 -149.6577 0.749 -0.606 0.269 42 25 27
-2459.9949 3491.6926 -163.5754 0.172 -0.982 0.074 116 80 80
-1772.0583 3958.3049 -802.5376 0.738 -0.650 0.180 137 56 62
-1744.3213 3907.8020 -797.2517 0.684 -0.387 0.619 130 49 55
-1196.0353 4583.7124 -1442.6825 -0.170 -0.508 -0.844 215 128 115
-1162.9092 4500.3774 -1426.0583 -0.307 -0.528 -0.792 206 115 100
-766.4064 2992.9602 -998.6649 0.393 -0.319 -0.863 213 96 79
-3208.9692 1999.9332 964.2049 0.517 -0.839 0.170 43 39 30
-3194.8367 2002.0551 954.4350 0.528 -0.815 0.239 42 38 29
-3792.9065 2631.8274 1044.0177 0.548 -0.575 0.608 25 15 5
-3898.5452 2719.2112 1070.5774 0.439 -0.275 -0.856 25 15 5
-3902.2002 2730.0042 1067.9995 0.443 -0.258 -0.859 24 14 5
-3742.3521 2711.5730 976.5933 -0.325 -0.934 0.147 59 30 12
-3539.6443 2775.2869 821.4821 0.759 -0.429 0.489 101 47 21
-3156.1594 2971.3738 494.0361 0.782 -0.490 0.386 121 88 77
-3151.6233 2976.0188 489.1160 0.311 -0.690 0.654 105 75 64
-3178.5857 3118.7554 441.6899 0.520 -0.602 -0.606 10 45 50
-2565.3306 2744.7878 227.5020 0.212 -0.850 -0.482 103 48 18
-2810.2437 3112.6873 214.6755 0.292 -0.011 -0.956 168 108 84
-2734.3125 3217.5085 120.1367 0.361 -0.860 0.360 121 73 75
-2536.2427 3388.6067 -80.4136 0.842 -0.539 0.008 20 18 19
-2534.6274 3398.1868 -85.7328 0.770 -0.634 -0.077 20 18 19
-2503.1853 3448.5769 -128.0240 0.051 -0.310 -0.949 33 39 35
-2509.9390 3521.0188 -156.4165 0.749 -0.606 0.268 65 45 47
-2463.9856 3500.8865 -176.0176 0.118 -0.986 0.120 181 139 140
-1770.6145 3851.3726 -766.2411 0.401 -0.483 -0.778 44 23 12
-1754.3274 3864.7683 -782.4291 0.816 -0.380 -0.435 107 62 57
-1746.8923 3864.3335 -786.8708 0.624 -0.680 0.384 121 49 52
-1758.2583 3910.1682 -800.4109 0.335 -0.586 0.738 117 40 45
-1659.0461 3841.5696 -831.4174 0.847 -0.072 0.527 69 26 24
-1627.5690 3851.4568 -855.5007 -0.358 -0.857 -0.371 63 49 45
-1202.7344 3323.3450 -882.7873 0.975 -0.174 -0.139 38 28 13
-3209.7568 1996.1703 957.8832 0.513 -0.843 0.164 48 44 35
-3197.3250 1993.5341 951.3370 0.853 -0.518 -0.071 48 44 35
-3194.0891 1997.2258 947.6531 0.531 -0.814 0.236 47 43 34
-3199.8315 2007.1481 946.7404 -0.104 -0.848 0.519 44 39 33
-3823.7698 2610.5356 1062.2395 0.802 -0.373 0.466 33 27 19
-3828.3464 2629.3748 1056.5685 0.553 -0.563 0.615 31 18 9
-3832.6453 2640.3442 1054.2836 0.592 -0.522 0.614 30 17 8
-3790.8716 2624.6387 1035.3837 0.548 -0.575 0.608 18 8 1
-3816.9844 2652.0339 1039.2487 0.788 -0.493 0.369 22 12 3
-3743.9187 2698.9133 972.5668 0.922 -0.307 -0.235 58 29 11
-3735.5359 2700.3660 966.6920 0.914 -0.368 -0.168 58 29 11
-3758.4460 2726.3560 969.1987 0.985 -0.149 0.092 65 36 18
-3829.3992 2806.8552 976.9590 0.919 -0.355 0.171 76 50 33
-3642.4036 2780.3787 872.5352 0.765 -0.452 0.458 66 35 15
-3590.8574 2754.2332 852.2737 0.825 -0.357 0.437 81 38 14
-3335.1445 2765.9883 687.7857 0.475 -0.583 0.659 90 36 8
-3156.5701 2964.9089 486.6687 0.782 -0.490 0.386 98 65 54
-3151.8000 2978.5828 477.5155 -0.264 -0.783 0.563 72 45 32
-2504.2239 3392.3818 -112.7154 0.049 -0.789 -0.613 25 23 24
-2505.0417 3491.4839 -157.0249 0.293 -0.687 -0.665 72 52 57
-2500.6104 3509.8008 -168.0669 0.117 -0.988 0.101 105 74 80
-1836.6281 3924.7979 -769.0520 0.481 -0.719 0.501 58 33 22
-1771.0597 3874.0107 -786.8976 0.617 -0.287 -0.733 67 38 27
-1763.6086 3873.6331 -791.3649 0.741 -0.362 -0.565 96 56 49
-1784.5635 3942.6296 -809.5246 0.661 -0.361 -0.658 114 53 52
-1350.9296 3563.1907 -907.8463 0.762 -0.007 -0.647 231 192 184
-804.5614 3210.5713 -1088.4698 0.550 -0.243 -0.799 237 58 62
-3193.3845 1992.4391 940.9037 0.850 -0.520 -0.086 58 54 45
-3121.3467 1960.1467 910.8278 0.211 -0.968 -0.140 44 41 34
-3095.4805 1965.4126 892.3670 0.200 -0.654 -0.729 35 32 25
-3810.9031 2610.7849 1043.5249 0.745 -0.428 0.512 26 16 6
-3807.8245 2616.2026 1039.1506 0.744 -0.416 0.523 24 14 5
-3807.3396 2623.5671 1035.5028 0.514 -0.622 0.591 23 13 4
-3751.6418 2699.0833 966.5884 0.929 -0.296 -0.223 57 28 10
-3747.9473 2704.2063 961.9656 0.926 -0.301 -0.227 56 27 9
-3758.5713 2720.5483 961.1392 0.985 -0.149 0.092 59 30 12
-3687.3372 2802.9438 879.4476 0.709 -0.486 0.511 63 32 14
-3648.9353 2787.9834 862.3906 0.763 -0.427 0.486 65 32 13
-3631.7563 2782.0847 854.3995 0.794 -0.472 0.383 69 33 12
-3596.2632 2760.9136 841.9716 0.735 -0.493 0.465 71 32 11
-3416.6511 2732.0896 743.4947 0.826 -0.365 0.429 98 47 20
-3321.3386 2755.7539 673.5335 0.611 -0.514 0.602 93 37 10
-3163.1760 2964.7588 480.3101 0.795 -0.471 0.382 72 39 28
-3894.4358 4124.1479 407.7333 -0.216 -0.766 -0.605 36 51 49
-2682.2146 3297.5266 30.3258 0.518 -0.688 0.508 53 20 16
-2521.6155 3457.5178 -142.1391 0.206 -0.830 -0.519 38 36 34
-2516.4597 3462.1003 -147.4243 0.206 -0.830 -0.519 42 35 35
-2546.0474 3518.8972 -154.8532 0.161 -0.764 -0.624 46 33 37
-1731.3733 3614.8591 -704.5331 0.894 -0.189 0.406 176 133 117
-1654.5074 3766.1255 -821.0184 0.798 -0.272 0.538 69 40 34
-1155.7610 3307.8623 -922.6011 0.697 -0.054 0.715 44 17 13
-1149.8770 3742.3347 -1123.6832 -0.001 -0.996 -0.090 248 180 181
-797.5617 3088.1416 -1045.2714 0.321 -0.353 -0.879 215 94 79
-799.6777 3144.3867 -1069.5150 0.350 -0.300 -0.888 221 69 64
-3198.2432 1997.4167 933.1697 -0.018 -0.917 0.398 57 54 45
-3168.0933 1988.3776 918.6058 -0.031 -0.935 0.353 49 49 41
-3144.0171 1977.5295 908.6330 -0.027 -0.994 -0.110 49 49 41
-3133.3340 1975.9578 902.7278 -0.015 -0.994 -0.107 43 43 35
-3131.0249 1980.2257 899.3477 0.131 -0.850 -0.510 39 39 31
-3116.6816 1976.0525 892.3611 0.178 -0.701 -0.690 40 37 30
-3137.9844 2002.8887 893.3149 0.141 -0.651 -0.746 39 36 29
-3820.8022 2612.5103 1038.2838 -0.361 -0.931 0.046 23 13 3
-3795.9282 2601.7493 1027.7767 -0.351 -0.935 0.059 24 16 5
-3811.1404 2620.7607 1028.5272 -0.173 -0.982 0.080 24 16 5
-3650.5518 2783.2146 854.8017 0.772 -0.412 0.485 62 30 14
-3642.0405 2784.4956 848.9406 0.781 -0.407 0.474 60 28 12
-3599.9382 2766.1628 831.2101 -0.051 -0.977 0.207 59 29 13
-3567.8220 2764.1543 812.2172 0.745 -0.558 0.366 60 29 13
-3598.1160 2806.3169 811.7474 0.646 -0.544 0.535 69 33 11
-3594.8718 2811.9907 807.1458 0.863 -0.500 0.077 75 38 10
-3589.2668 2815.6743 801.9892 0.847 -0.521 0.105 76 37 5
-3425.2280 2741.7080 734.0667 0.808 -0.417 0.416 99 45 17
-3291.9133 2748.0759 648.5129 0.552 -0.502 0.666 84 37 14
-3361.4182 2845.4912 647.1248 0.039 -0.644 0.764 78 30 8
-3239.2119 2835.5908 575.8853 0.357 -0.820 0.447 47 7 2
-3217.9846 2894.4998 535.8298 0.196 -0.878 0.436 82 39 23
-3204.9995 2890.7437 529.4948 0.200 -0.874 0.443 80 37 21
-3194.5583 2889.4421 523.6162 0.200 -0.880 0.431 73 31 15
-3180.6292 2893.6196 513.0737 0.628 -0.748 0.215 62 18 5
-3154.1895 2885.3445 500.4609 0.534 -0.834 0.141 71 29 17
-2902.9126 3285.6726 161.9096 -0.082 -0.831 0.550 162 113 109
-2757.4534 3190.6870 115.1017 0.131 -0.851 0.509 164 114 117
-2734.7063 3313.9143 44.7387 -0.347 -0.545 -0.763 68 30 21
-2665.8083 3357.5842 -17.9119 0.503 -0.846 -0.174 14 13 8
-2571.6619 3436.8252 -112.4551 0.906 -0.317 0.280 23 21 22
-2535.3179 3395.9124 -116.3066 0.098 -0.878 -0.468 27 25 26
-2460.7988 3322.2065 -128.8519 0.262 -0.955 0.139 30 28 29
-2529.1931 3471.7939 -154.7485 0.240 -0.816 -0.525 40 27 29
-1786.7941 3902.3057 -811.5439 0.612 -0.185 -0.769 55 24 14
-1784.5686 3914.7473 -818.6040 0.673 -0.159 -0.722 69 31 22
-1309.3197 2907.8018 -653.4889 0.492 -0.623 -0.608 56 31 23
-1333.1268 3177.0474 -761.6587 0.194 -0.520 0.832 39 30 23
-1188.2271 3183.2671 -854.3267 0.326 -0.929 0.176 136 93 71
-1163.0798 3727.9873 -1118.6173 0.190 -0.823 -0.536 241 176 174
-1145.4565 3730.6326 -1130.7504 -0.011 -0.994 -0.112 236 171 167
-3191.6584 1965.1062 935.4294 -0.049 -0.814 0.579 67 63 54
-3180.5369 1992.7162 915.8834 0.053 -0.903 0.426 55 55 45
-3165.2839 1988.0438 908.5903 0.058 -0.904 0.423 56 55 45
-3149.0791 1982.6669 901.0314 0.036 -0.984 -0.173 51 48 39
-3146.4966 1986.7639 897.5542 -0.044 -0.890 -0.454 47 44 35
-3140.8579 1988.7273 893.1651 -0.044 -0.890 -0.454 47 44 37
-3182.6790 2024.0372 902.8409 0.978 -0.163 -0.130 47 44 37
-3188.4834 2034.1493 901.7933 0.989 -0.138 -0.054 42 39 32
-3182.8352 2036.2100 897.3538 0.398 -0.677 -0.619 39 36 29
-3175.9165 2037.3662 892.5428 0.343 -0.698 -0.628 39 36 29
-3176.5217 2043.8602 889.9383 0.976 -0.188 -0.108 39 36 29
-3914.2097 2621.4155 1081.3833 0.312 -0.282 0.907 37 34 25
-3840.4639 2590.7437 1049.8290 0.820 -0.317 0.476 31 28 19
-3836.0122 2595.1182 1045.0681 0.820 -0.317 0.476 22 23 12
-3817.9497 2597.1340 1032.9686 0.649 -0.583 0.489 21 14 2
-3820.2822 2621.9263 1023.0389 -0.173 -0.982 0.080 37 29 16
-3778.9338 2614.2285 1000.9891 0.139 -0.922 0.362 78 67 56
-3796.0837 2721.8733 962.2196 0.961 -0.277 0.009 54 25 7
-3794.1528 2728.4373 958.0142 0.961 -0.277 0.009 54 25 7
-3606.4524 2765.5044 824.8858 -0.057 -0.979 0.194 56 29 16
-3576.5640 2765.3992 806.4431 0.788 -0.503 0.354 57 29 18
-3611.2253 2802.7834 810.7378 0.661 -0.542 0.519 57 30 13
-3604.6560 2805.6531 805.3572 0.661 -0.542 0.519 62 31 9
-3603.2275 2812.8594 801.1677 0.878 -0.464 0.118 65 33 4
-3593.8579 2813.3640 795.1396 0.858 -0.508 0.078 66 33 1
-3538.5969 2783.2224 774.7781 0.747 -0.474 0.466 70 38 8
-3523.2178 2778.4543 767.4506 0.693 -0.676 0.249 73 40 10
-3502.2866 2777.2180 755.0684 0.780 -0.624 -0.047 78 39 8
-3486.3601 2780.2124 743.8415 0.691 -0.660 0.294 93 40 14
-3270.2036 2884.9695 562.0573 0.170 -0.901 -0.400 89 44 33
-3269.1516 2892.8359 557.7978 0.251 -0.875 -0.413 89 44 32
-3259.4851 2892.4424 551.9980 0.234 -0.880 -0.413 91 44 32
-3249.9080 2892.1128 546.2241 0.419 -0.904 0.088 89 44 31
-3238.5857 2890.0728 540.1552 0.410 -0.908 0.085 89 44 31
-3211.0857 2872.3005 531.2945 -0.041 -0.988 0.148 88 44 31
-3190.8621 2888.1187 511.5265 0.606 -0.768 0.208 74 31 15
-3179.7666 2886.1338 505.5726 0.667 -0.714 0.212 67 24 9
-3143.5989 2877.1260 487.3288 0.539 -0.782 0.313 69 27 15
-3125.8591 2886.2546 472.1662 0.540 -0.321 0.778 69 26 17
-2787.1316 3115.3518 157.5129 0.768 -0.009 0.640 166 117 113
-2832.3130 3201.7156 145.8479 -0.100 -0.836 0.539 167 116 116
-2823.8904 3201.9146 140.5458 -0.104 -0.836 0.539 167 117 120
-2817.5254 3204.6348 135.3602 0.050 -0.924 0.379 168 118 121
-2803.8474 3198.2896 129.8089 0.036 -0.893 0.449 168 118 121
-2801.8052 3206.3450 124.8501 -0.005 -0.869 0.495 168 118 121
-2795.9272 3209.6475 119.6987 -0.104 -0.872 0.478 169 119 122
-2592.0798 2985.1233 96.5797 0.651 -0.682 0.334 170 120 123
-2583.7603 2984.5891 91.6778 0.644 -0.704 0.299 168 119 122
-2772.4421 3377.7485 28.0566 -0.249 -0.901 -0.356 61 22 15
-2667.7849 3351.6045 -24.6986 0.524 -0.837 -0.156 21 18 13
-1607.6492 3319.5735 -665.8785 -0.372 -0.718 0.588 65 34 19
-1799.9744 3920.2959 -822.4601 0.621 -0.178 -0.763 50 24 13
-1800.6136 3939.7239 -830.9768 0.637 -0.131 -0.760 57 29 18
-1364.1780 3522.2949 -909.5004 -0.458 -0.856 -0.238 241 185 181
-1189.9454 3158.2175 -850.2807 -0.084 -0.591 0.802 142 87 63
-1149.8093 3728.9607 -1136.9268 -0.003 -0.993 -0.118 250 182 179
-765.9377 2947.4832 -1015.9319 0.514 -0.199 -0.834 218 64 59
-3471.3713 1992.2119 1087.2252 0.920 -0.102 0.378 62 52 40
-3213.4644 1993.3740 927.4565 0.717 -0.654 -0.241 65 59 49
-3211.4976 1997.9445 924.1358 0.301 -0.873 0.385 64 59 49
-3202.4409 1997.6356 918.6865 0.131 -0.968 0.216 64 60 49
-3193.8289 1997.6173 913.3777 0.131 -0.968 0.216 64 60 51
-3200.0847 2037.9216 898.6644 0.999 -0.030 -0.021 46 42 33
-3188.0911 2035.5240 892.3646 0.980 -0.149 -0.131 40 36 27
-3187.2976 2041.0182 889.3425 0.981 -0.152 -0.122 40 36 27
-3185.1704 2045.5819 885.9258 0.986 -0.150 -0.071 40 36 27
-3211.5151 2070.4033 890.7513 0.966 -0.180 -0.187 40 36 27
-3837.7920 2583.2473 1041.0554 0.667 -0.473 0.576 26 22 13
-3823.1687 2580.1660 1033.4471 0.819 -0.316 0.480 18 15 6
-3815.4844 2582.1375 1027.7943 0.702 -0.463 0.541 16 9 0
-3779.6467 2563.3955 1014.3057 0.740 -0.221 0.635 20 10 1
-3838.4106 2629.7434 1020.0081 -0.150 -0.985 0.083 53 42 27
-3792.8472 2619.0137 996.8221 -0.183 -0.983 0.030 98 84 74
-3757.3447 2678.0889 947.6759 0.742 -0.613 -0.270 54 25 7
-3732.7764 2788.3445 881.6919 0.893 -0.367 -0.260 70 39 19
-3679.9673 2762.1050 861.1808 0.702 -0.196 -0.685 67 36 18
-3699.8289 2794.8179 858.3665 0.045 -0.959 0.279 63 32 12
-3664.7766 2774.4541 846.1105 0.239 -0.858 0.455 62 32 13
-3574.2859 2749.1914 801.8842 0.686 -0.516 0.512 54 31 17
-3576.8369 2759.5559 798.6823 0.794 -0.492 0.356 53 30 18
-3374.3406 2767.9253 669.8026 0.557 -0.789 0.260 95 41 17
-3362.7329 2765.9600 663.5418 0.558 -0.784 0.273 94 39 15
-3355.4946 2827.3201 630.7929 -0.148 -0.779 0.609 80 30 5
-3380.8008 2894.1438 615.6189 0.951 -0.284 0.118 51 9 0
-3325.4116 2860.2173 597.0576 0.871 -0.458 0.181 38 8 0
-3347.6162 2943.2522 572.4972 -0.084 -0.776 0.625 89 41 28
-3318.6519 2933.6350 559.0470 -0.077 -0.780 0.622 98 49 37
-3264.9128 2917.8716 533.1333 0.112 -0.737 0.667 97 51 35
-3114.4204 2904.0654 446.5815 0.644 -0.387 -0.660 80 49 37
-3090.4939 2952.7209 409.3844 0.157 -0.962 -0.226 51 36 30
-2810.3086 3198.3433 123.1928 0.063 -0.900 0.431 175 125 128
-2600.1729 2987.8135 90.4840 0.628 -0.707 0.325 176 126 129
-2584.4629 3185.6509 -10.3959 0.621 -0.784 -0.012 38 26 18
-2669.1128 3310.6846 -15.7587 0.719 -0.665 -0.203 34 27 17
-2675.0332 3352.8230 -31.5245 0.519 -0.841 -0.153 28 25 19
-2614.9807 3339.1465 -62.2978 0.288 -0.957 -0.034 6 5 1
-2542.9980 3561.2720 -209.1149 0.372 -0.728 -0.576 194 150 151
-2595.4775 3654.1858 -219.5365 0.240 -0.785 -0.571 194 150 151
-1740.8005 3343.1035 -603.8452 0.031 -0.832 0.553 230 181 174
-1883.9735 4126.7549 -876.6232 0.739 -0.013 -0.674 45 25 12
-1909.3164 4245.4619 -915.6867 0.882 -0.294 -0.370 49 31 17
-1461.0243 3165.1943 -694.5846 -0.457 -0.596 -0.660 56 36 22
-1522.7893 3492.3472 -807.2307 0.593 -0.532 0.605 35 23 15
-1509.2262 3473.9031 -807.1039 0.321 -0.560 0.764 35 26 20
-1489.7743 3439.9370 -803.4592 0.039 -0.651 0.758 35 26 21
-1371.6685 3529.9878 -917.8815 -0.459 -0.857 -0.236 237 177 175
-3319.3889 1892.0000 1031.1675 0.830 -0.449 0.330 68 58 46
-3216.1921 2002.8022 916.2773 0.146 -0.959 0.245 71 64 53
-3200.4805 1997.9086 908.8625 0.157 -0.967 0.199 71 64 54
-3190.0273 1996.6121 903.0224 0.160 -0.965 0.206 70 63 53
-3188.5735 2001.5386 899.8453 0.175 -0.982 -0.075 70 62 54
-3186.2112 2017.7924 890.8637 0.982 -0.071 -0.177 66 61 52
-3190.5908 2026.8667 889.3603 0.990 -0.089 -0.107 60 56 47
-3186.4895 2030.0078 885.3788 0.992 -0.075 -0.103 57 53 44
-3182.8398 2033.4700 881.5270 0.984 -0.148 0.098 56 52 43
-3181.7383 2038.7395 878.4082 0.984 -0.148 0.098 57 53 44
-3180.6343 2044.0215 875.2822 0.984 -0.148 0.098 46 42 33
-3182.5149 2051.4417 873.0050 0.984 -0.145 0.105 40 36 27
-3304.1609 2163.5203 896.0589 0.283 -0.133 -0.950 38 34 23
-3303.0046 2169.1111 892.7577 0.284 -0.141 -0.948 34 30 19
-3313.8303 2183.3887 892.8166 0.186 -0.255 -0.949 31 27 16
-3847.1792 2584.5496 1035.6798 0.647 -0.509 0.568 21 16 7
-3822.2468 2573.9670 1025.2181 0.661 -0.469 0.585 17 12 3
-3782.3044 2552.3203 1010.6313 0.706 -0.203 0.678 16 7 0
-3761.7947 2552.3052 998.0013 0.728 -0.199 0.656 52 37 25
-3832.7200 2619.8901 1010.4066 -0.352 -0.935 -0.039 78 63 48
-3812.6277 2612.7051 1001.3539 -0.352 -0.935 -0.039 97 82 67
-3857.4126 2661.5779 1006.3175 0.651 -0.742 -0.158 108 94 81
-3797.5120 2727.3135 938.9717 0.747 -0.630 0.212 58 29 11
-3792.5391 2731.5212 933.9594 0.747 -0.630 0.212 64 35 16
-3784.2969 2733.1804 928.1127 0.743 -0.642 0.190 71 40 20
-3760.7864 2747.1838 907.1427 0.982 -0.189 -0.011 72 48 29
-3723.5129 2733.9204 890.3185 0.949 -0.314 -0.003 72 46 28
-3695.4329 2760.3906 860.7603 0.808 -0.306 -0.504 71 41 20
-3694.9272 2768.2034 856.8311 0.808 -0.306 -0.504 70 40 20
-3689.2366 2788.3811 843.9818 0.335 -0.941 0.040 66 37 15
-3677.8423 2787.3623 837.4330 0.452 -0.885 0.110 63 36 17
-3646.8047 2770.1763 826.2673 0.692 -0.658 -0.296 59 34 19
-3595.5156 2752.5720 802.8176 -0.023 -0.976 0.216 56 34 17
-3578.6487 2746.7883 795.1033 0.133 -0.983 0.124 54 32 17
-3352.3135 2775.6270 642.2950 0.894 -0.201 0.400 94 41 15
-3345.8123 2786.6448 633.1877 0.851 -0.293 0.435 92 41 14
-3348.7266 2797.7585 629.8371 0.314 -0.590 0.743 93 42 12
-3281.3772 2830.0505 573.3878 -0.270 -0.920 0.285 47 21 8
-3270.1975 2828.2271 567.3438 -0.338 -0.894 0.294 53 25 9
-3257.3748 2824.8271 561.0175 0.004 -0.857 0.516 81 35 22
-3207.6172 2873.5125 507.8163 0.365 -0.791 0.492 102 55 34
-3195.0903 2870.1755 501.6431 0.345 -0.910 0.231 96 47 27
-3191.7361 2875.7678 496.9871 0.360 -0.881 0.308 91 42 22
-3120.9839 2850.3650 465.1562 0.164 -0.984 0.062 74 26 12
-3073.4287 2829.4119 445.5578 0.167 -0.982 0.094 75 27 12
-3180.1982 2991.6060 436.2399 0.560 -0.248 -0.790 93 64 48
-3144.5056 2973.7212 422.5296 0.356 -0.934 0.032 68 38 23
-2774.4954 3374.6611 8.8978 0.284 -0.743 -0.606 62 24 18
-2667.1804 3310.8398 -27.6713 0.814 -0.545 -0.201 45 37 26
-2644.1677 3359.3262 -64.3016 0.623 -0.615 -0.483 6 5 1
-2565.8967 3377.5530 -120.9675 0.815 -0.527 0.242 15 8 7
-2555.9456 3375.0615 -125.9453 0.757 -0.594 0.273 19 12 11
-2550.9021 3379.6094 -131.1586 0.759 -0.594 0.266 26 19 18
-2522.2825 3373.6436 -146.0300 0.018 -0.927 -0.375 33 25 24
-2603.8584 3657.0371 -226.9913 0.240 -0.785 -0.571 199 154 155
-2347.4436 3552.3772 -336.5170 0.097 -0.725 -0.682 228 181 173
-2315.1572 3538.3579 -349.9184 -0.311 -0.829 -0.464 228 181 173
-1949.4080 3366.0964 -495.5071 0.252 -0.922 -0.295 230 186 179
-1897.5370 3388.0767 -537.6448 0.218 -0.953 -0.212 236 191 185
-1895.3770 3397.6414 -543.4046 0.411 -0.815 0.407 236 191 185
-1857.1698 3404.8027 -570.2616 0.194 -0.969 0.154 238 189 187
-1843.9211 3406.0127 -578.9849 -0.085 -0.962 0.259 238 189 187
-1750.3962 3338.3892 -605.2968 -0.295 -0.844 0.449 232 184 178
-1742.3159 3335.3689 -608.8769 0.029 -0.834 0.551 231 184 178
-1524.1083 3175.0049 -669.0681 -0.375 -0.709 0.598 38 22 13
-1394.1595 3046.5991 -689.6773 -0.322 -0.614 -0.721 29 20 10
-1352.5530 3056.6960 -719.9883 -0.080 -0.622 -0.779 30 23 20
-1331.0851 3059.6726 -734.5937 0.847 -0.527 -0.068 31 23 14
-1319.8665 3089.8062 -755.4592 0.700 -0.465 -0.543 27 20 14
-1336.8396 3166.2109 -780.3801 0.509 -0.526 0.681 16 8 2
-1373.9613 3540.6853 -930.9061 -0.313 -0.891 -0.329 234 172 167
-1149.0165 3668.0959 -1128.5009 0.926 0.218 0.309 184 111 120
-1140.7615 3774.0112 -1182.6306 0.860 0.027 0.509 241 172 174
-1128.0845 3796.1465 -1200.6910 0.948 0.001 0.319 233 163 161
-1150.5204 4141.0610 -1346.5781 0.821 -0.353 0.449 226 144 131
-3201.5273 1994.3315 902.6849 0.155 -0.966 0.207 74 64 53
-3193.2578 1994.5459 897.5004 0.155 -0.966 0.207 74 64 53
-3189.8965 1998.1461 893.7589 0.172 -0.983 -0.066 74 64 53
-3178.6472 2002.2081 884.9523 0.993 -0.016 -0.115 74 65 54
-3179.0752 2014.4335 879.5281 0.993 -0.016 -0.115 70 63 52
-3169.4451 2031.6866 865.5806 0.989 -0.121 0.081 59 55 44
-3172.2371 2039.7148 863.5625 0.995 -0.093 0.020 55 51 40
-3313.9341 2172.3062 889.0071 0.284 -0.141 -0.948 37 28 19
-3325.9385 2187.4263 889.3546 0.186 -0.255 -0.949 31 23 13
-3302.6580 2177.0583 879.8631 0.645 -0.495 -0.582 24 16 7
-3770.8994 2546.0078 996.1384 0.753 -0.193 0.630 59 42 28
-3765.8464 2549.8066 991.2641 0.753 -0.193 0.630 73 55 39
-3760.7917 2553.6069 986.3882 0.753 -0.193 0.630 87 68 52
-3740.8604 2546.4214 977.4756 0.696 -0.287 0.658 97 79 63
-3847.8289 2648.7271 995.6554 0.714 -0.668 -0.208 116 97 81
-3795.6694 2711.9646 934.1654 0.937 -0.264 0.230 51 23 2
-3783.4644 2734.7026 916.0831 0.504 -0.850 0.155 77 49 27
-3769.3506 2731.7495 908.7784 0.484 -0.792 0.372 79 49 28
-3701.2942 2792.1289 838.8434 0.366 -0.931 0.012 73 45 21
-3681.7654 2784.4846 830.3917 0.452 -0.885 0.110 71 43 21
-3640.0806 2783.4009 805.2648 0.244 -0.883 0.402 65 39 19
-3626.7742 2788.9993 794.4785 0.398 -0.828 0.394 62 36 15
-3355.7856 2780.9548 631.5959 0.806 -0.338 0.486 98 46 14
-3345.0115 2779.6882 625.5604 0.891 -0.310 0.333 99 46 12
-3237.4656 2869.2939 517.7479 0.991 0.046 0.125 115 60 34
-3232.0361 2890.6375 504.4804 0.130 -0.732 0.668 113 59 30
-3209.8027 2877.9302 496.7210 0.351 -0.924 0.152 108 54 25
-3201.8022 2879.0132 491.2977 0.371 -0.928 -0.020 102 48 20
-3206.7112 2892.7151 487.9421 0.347 -0.938 0.017 96 41 14
-3126.2986 2849.0776 458.7983 0.158 -0.986 0.060 81 28 7
-3078.0015 2827.4583 439.1590 0.202 -0.973 0.108 87 34 11
-2582.7505 2960.9546 72.5369 0.657 -0.690 -0.304 168 154 160
-2782.8586 3377.0903 1.9917 0.284 -0.743 -0.606 81 45 44
-2665.3474 3311.1279 -39.5775 0.816 -0.535 -0.219 67 39 33
-2599.8118 3300.8352 -75.0857 0.414 -0.904 -0.111 5 12 1
-2558.3032 3369.5242 -132.5628 0.759 -0.594 0.266 41 19 15
-2553.1055 3373.8354 -137.7644 0.759 -0.594 0.266 41 19 15
-2393.7493 3351.8682 -225.5299 0.315 -0.949 -0.016 216 169 164
-1911.9728 3392.1184 -540.4883 0.536 -0.787 -0.305 234 192 189
-1907.9460 3411.8618 -552.1490 0.449 -0.790 0.417 234 192 188
-1868.4186 3416.7729 -578.7382 0.416 -0.883 -0.216 239 188 194
-1863.8296 3421.5916 -583.8015 0.448 -0.875 -0.185 240 188 196
-1751.3557 3329.5181 -610.1265 0.043 -0.751 0.658 202 163 164
-1413.8223 3055.7500 -690.3109 -0.330 -0.625 -0.707 34 17 10
-1403.9076 3059.7415 -698.2640 -0.284 -0.604 -0.745 28 18 13
-1382.5170 3107.5740 -733.6685 0.654 -0.563 -0.505 21 15 14
-1351.4622 3131.7417 -764.0063 0.565 -0.573 0.594 26 20 2
-1353.7802 3153.1624 -772.5460 0.522 -0.593 0.613 25 19 6
-1339.0840 3129.3508 -770.5050 0.363 -0.629 0.687 21 16 11
-1116.1954 3778.7371 -1209.6505 0.894 -0.042 0.445 235 170 168
-1112.0841 3786.5691 -1215.8220 0.896 -0.039 0.441 240 171 169
-3166.2451 2037.1099 852.5655 0.989 -0.111 0.099 67 63 52
-3337.4663 2191.0215 885.6974 0.190 -0.255 -0.948 38 29 20
-3309.8481 2177.5603 875.0416 0.645 -0.489 -0.587 30 21 12
-3689.3879 2517.8254 948.9067 0.988 -0.109 0.114 125 104 87
-3824.1707 2625.4575 981.3086 0.759 -0.634 -0.146 125 102 87
-3785.6968 2690.4592 927.3212 0.970 -0.231 0.070 54 26 5
-3788.6992 2724.7988 913.1147 0.756 -0.635 0.161 80 52 31
-3786.8164 2731.4028 908.8729 0.504 -0.850 0.155 86 55 35
-3710.4377 2752.2698 852.2532 0.772 -0.402 -0.492 80 52 28
-3749.6133 2808.6101 849.9609 -0.104 -0.992 0.071 78 50 26
-3738.8877 2808.2671 843.5397 -0.085 -0.993 0.076 78 50 26
-3710.6211 2793.6301 833.0356 0.442 -0.890 0.112 78 50 26
-3642.6252 2787.7156 794.0765 0.184 -0.750 0.635 68 41 20
-3630.2104 2785.7424 787.3808 0.398 -0.828 0.394 68 41 20
-3470.0793 2766.6096 698.0639 -0.121 -0.789 0.602 55 28 9
-3334.8391 2772.7202 612.2225 0.946 -0.323 -0.020 90 41 8
-3328.9102 2775.7837 607.1526 0.558 -0.738 0.378 93 45 14
-3319.4351 2784.0747 597.4637 0.533 -0.653 0.538 94 46 13
-3279.6626 2867.8428 533.9088 0.405 -0.528 0.746 109 57 30
-3228.6372 2854.2993 508.9285 0.525 -0.368 0.767 115 59 32
-3220.2754 2863.8379 499.3397 0.355 -0.933 -0.065 116 59 30
-3217.8320 2870.3013 494.8196 0.351 -0.933 -0.081 116 59 30
-3202.8352 2873.4421 484.1494 0.371 -0.917 -0.151 109 52 25
-3186.0701 2874.8096 473.2229 0.372 -0.925 -0.081 96 39 15
-3180.5417 2878.2732 468.2119 0.685 -0.598 -0.417 88 34 10
-3115.7275 2840.8792 445.9175 0.003 -0.999 0.052 86 32 8
-3195.3047 2983.8230 427.9410 0.550 -0.279 -0.787 103 68 44
-3229.0217 3027.3313 428.2962 0.466 -0.280 -0.839 67 31 7
-3141.4019 2956.7874 407.5007 0.045 -0.552 0.832 71 33 10
-2592.4905 2955.8977 71.0959 0.717 -0.520 -0.464 182 147 152
-2587.3489 2959.3062 66.3481 0.657 -0.690 -0.304 156 145 149
-2787.7861 3374.9871 -4.9332 0.061 -0.875 -0.480 92 57 54
-2555.3040 3368.0730 -144.3565 0.759 -0.594 0.266 105 76 74
-2542.1270 3372.6663 -154.5887 -0.001 -0.931 -0.364 130 103 100
-2535.3276 3374.6460 -159.6861 -0.001 -0.931 -0.364 122 95 92
-2528.0112 3375.8638 -164.7448 0.010 -0.930 -0.369 141 112 109
-2516.9392 3371.5857 -169.5394 0.005 -0.942 -0.335 177 144 142
-1954.1604 3381.4426 -519.4758 0.425 -0.878 -0.221 227 186 184
-1871.4388 3412.0381 -584.5342 0.402 -0.910 0.100 224 187 188
-1865.5197 3414.1433 -589.1501 0.402 -0.910 0.100 225 187 188
-1853.4177 3403.6523 -591.6730 -0.055 -0.965 0.255 227 186 189
-1344.1625 3115.8005 -769.6295 0.953 -0.041 -0.299 24 20 6
-1338.0382 3129.9497 -780.0002 0.949 -0.142 -0.282 14 9 5
-1168.5266 3299.7979 -963.3953 0.228 -0.490 0.841 45 32 24
-1256.9893 4003.5061 -1237.9985 0.859 -0.003 -0.512 131 59 71
-827.0058 3140.7117 -1098.6072 0.485 -0.210 -0.849 215 44 50
-3139.6111 1990.0244 849.8412 0.122 -0.502 -0.856 66 62 51
-3131.0881 1995.8744 841.8754 0.300 -0.456 -0.838 64 60 49
-3349.6274 2195.0503 882.1821 0.190 -0.255 -0.948 44 35 26
-3319.7754 2180.0273 870.9556 0.611 -0.468 -0.639 34 25 16
-3847.4414 2684.1096 957.3983 0.665 -0.497 0.557 104 74 52
-3824.6877 2674.8186 947.8271 0.118 -0.673 0.730 99 69 47
-3777.5303 2662.6157 924.6796 0.130 -0.667 0.733 77 49 28
-3800.6040 2688.1450 926.8224 0.922 -0.385 -0.038 77 48 30
-3802.1353 2737.4204 904.6246 0.623 -0.753 0.211 92 61 41
-3704.0439 2700.8025 861.7507 0.530 -0.626 -0.572 91 60 40
-3705.4307 2709.9209 858.3186 0.500 -0.526 -0.688 90 61 40
-3746.6775 2808.4604 837.3102 -0.085 -0.993 0.076 84 56 32
-3714.2456 2790.4861 825.8899 0.437 -0.891 0.119 84 56 32
-3641.9221 2781.0361 786.0391 0.275 -0.804 0.528 75 48 27
-2660.0742 2006.3440 548.5332 0.988 -0.103 0.116 66 44 23
-3478.8333 2759.7312 696.1744 0.036 -0.755 0.654 54 27 8
-3329.7170 2770.2998 599.9005 0.666 -0.734 0.131 90 46 19
-3319.4517 2777.8496 590.0696 0.666 -0.734 0.131 90 47 16
-3316.2495 2783.3870 585.5089 0.768 -0.443 0.462 90 47 20
-3261.2522 2792.2292 547.6796 0.799 -0.399 -0.450 89 47 24
-3195.3328 2833.3025 488.0290 0.709 -0.693 -0.130 118 58 32
-3175.6235 2831.7109 476.7073 0.707 -0.694 -0.133 122 65 36
-3187.3145 2869.4512 466.1465 0.378 -0.925 -0.045 103 46 21
-3183.2307 2874.3206 461.3596 0.693 -0.589 -0.416 94 40 14
-3154.2014 2935.4463 414.8839 0.540 -0.239 -0.807 94 53 31
-3209.7869 3000.8696 418.2045 0.477 -0.264 -0.838 78 35 13
-3151.6768 2951.2039 405.9395 0.851 -0.251 -0.461 80 37 16
-2599.7087 2957.5066 64.9811 0.715 -0.522 -0.465 115 87 84
-2775.7727 3373.3545 -22.4533 -0.208 -0.916 0.342 104 65 60
-2630.4919 3325.9202 -89.1453 0.458 -0.889 -0.019 9 10 2
-2561.9482 3356.9739 -145.6984 0.756 -0.606 0.246 151 118 117
-2555.3696 3359.2761 -150.8078 0.760 -0.603 0.240 153 116 116
-2547.7988 3360.1460 -155.8522 0.885 -0.465 -0.008 152 117 117
-2550.2144 3375.3896 -161.5302 -0.001 -0.931 -0.364 156 124 122
-2539.6711 3371.9761 -166.3836 0.027 -0.950 -0.310 157 125 123
-2532.1714 3372.9316 -171.4248 -0.017 -0.957 -0.290 164 130 129
-2524.2500 3373.2573 -176.4283 0.014 -0.945 -0.327 178 138 139
-2632.4016 3670.5698 -249.7947 0.487 -0.872 -0.051 209 162 156
-1948.2487 3359.8018 -522.8267 0.470 -0.856 -0.215 195 159 158
-1953.3268 3382.9900 -530.6044 0.464 -0.808 -0.363 184 148 146
-1880.1375 3404.7312 -585.6301 0.436 -0.847 0.304 139 120 109
-1873.9474 3406.2898 -590.1523 0.436 -0.847 0.304 133 109 101
-1865.7301 3403.7373 -593.9857 -0.055 -0.965 0.255 132 108 101
-1857.5391 3401.1924 -597.8066 -0.064 -0.963 0.261 131 107 99
-1486.2928 2870.8787 -576.1489 0.568 -0.649 0.506 22 19 3
-1485.7903 2882.2932 -581.8160 0.580 -0.658 0.480 23 18 3
-1491.7876 2999.1333 -633.0020 0.822 -0.316 0.473 42 26 13
-1434.0817 3027.1382 -681.4871 0.566 -0.221 0.794 32 24 7
-1399.0923 3068.5054 -722.3355 0.330 -0.218 0.918 20 21 4
-1399.1101 3082.9797 -729.1206 0.443 -0.254 0.860 20 19 3
-1345.5457 3122.8293 -780.6310 0.985 -0.011 -0.174 20 17 11
-1193.9545 3040.7839 -834.9366 0.591 -0.732 -0.339 119 57 50
-1110.8486 3415.9609 -1061.9786 0.839 -0.290 0.460 129 71 78
-1101.6534 3803.9412 -1249.7727 0.964 0.131 0.232 231 150 153
-1067.0150 3811.5854 -1274.5728 -0.310 -0.918 -0.248 216 124 117
-2978.3037 1982.0640 746.6375 -0.259 -0.934 0.246 134 111 93
-2963.8894 1977.3231 740.0652 -0.297 -0.919 0.260 137 116 99
-3624.5134 2517.9321 888.7753 0.530 -0.517 0.672 106 79 55
-3794.3682 2653.9922 928.3959 0.116 -0.677 0.727 104 76 54
-3730.2019 2613.1140 908.4658 0.178 -0.446 0.877 102 74 53
-3782.1331 2676.1404 910.4725 0.951 -0.284 -0.124 99 71 50
-3794.5327 2693.5776 909.8251 0.879 -0.400 0.259 97 69 48
-3809.1787 2712.8237 909.6973 0.480 -0.874 -0.074 84 56 35
-3805.0083 2717.6287 904.8824 0.471 -0.879 -0.069 86 58 37
-3795.2014 2718.0764 898.6784 0.486 -0.868 -0.103 90 62 41
-3711.0813 2700.4912 855.5678 0.530 -0.626 -0.572 90 62 40
-3818.2681 2818.0991 865.5961 0.853 -0.131 -0.505 92 64 40
-3729.2336 2796.5535 821.3505 0.357 -0.920 0.164 90 62 38
-3713.7107 2808.9255 806.0289 0.871 -0.477 0.118 85 58 37
-3334.5386 2793.7695 581.4692 0.738 -0.541 0.402 80 41 16
-3216.8745 2812.7932 500.5929 -0.086 -0.996 -0.031 101 51 23
-3198.6418 2838.7493 477.2083 0.211 -0.824 -0.525 116 59 30
-3179.5146 2829.0142 470.1117 0.707 -0.694 -0.133 118 61 32
-3188.7856 2864.3284 459.1202 0.717 -0.673 -0.179 106 50 24
-3178.9824 2863.5925 453.4767 0.695 -0.587 -0.416 101 47 21
-2604.6401 2956.2603 58.7927 0.715 -0.522 -0.465 59 32 23
-2604.9490 2966.4661 54.1676 0.746 -0.574 -0.337 62 40 38
-2601.0750 2971.4929 49.4292 0.440 -0.719 -0.538 73 52 51
-2597.2629 2976.6096 44.6863 0.440 -0.722 -0.534 92 72 71
-2740.5039 3285.0798 -13.2776 0.046 -0.938 -0.345 116 78 77
-2735.7620 3289.9487 -18.4720 0.246 -0.760 -0.601 116 78 76
-2559.7078 3356.6130 -157.5010 0.460 -0.661 -0.593 162 120 122
-2547.6348 3351.0381 -162.2490 0.866 -0.499 -0.041 162 120 122
-2557.1152 3376.3828 -168.4101 -0.007 -0.920 -0.393 170 130 131
-2649.0642 3698.9155 -264.3511 0.375 -0.724 0.579 213 166 160
-1953.0988 3358.7336 -529.1940 0.470 -0.856 -0.215 59 29 26
-1888.4294 3396.6450 -586.5946 0.292 -0.752 0.591 25 18 5
-1708.9191 3290.8813 -646.4058 0.063 -0.990 -0.126 26 17 0
-1512.1104 2880.1160 -572.9266 0.675 -0.645 -0.359 26 17 0
-1500.2765 2879.3284 -579.7867 0.591 -0.627 -0.508 28 20 0
-1329.6426 3144.9827 -809.3615 0.615 -0.783 -0.092 19 14 10
-1303.7528 3120.9883 -813.8649 -0.284 -0.652 -0.704 29 12 8
-1304.9158 3203.3340 -851.9946 0.234 -0.517 0.824 125 108 102
-1199.4222 3044.4893 -841.5378 0.568 -0.671 -0.477 110 51 42
-1203.5997 3293.0713 -956.2345 0.565 -0.232 -0.792 69 45 35
-1118.7522 3619.0422 -1161.8359 0.956 0.161 0.245 193 157 156
-3467.5181 2270.0698 900.3467 0.983 -0.118 -0.142 64 55 46
-3477.0457 2283.6309 899.7313 0.984 -0.118 -0.135 63 54 45
-3008.3711 1988.0044 753.9966 0.796 -0.096 0.598 87 66 49
-2967.6682 1981.7242 732.1506 -0.117 -0.767 0.632 125 102 83
-3803.6257 2718.7205 892.7308 0.490 -0.869 -0.074 93 65 43
-3800.0925 2724.0273 888.0616 0.603 -0.546 0.581 93 65 43
-3685.6895 2666.7688 845.4262 0.423 -0.546 0.723 94 64 40
-3921.4756 2902.6116 877.4659 0.895 -0.205 -0.396 93 67 42
-3849.5881 2853.7434 856.7822 0.576 -0.746 0.334 93 67 42
-3824.7993 2842.3379 847.0696 0.197 -0.874 0.444 93 67 42
-3744.0286 2810.7683 812.7718 0.759 -0.589 -0.278 90 62 40
-3734.2065 2811.1465 806.6028 0.754 -0.609 -0.246 88 60 38
-3700.1086 2816.7495 783.1542 0.818 -0.316 -0.481 83 56 35
-3454.1470 2645.9036 714.1114 0.504 -0.463 0.729 79 57 36
-3442.2959 2643.9468 707.8115 0.495 -0.468 0.732 78 57 36
-2668.1882 2004.1841 538.8770 0.943 -0.152 0.296 78 57 36
-2658.5261 2002.1798 533.9344 0.978 -0.133 0.161 72 51 30
-2765.3276 2162.9207 522.9014 0.900 -0.426 0.090 61 36 16
-3194.7905 2846.0430 461.1167 0.175 -0.777 -0.605 108 51 21
-3190.5718 2850.7278 456.3240 0.175 -0.777 -0.605 109 51 22
-3184.7773 2853.8884 451.2929 0.717 -0.671 -0.187 108 52 26
-3173.8479 2852.0378 445.5047 0.769 -0.610 -0.193 107 53 27
-3149.2534 2836.7844 437.7339 0.034 -0.985 0.167 107 53 27
-3077.1208 2916.2773 356.0793 0.762 -0.640 -0.097 93 74 59
-3075.3711 2923.6028 351.5412 0.751 -0.658 -0.060 51 51 44
-2745.2444 3293.9763 -25.2734 0.239 -0.767 -0.596 129 91 89
-2742.8157 3301.8955 -30.5067 0.236 -0.779 -0.581 130 92 88
-2636.3950 3592.6912 -233.1927 -0.305 -0.532 -0.789 202 151 150
-2661.8352 3643.1189 -241.5726 -0.033 -0.959 -0.283 202 151 150
-2214.1724 3652.4341 -518.9839 0.514 -0.782 0.353 228 181 173
-1839.0430 3342.3411 -600.8175 0.313 -0.937 0.154 36 19 6
-1737.5668 3271.3567 -629.0660 -0.030 -0.981 -0.191 29 9 0
-1255.6587 3131.4636 -856.6618 0.070 -0.784 0.617 43 14 0
-1205.1940 3049.0420 -848.3828 0.552 -0.679 -0.484 104 51 39
-1097.1761 3457.6167 -1107.8499 0.989 -0.145 -0.021 78 52 47
-1079.2877 4060.0056 -1404.1884 -0.388 -0.497 -0.776 211 107 92
-3497.7974 2293.6060 898.1729 0.931 -0.138 -0.339 63 54 45
-3672.0227 2650.3049 834.4174 0.626 -0.569 0.533 101 69 47
-3792.6921 2785.6096 843.4498 0.943 -0.206 0.263 94 65 44
-3717.4434 2858.6833 762.8740 0.539 -0.437 0.720 80 57 36
-2730.2278 2045.2988 549.2459 0.901 -0.260 0.346 78 57 36
-2661.9529 2000.5801 528.9815 0.970 -0.157 0.184 77 55 34
-2658.2551 2003.5677 525.3091 0.968 -0.154 0.200 76 54 33
-3370.0361 2779.5068 589.1403 0.896 -0.409 -0.176 53 24 11
-3278.8015 2747.4788 548.8628 0.688 -0.590 0.423 70 29 7
-3268.4697 2746.4136 543.0822 0.823 -0.553 -0.131 72 28 4
-3199.5117 2835.3816 458.7693 0.203 -0.880 -0.429 108 53 23
-3193.3315 2838.1511 453.6899 0.201 -0.858 -0.473 108 51 22
-3188.3027 2842.0320 448.7823 0.201 -0.858 -0.473 109 50 22
-3154.6035 2835.5210 431.3732 0.034 -0.985 0.167 107 53 29
-3068.5393 2803.0659 394.4455 0.984 -0.165 0.063 108 49 31
-3078.6936 2920.2322 344.8557 0.647 -0.752 -0.129 51 50 42
-2711.0908 2963.9670 100.3277 0.589 -0.747 -0.309 50 47 46
-2707.9939 2969.9688 95.5864 0.581 -0.755 -0.305 37 29 29
-2702.8931 2983.3411 86.1171 0.219 -0.971 0.093 59 37 38
-2615.0239 2983.9160 32.3692 0.438 -0.702 -0.562 133 88 83
-2788.2317 3319.2043 -21.8145 -0.402 -0.752 -0.522 134 96 95
-2742.2236 3314.9973 -47.8109 0.236 -0.779 -0.581 138 104 95
-2548.9319 3312.1365 -164.0801 0.465 -0.681 0.566 174 121 127
-2645.9346 3571.9514 -228.7154 0.590 -0.229 -0.774 204 153 152
-2666.4062 3640.1426 -248.7150 -0.026 -0.933 -0.358 202 151 150
-2674.5737 3691.1279 -268.0127 0.574 -0.806 0.142 208 161 155
-2062.8284 3422.1919 -512.2911 -0.741 -0.670 -0.053 222 189 180
-1848.7814 3323.9514 -595.7921 -0.074 -0.978 -0.195 33 7 1
-1840.5514 3321.1230 -599.4543 -0.074 -0.980 -0.184 32 7 0
-1798.5020 3304.4312 -617.0992 -0.208 -0.978 -0.029 40 13 4
-1277.0649 3163.9922 -867.5817 0.016 -0.754 0.657 35 18 0
-1206.8519 3041.5657 -852.0378 0.516 -0.816 -0.260 96 47 35
-1197.4219 3299.3235 -980.4654 0.068 -0.530 0.845 48 32 26
-1065.9066 4062.9644 -1423.9825 -0.310 -0.613 -0.727 207 91 78
-3006.9927 1972.4852 744.1606 0.786 -0.043 0.617 68 49 34
-3500.9490 2496.1736 793.7468 0.212 -0.577 0.789 108 75 56
-3681.1487 2659.5562 825.0634 0.780 -0.491 0.388 106 73 54
-3772.6287 2755.5205 834.7355 0.978 -0.093 -0.184 102 70 49
-2649.9094 2010.3694 509.1881 0.768 -0.631 0.114 80 53 32
-2748.1926 2099.8044 526.1136 0.805 -0.258 0.534 78 51 30
-2642.4126 2022.4318 498.8676 0.303 -0.682 0.666 79 51 30
-2635.8960 2029.2152 491.6668 0.324 -0.802 0.502 75 47 26
-3237.6545 2830.6047 473.9420 0.664 -0.573 0.481 97 43 17
-3112.5947 2788.1125 418.3097 0.669 -0.538 0.513 106 51 30
-3118.6079 2811.2776 410.8855 0.044 -0.937 0.346 107 52 31
-3106.0015 2807.5869 404.9941 0.069 -0.934 0.349 105 50 29
-3093.3188 2803.7803 399.1120 0.197 -0.954 0.226 105 50 29
-3084.5669 2803.8184 393.7787 0.200 -0.951 0.236 105 49 29
-3085.9895 2813.9282 389.8088 0.893 -0.378 -0.243 109 48 30
-3073.7375 2810.4768 384.0183 0.985 -0.163 0.060 114 49 32
-3082.8811 2917.7566 338.2765 0.647 -0.752 -0.129 58 53 45
-3075.5962 2919.3772 333.0775 0.630 -0.766 -0.130 30 44 43
-3095.4199 2949.0171 330.9446 0.507 -0.553 0.661 20 49 52
-2745.7935 2959.2014 113.7450 0.787 -0.256 0.562 51 43 36
-2769.2808 3286.4309 -28.4524 0.074 -0.896 -0.439 142 102 102
-2750.7905 3295.5813 -44.0568 0.266 -0.753 -0.602 152 115 109
-2739.3171 3313.9268 -59.7963 0.045 -0.949 -0.311 154 117 109
-2725.9185 3653.6108 -230.3498 0.275 -0.665 -0.694 186 135 134
-2722.3083 3661.1555 -236.1497 0.275 -0.665 -0.694 200 149 148
-2762.7043 3759.2720 -258.5303 0.136 -0.981 0.136 202 151 150
-2670.3606 3636.2600 -255.7944 -0.046 -0.931 -0.363 202 151 150
-2641.8687 3606.9136 -259.0658 0.139 -0.423 -0.895 201 151 149
-1901.7048 3349.9995 -585.7306 0.067 -0.662 0.746 46 10 6
-1219.1831 3049.3538 -856.4792 0.679 -0.710 -0.185 67 35 25
-1186.0532 3285.0601 -989.2997 -0.021 -0.552 0.834 46 33 25
