ply
format ascii 1.0
element vertex 792
property float x
property float y
property float z
property float nx
property float ny
property float nz
property uchar diffuse_red
property uchar diffuse_green
property uchar diffuse_blue
end_header
-3546.9749 5774.3193 1688.7849 0.292 -0.390 0.873 133 87 54
-3470.4026 6017.2480 1555.6355 0.846 -0.528 -0.077 87 53 21
-3459.1731 6015.9229 1545.5001 0.110 -0.745 -0.658 92 57 25
-2971.3872 5689.2065 1173.6445 -0.130 -0.619 0.774 44 34 24
-3068.2532 5960.6250 1194.9968 0.539 -0.787 0.299 57 47 37
-2253.9365 5710.0977 499.2669 0.404 -0.782 0.475 32 9 0
-2190.8357 5767.3423 425.8723 0.486 -0.782 -0.390 19 13 1
-2048.5696 6046.2212 222.3225 0.009 -0.963 0.270 31 16 9
-1764.2404 5447.6694 109.2907 0.425 -0.904 0.041 155 139 134
-1733.2008 5517.8955 62.4963 0.217 -0.951 -0.220 239 218 215
-1723.4829 5664.4731 16.1807 0.795 -0.434 -0.425 231 202 203
-1732.3857 5885.3901 -31.6632 0.146 -0.672 -0.726 231 223 214
-1639.2269 5684.9155 -67.5887 0.807 -0.259 0.531 254 250 241
-1516.5458 5766.5049 -202.7328 0.720 -0.543 -0.431 255 76 96
-1281.4683 5801.5522 -430.8648 -0.593 -0.770 0.236 255 100 104
-1032.2015 4879.7065 -429.0330 -0.412 -0.888 -0.205 233 117 105
-1007.2821 5414.0654 -588.0803 -0.028 -0.965 0.259 228 127 107
-708.9084 3841.6414 -466.6980 0.454 -0.521 0.723 213 112 92
-76.5845 3256.1021 -907.5643 -0.674 -0.738 -0.017 255 99 115
-4024.6838 5855.1958 2095.2952 0.525 -0.577 0.626 48 24 3
-4025.3279 5872.0347 2091.5698 -0.663 -0.748 0.027 50 27 3
-3963.9377 5811.4946 2049.9026 -0.662 -0.749 0.013 55 32 8
-3517.3357 5707.3213 1660.4060 0.519 -0.307 0.798 134 90 59
-3491.7732 5998.9414 1561.6671 0.895 -0.410 -0.176 95 58 22
-3487.8076 6010.4751 1555.0079 0.895 -0.410 -0.176 95 58 23
-3481.4885 6017.8877 1547.2140 0.802 -0.596 0.051 95 58 24
-3483.9231 6040.9321 1543.5635 0.580 -0.799 0.156 100 60 28
-3464.3225 6024.7231 1529.4584 0.537 -0.624 -0.568 106 66 33
-3150.0525 5901.4375 1268.2122 -0.567 -0.756 0.327 30 20 10
-3058.4128 5920.5083 1177.9000 0.739 -0.547 0.392 47 37 27
-2657.0242 6010.3569 780.7029 -0.003 -0.577 -0.817 18 10 3
-2425.2549 5623.4937 664.0615 0.514 -0.507 0.692 19 9 3
-2327.0454 5565.3955 587.4497 0.128 -0.526 0.841 14 9 0
-2270.0066 5703.3403 498.8502 0.532 -0.823 0.198 24 12 2
-2259.7258 5700.9858 489.8726 0.478 -0.815 0.328 24 13 2
-2250.9983 5702.6587 481.3084 0.478 -0.815 0.328 26 12 3
-2222.8025 5802.9546 429.2637 0.350 -0.695 -0.628 27 12 5
-2055.5925 6098.0449 197.6099 -0.406 -0.827 -0.388 21 8 0
-1727.2949 5678.2368 -0.5381 0.832 -0.448 -0.327 235 208 214
-1647.0385 5949.9585 -145.1432 0.272 -0.717 0.641 240 68 91
-1645.1083 5977.9204 -154.1253 0.297 -0.789 0.538 245 72 91
-1343.4877 6050.6899 -453.9456 -0.624 -0.726 0.290 255 100 106
-1255.9083 5724.8462 -451.8693 -0.645 -0.756 0.114 246 91 93
-797.1757 4350.9199 -526.4894 -0.144 -0.985 -0.096 229 128 110
-302.0265 4018.1631 -902.5145 0.157 -0.875 0.458 255 172 157
-66.7798 3264.6616 -928.2125 -0.612 -0.786 -0.081 251 64 85
-36.8600 3979.5225 -1139.7378 -0.191 -0.735 -0.650 230 5 30
5.0790 3330.6379 -1012.1373 -0.247 -0.872 -0.423 242 53 60
32.3312 3998.3213 -1209.0569 0.010 -0.993 -0.117 255 100 99
-4092.5098 5923.8975 2122.2019 -0.645 -0.764 0.022 67 40 18
-4066.9246 5901.7432 2104.1199 -0.645 -0.764 0.022 57 31 8
-3484.0750 5929.9727 1553.8400 0.743 -0.419 -0.523 116 78 42
-3513.5134 6018.3311 1558.3234 0.893 -0.427 -0.142 102 64 28
-3495.1543 6004.4912 1544.8142 0.893 -0.412 -0.181 103 63 28
-3497.0505 6026.4282 1540.8854 0.597 -0.790 0.138 103 63 28
-3480.1711 6033.8384 1523.2377 0.532 -0.630 -0.566 107 67 32
-3034.0129 5548.3198 1233.6730 -0.485 -0.739 -0.469 29 16 2
-3281.1440 6113.2500 1317.2175 0.577 -0.762 -0.294 29 17 5
-2837.0835 5920.4580 953.6083 -0.312 -0.883 -0.350 34 18 3
-2420.1445 5795.3237 597.6988 0.466 -0.372 0.803 17 8 1
-1696.7006 5485.7236 4.1574 0.769 -0.570 0.290 233 195 206
-1725.9702 5736.6411 -33.7207 0.747 -0.372 -0.551 247 240 238
-1609.7565 5426.3291 -61.4146 0.579 -0.588 -0.565 252 251 247
-1608.8743 5740.8369 -143.8901 0.992 0.064 -0.112 237 80 103
-1331.4724 5996.4453 -468.6646 -0.625 -0.728 0.282 251 95 99
-1233.2877 5703.0088 -483.9450 -0.536 -0.791 -0.294 237 104 101
-617.5686 5374.4424 -972.2115 -0.648 -0.627 0.433 231 97 92
-328.7236 4230.8604 -944.3828 0.319 -0.298 0.900 253 176 150
-290.4342 4219.3936 -977.0740 0.416 -0.891 0.183 254 65 107
-52.4474 3840.8452 -1100.4893 -0.333 -0.444 -0.832 245 15 45
-47.3583 3905.6799 -1122.0626 -0.489 -0.831 -0.266 239 11 39
-4139.8296 5961.4771 2137.7258 -0.652 -0.758 -0.025 83 53 29
-4115.0566 5940.7676 2120.0945 -0.652 -0.758 -0.025 72 44 20
-4089.2249 5918.3662 2101.9216 -0.660 -0.751 0.036 64 38 13
-3518.6665 5990.0669 1551.8998 0.722 -0.543 -0.429 114 74 39
-3519.3708 6009.7075 1547.4027 0.893 -0.427 -0.142 110 70 35
-3501.1755 5996.1885 1534.0090 0.893 -0.412 -0.181 110 70 35
-3500.9805 6014.3569 1529.0608 0.782 -0.613 0.111 110 70 35
-3462.4976 5983.3315 1501.3717 0.793 -0.603 0.088 109 66 32
-3487.1897 6180.0840 1472.7406 -0.607 -0.681 0.410 115 80 52
-3290.4021 6110.5239 1307.7740 0.580 -0.758 -0.300 28 16 4
-3139.4053 5979.3330 1201.6104 -0.331 -0.931 -0.154 47 37 27
-2883.3923 6019.8081 952.6339 -0.120 -0.892 -0.436 41 25 10
-2798.4187 6079.1143 857.9608 -0.445 -0.853 -0.273 29 21 9
-2401.1807 5772.2383 568.6306 0.643 -0.423 0.639 15 8 2
-2402.5173 5799.3291 562.7674 0.645 -0.431 0.631 15 8 2
-2281.6536 6691.9854 216.0399 0.277 -0.929 0.247 26 11 4
-1642.9263 5061.7427 49.0757 -0.321 -0.915 0.244 221 186 192
-1811.1322 5716.6050 33.8704 0.560 -0.746 0.359 246 208 215
-1714.0374 5574.2910 -19.1906 0.229 -0.746 0.626 223 202 207
-1683.1687 5529.7959 -36.2566 0.571 -0.780 0.256 250 237 239
-1594.8621 5560.1157 -126.4279 0.991 0.066 -0.115 169 109 120
-1662.1516 5973.4004 -172.2092 0.304 -0.827 0.473 227 76 89
-1179.5044 5406.3569 -472.8003 -0.705 -0.654 0.274 236 105 101
-92.2751 3372.7319 -951.5037 -0.238 -0.557 0.796 255 97 116
-76.1995 3605.6528 -1027.5803 -0.554 -0.735 0.391 250 48 74
-61.8722 3730.7468 -1073.7395 -0.530 -0.838 -0.128 253 19 54
-52.8480 3938.2800 -1136.5901 -0.427 -0.869 -0.250 239 11 39
-22.8230 3144.4956 -956.2856 -0.323 -0.907 -0.269 215 17 32
-4086.3306 5913.4160 2081.8735 -0.668 -0.744 -0.007 70 44 19
-3863.7024 5736.6602 1921.5706 -0.553 -0.827 0.097 95 62 31
-3302.3762 6112.9590 1299.4845 0.568 -0.765 -0.304 28 16 4
-3288.9180 6250.9126 1250.3894 -0.396 -0.913 -0.099 41 31 21
-2804.6936 6093.0933 841.6442 -0.316 -0.876 -0.363 24 17 10
-1812.6831 5304.3394 127.6529 -0.061 -0.892 0.448 20 7 1
-1801.6759 5296.9351 119.3733 -0.197 -0.674 0.712 20 7 1
-1752.4525 5198.2324 99.7360 -0.144 -0.610 0.779 16 3 1
-1702.9338 5122.2812 73.7924 -0.343 -0.761 0.550 224 207 201
-1650.9257 5036.0527 48.2567 -0.095 -0.891 0.444 214 179 185
-1621.1730 5018.6030 25.1971 -0.163 -0.845 0.509 246 209 216
-1785.1812 5632.6509 15.0257 0.772 -0.579 0.261 225 183 195
-1693.3915 5535.3149 -44.5832 0.523 -0.813 0.254 255 249 249
-1801.7004 5998.6436 -66.6281 0.250 -0.544 -0.801 246 242 239
-1597.4404 5570.3628 -143.1593 0.992 0.065 -0.106 94 30 35
-1631.2555 6036.3784 -235.2351 0.650 -0.525 0.549 251 69 89
-1408.0701 6093.1587 -457.9674 -0.432 -0.901 -0.044 255 105 112
-1011.3339 5220.9385 -595.9136 -0.266 -0.858 0.439 229 129 113
-338.3137 4202.6709 -952.2316 0.094 -0.813 -0.574 253 174 149
-331.7139 4197.7065 -957.0568 -0.225 -0.974 -0.003 255 168 158
-302.5416 4044.1396 -943.4915 -0.183 -0.923 -0.338 255 82 112
-98.3850 3232.4368 -918.2805 -0.660 -0.738 0.139 255 94 115
-63.4997 3910.3904 -1130.4690 0.025 -0.755 -0.656 247 15 46
-3855.0549 5707.1421 1903.3695 0.332 -0.452 0.828 97 64 31
-3536.5889 5771.6323 1589.9176 0.639 -0.636 -0.433 134 91 59
-3221.6704 5843.7954 1277.7102 -0.285 -0.764 0.579 30 17 3
-3165.4211 5757.4409 1248.5271 -0.341 -0.740 0.579 29 18 8
-2498.6685 6378.4121 462.1133 0.403 -0.219 0.888 35 20 13
-2475.9536 6346.0918 449.6451 0.407 -0.229 0.884 31 16 9
-1751.0153 5092.9917 111.0755 0.011 -0.901 -0.433 21 6 2
-1746.5270 5129.5425 97.1114 0.087 -0.786 0.612 16 3 1
-1691.5333 5087.2671 57.2896 -0.287 -0.773 0.566 236 206 208
-1654.1844 5072.8105 26.4267 -0.129 -0.890 0.438 250 213 220
-1695.2365 5367.9478 -14.4449 0.893 -0.348 0.286 230 203 210
-1735.0132 5586.3462 -35.9484 0.401 -0.832 0.382 252 246 246
-1597.4600 5539.6401 -151.3652 0.991 0.042 -0.126 164 127 124
-1674.4893 6021.4019 -208.7634 0.544 -0.636 0.547 227 81 86
-1649.1505 5962.2295 -216.4800 0.276 -0.722 0.634 245 91 99
-1353.5571 5891.6606 -472.4852 -0.407 -0.908 -0.099 251 90 98
-1283.3376 5735.5703 -495.9826 -0.481 -0.869 -0.116 244 100 100
-1023.2891 5287.4038 -617.7933 -0.271 -0.917 0.292 238 137 119
-35.8832 3150.8904 -963.8455 -0.047 -0.947 0.319 208 8 24
-6.2406 3929.6609 -1200.0021 -0.266 -0.698 -0.666 251 70 74
0.3077 4146.3071 -1264.1194 0.111 -0.690 -0.715 252 82 80
6.5169 4188.0464 -1281.0736 0.111 -0.663 -0.740 253 93 90
-3772.2083 5611.2603 1834.3171 0.567 -0.313 0.762 145 110 80
-3545.4463 5768.8940 1580.8872 0.639 -0.636 -0.433 124 81 49
-3491.2983 5886.6753 1498.6865 -0.064 -0.741 0.668 119 79 44
-3208.0742 5799.3340 1259.0613 0.381 -0.447 0.809 30 17 3
-3169.9739 5746.9990 1237.8080 0.411 -0.461 0.786 30 18 9
-2838.2729 6122.0615 828.0035 -0.379 -0.861 -0.339 19 12 5
-2577.4866 6474.0244 490.3647 0.423 -0.170 0.890 37 27 18
-2534.0046 6388.8701 472.9896 0.403 -0.175 0.898 44 31 23
-1856.4030 5307.5474 135.7466 -0.090 -0.994 -0.062 34 19 12
-1762.1382 5052.8511 117.0443 0.010 -0.986 0.167 34 19 12
-1758.8453 5067.5156 110.0155 0.026 -0.913 -0.407 42 27 22
-1751.8058 5071.0596 102.5133 0.026 -0.913 -0.407 22 8 5
-1732.8586 5088.4238 80.2031 -0.126 -0.823 0.554 188 173 168
-1729.7675 5129.5420 66.2039 -0.226 -0.574 0.787 209 194 187
-1715.6591 5111.5684 57.9535 -0.309 -0.784 0.538 210 191 185
-1698.5756 5084.1689 49.4882 -0.287 -0.773 0.566 237 206 209
-1669.5422 5044.6113 33.2054 -0.125 -0.896 0.427 226 191 197
-1736.6107 5592.4146 -52.6823 0.528 -0.749 0.401 246 250 246
-1723.3683 6167.9355 -220.7194 -0.332 -0.805 0.491 180 64 59
-1683.9463 6093.3618 -237.1837 -0.150 -0.731 0.666 204 65 68
-1677.9185 6106.8276 -246.4303 -0.142 -0.734 0.664 225 74 81
-1665.5807 6096.5747 -255.1240 -0.142 -0.734 0.664 236 75 87
-571.7414 4837.5493 -931.1783 0.480 -0.414 0.774 252 58 86
-361.7686 4273.9385 -973.8436 0.219 -0.192 0.957 253 178 146
-342.6563 4188.9067 -968.6001 0.180 -0.371 0.911 254 158 149
-335.1150 4171.1030 -970.7925 0.186 -0.369 0.911 242 117 123
-205.9989 3575.5347 -929.6537 0.293 -0.494 0.819 255 79 110
-11.4311 3940.4592 -1209.2493 -0.266 -0.698 -0.666 252 72 75
1.0269 4196.8105 -1290.1942 0.120 -0.660 -0.741 254 94 91
6.8679 4157.6362 -1285.0234 -0.074 -0.654 -0.753 255 106 104
-3737.7673 5731.4609 1751.7720 0.781 -0.421 0.461 83 43 17
-3713.3245 5709.0454 1735.1915 0.402 -0.414 0.817 68 28 2
-3716.1755 5729.7803 1732.1725 0.682 -0.387 0.621 67 27 1
-3557.4033 5654.0483 1605.3741 0.643 -0.608 -0.466 109 66 34
-3561.7012 5694.1953 1598.3933 0.633 -0.619 -0.465 110 67 35
-3570.0283 5741.4312 1593.2183 0.630 -0.642 -0.437 81 38 6
-3437.0598 5973.5918 1406.2344 0.273 -0.245 0.930 106 66 34
-3406.2439 5937.0596 1387.5919 0.273 -0.245 0.930 88 51 19
-3179.4949 5745.8438 1229.2085 0.430 -0.457 0.779 30 18 9
-3083.1858 5713.9092 1148.4666 -0.280 -0.901 0.331 50 40 30
-3012.1797 5827.0562 1051.5758 0.913 -0.255 -0.317 48 35 26
-2738.9326 6776.0503 538.3409 0.770 -0.464 -0.439 39 29 20
-2592.0793 6484.4224 481.6260 0.187 -0.359 0.915 44 34 25
-2434.9160 6184.9321 417.4823 0.401 -0.207 0.892 31 16 9
-1864.9663 5307.8501 127.7358 -0.098 -0.994 -0.052 34 19 12
-1774.8761 5091.1777 103.2657 0.051 -0.912 -0.406 29 14 9
-1767.8660 5094.9258 95.7291 0.051 -0.912 -0.406 69 54 47
-1760.8678 5098.7310 88.1877 0.045 -0.912 -0.407 125 110 103
-1753.8328 5102.4473 80.6363 0.045 -0.912 -0.407 152 137 130
-1739.1827 5083.1069 72.3129 -0.155 -0.827 0.540 195 180 173
-1748.3490 5136.0928 66.3455 -0.238 -0.581 0.778 185 170 163
-1734.5967 5119.4473 58.1195 -0.238 -0.581 0.778 189 172 165
-1726.5154 5120.0630 50.4437 -0.310 -0.792 0.525 203 184 178
-1687.8660 5076.9155 26.3322 -0.501 -0.859 -0.102 187 152 158
-1662.3326 5073.8833 3.4407 -0.491 -0.766 -0.416 203 171 176
-1614.9011 5604.1396 -185.5587 0.992 0.056 -0.110 72 45 27
-1623.2407 5666.3896 -194.8260 0.993 0.063 -0.098 111 59 45
-1717.6980 6220.6396 -258.5695 -0.300 -0.667 0.683 201 75 73
-1663.5129 6126.4160 -283.1529 -0.065 -0.596 0.801 237 82 92
-1598.6332 6136.5161 -346.1866 0.307 -0.949 0.069 251 96 102
-1360.6908 5927.1577 -510.0095 -0.496 -0.685 0.533 239 79 85
-575.1783 4938.8252 -969.6044 0.018 -0.967 0.256 255 37 86
-447.6104 4242.7559 -897.8569 0.694 -0.616 -0.372 247 23 77
-355.6270 4200.8940 -971.8668 0.042 -0.402 0.915 255 175 151
-347.3883 4174.9736 -972.4355 0.182 -0.367 0.912 255 158 150
-339.9449 4158.5884 -974.8718 0.186 -0.369 0.911 244 117 121
-322.3724 4172.2490 -994.9305 0.346 -0.261 0.901 254 64 106
-77.5558 3804.8103 -1121.9313 -0.298 -0.882 -0.366 240 8 39
-53.6379 3155.2705 -966.6115 0.190 -0.892 0.411 215 0 18
-44.4245 3160.2224 -976.5242 0.084 -0.994 0.073 209 6 23
-16.6543 3971.0295 -1223.9414 -0.169 -0.759 -0.629 251 72 75
-10.6071 4178.2808 -1286.2074 0.295 -0.768 -0.569 251 83 81
-3870.3757 5681.7563 1870.6010 0.333 -0.462 0.822 139 105 76
-3559.4250 5607.8315 1602.2970 0.073 -0.844 0.531 90 47 14
-3575.5276 5716.4414 1587.2633 0.633 -0.650 -0.420 98 56 24
-3560.3267 5758.6880 1561.4862 0.705 -0.607 -0.368 103 60 29
-3511.6572 5832.0923 1496.0321 0.928 -0.370 0.044 105 64 29
-3407.4539 5847.1851 1395.1143 -0.463 -0.869 -0.174 123 80 47
-3283.7427 5789.5786 1296.1544 0.548 -0.322 0.772 73 42 13
-3212.7432 5770.0845 1235.6144 0.678 -0.586 -0.445 30 17 3
-3017.0217 5836.4663 1035.5636 0.863 -0.275 -0.424 72 59 49
-3036.3943 5935.7378 1026.1440 0.943 -0.318 -0.093 36 22 12
-2881.4404 6148.8052 823.4489 -0.278 -0.779 -0.562 23 14 4
-2462.5710 5998.9214 475.9152 -0.788 -0.615 0.011 26 16 7
-1803.9170 5103.9780 111.4392 -0.194 -0.980 -0.053 35 19 12
-1778.8920 5103.5723 88.3159 0.075 -0.912 -0.402 96 77 71
-1772.5663 5109.4312 80.8252 0.060 -0.914 -0.401 152 135 129
-1761.5574 5101.2715 72.8563 -0.317 -0.943 -0.106 155 138 131
-1617.3433 5613.8481 -202.5551 0.992 0.056 -0.110 86 49 34
-1720.6241 6196.1655 -267.4253 -0.299 -0.671 0.678 183 77 71
-1712.1564 6201.0698 -276.6414 -0.155 -0.562 0.813 196 77 75
-1686.3872 6177.5806 -294.0829 0.458 -0.737 -0.498 221 82 88
-1380.1147 5933.2271 -510.9912 -0.628 -0.776 -0.054 249 84 93
-1369.0083 5924.8003 -518.9769 -0.628 -0.776 -0.054 238 79 86
-1078.3901 4859.8423 -494.8001 -0.636 -0.771 0.028 233 126 117
-1071.5355 5332.4136 -631.6310 0.518 -0.602 -0.608 237 137 122
-454.4387 4251.5249 -906.1862 -0.192 -0.848 -0.493 245 24 76
-431.1210 4207.5000 -915.6818 0.570 -0.736 -0.365 255 140 147
-353.1393 4174.5015 -978.9766 -0.383 -0.404 0.831 255 155 150
-108.4117 3501.6074 -1020.4312 -0.610 -0.792 -0.024 250 67 86
-98.4555 3516.3000 -1033.7317 -0.584 -0.751 -0.310 242 39 65
-82.3922 3788.8821 -1123.8999 -0.320 -0.851 -0.415 239 8 39
-20.7074 3003.0078 -964.2111 -0.441 -0.850 0.290 250 72 75
-16.3016 3045.2930 -979.9756 -0.354 -0.920 0.166 250 83 81
-3886.1777 5658.5605 1873.7725 0.386 -0.435 0.814 125 89 64
-3872.5310 5668.9048 1858.2244 0.559 -0.667 0.492 125 89 64
-3799.6929 5589.7178 1812.7119 0.608 -0.785 0.120 100 64 39
-3783.2148 5626.3643 1787.2028 0.594 -0.632 0.498 93 56 27
-3772.7271 5625.8560 1777.6121 0.611 -0.785 0.099 79 43 13
-3538.2002 6058.7817 1439.2668 -0.438 -0.861 -0.260 119 79 49
-3237.4336 5723.3110 1253.7015 0.496 -0.725 -0.478 74 44 21
-3230.8882 5747.8408 1240.7880 0.493 -0.725 -0.481 54 39 27
-3023.8884 5829.9971 1025.7906 0.863 -0.275 -0.424 144 127 109
-2888.0886 5858.4082 891.8507 0.932 -0.201 0.300 31 20 9
-2928.7578 6050.5454 876.0176 -0.008 -0.845 0.535 29 18 8
-2893.1138 5996.4023 858.0376 -0.174 -0.776 0.607 28 18 8
-2878.8447 5987.6030 847.2498 -0.134 -0.788 0.601 26 16 6
-2340.7178 5075.2324 602.2749 -0.174 -0.796 0.579 13 3 0
-2345.0449 5704.2422 430.9064 -0.754 -0.647 -0.109 37 23 14
-2568.6238 6397.5049 445.0822 0.602 -0.397 -0.693 53 36 28
-1790.2491 5088.5991 87.7283 0.082 -0.908 -0.411 59 31 27
-1783.3405 5092.6411 80.1901 0.082 -0.908 -0.411 91 62 58
-1775.7784 5094.7646 72.5807 0.082 -0.914 -0.398 201 172 168
-1767.4214 5094.5190 64.8941 0.059 -0.915 -0.399 191 162 158
-1757.8234 5115.4463 50.1523 -0.113 -0.951 0.287 213 182 179
-1621.1285 5596.4399 -210.8099 0.992 0.056 -0.117 53 38 32
-1712.5930 6203.8467 -295.2940 0.352 -0.935 0.039 197 100 103
-1697.7811 6184.9570 -303.7719 0.443 -0.896 -0.019 185 82 86
-1679.9983 6191.5034 -322.0993 0.465 -0.745 -0.479 219 83 90
-1649.2224 6379.5410 -403.0882 0.677 -0.736 0.014 227 81 91
-1616.9120 6289.9316 -408.0860 0.410 -0.908 -0.090 235 86 97
-1484.4449 6269.2207 -525.2370 0.780 -0.614 0.119 249 70 92
-468.3716 4266.8945 -909.8254 -0.272 -0.809 -0.521 253 29 77
-125.5258 3401.2708 -986.6188 -0.631 -0.728 0.268 255 88 107
-121.3746 3430.6848 -998.6724 -0.622 -0.748 0.233 254 82 100
-114.7534 3562.1069 -1041.4606 -0.502 -0.705 -0.501 251 56 76
-6.7441 3132.4216 -1021.8830 0.038 -0.868 0.494 255 133 117
-4105.2183 5874.1182 1998.3134 0.793 -0.229 0.564 80 50 22
-4100.0327 5882.2324 1991.2191 0.248 -0.453 0.857 88 57 29
-4070.8735 5854.9473 1971.8579 0.087 -0.646 0.758 106 75 46
-3866.9331 5629.1279 1846.2964 0.740 -0.664 -0.101 116 80 56
-3832.0510 5607.3516 1820.0762 0.622 -0.782 0.034 105 69 45
-3822.1265 5607.7100 1810.7708 0.609 -0.793 0.031 85 49 25
-3822.9158 5639.7290 1802.4871 0.598 -0.796 0.094 121 86 58
-3760.6772 5622.3579 1749.6544 0.579 -0.647 0.497 147 110 81
-3751.4333 5623.7417 1740.6915 0.579 -0.647 0.497 154 119 89
-3521.7009 5883.7578 1454.4098 0.894 -0.448 -0.002 92 48 22
-3512.7451 6032.1641 1404.3160 -0.676 -0.737 0.003 99 62 33
-3405.2747 5897.1870 1342.6476 0.332 -0.321 0.887 67 33 8
-3329.3010 5798.0176 1300.1085 0.021 -0.876 -0.482 67 33 6
-3275.8584 5756.3213 1262.2833 0.209 -0.542 0.814 77 43 18
-2949.6460 6051.1748 876.7108 -0.008 -0.845 0.535 21 13 2
-2936.1519 6044.3442 866.1187 -0.008 -0.845 0.535 22 12 2
-2922.6951 6037.5327 855.5560 -0.008 -0.845 0.535 22 12 2
-2908.0645 6028.1577 844.6265 -0.009 -0.857 0.515 21 11 1
-2901.0728 6035.0508 836.2012 0.152 -0.876 0.458 23 10 2
-2891.1804 6102.2217 808.1125 0.891 -0.379 0.250 22 9 1
-2886.5596 6114.6069 800.3397 0.771 -0.394 0.501 23 10 2
-2762.6807 6090.4053 692.2614 0.711 -0.700 -0.062 19 9 1
-2205.6326 6137.0278 162.4934 0.569 -0.501 0.652 47 27 18
-1778.0305 5101.9160 57.3709 0.043 -0.902 -0.429 219 185 183
-1619.9690 5499.3750 -201.1396 0.221 -0.571 -0.791 245 240 236
-1627.5739 5588.6387 -219.2207 0.991 0.054 -0.125 66 54 53
-1631.1890 5633.3179 -228.4484 0.991 0.054 -0.125 62 42 39
-1764.7317 6252.1870 -278.8509 -0.310 -0.640 0.703 76 12 6
-1724.3989 6212.4561 -305.0707 0.373 -0.927 0.037 137 50 51
-1696.7495 6256.4473 -343.1012 0.296 -0.808 -0.510 249 138 138
-1689.6774 6267.1064 -352.6617 0.316 -0.805 -0.502 205 88 89
-1670.4750 6269.1499 -371.0466 -0.321 -0.945 -0.065 181 64 65
-1630.5991 6306.5630 -418.5644 0.431 -0.899 -0.074 206 74 80
-1589.4348 6299.8730 -454.8590 0.423 -0.821 0.382 215 84 90
-1581.3964 6307.3701 -464.4254 0.428 -0.826 0.366 223 87 94
-1551.0042 6262.8711 -480.0831 0.425 -0.878 -0.221 242 89 101
-1532.1205 6265.7573 -498.4097 0.470 -0.678 -0.566 249 86 101
-1505.4302 6319.5244 -538.3033 0.442 -0.880 -0.173 255 77 100
-1499.0920 6334.8159 -548.4874 0.432 -0.883 -0.180 247 76 95
-1358.7097 5965.0762 -574.5770 0.724 -0.670 0.165 238 137 133
-536.7161 4305.1406 -869.5474 -0.462 -0.855 -0.235 255 48 80
-472.2851 4246.7705 -912.8691 -0.265 -0.820 -0.507 254 29 75
-457.2110 4223.8813 -920.4047 -0.172 -0.870 -0.461 238 51 84
-361.2236 4131.0254 -983.2833 -0.153 -0.376 0.914 255 127 136
-337.4883 4062.1614 -985.9066 -0.045 -0.297 0.954 254 68 108
-61.2720 3119.1895 -976.5689 -0.281 -0.954 0.109 216 7 28
-29.1060 3089.6189 -998.0753 -0.453 -0.836 0.311 246 80 80
-20.0641 3100.9785 -1009.6599 -0.339 -0.916 0.215 246 106 97
-10.9461 3124.5459 -1024.7524 -0.265 -0.845 0.465 255 137 119
-3908.0767 5366.7192 1941.2096 0.519 -0.657 -0.547 121 78 46
-4088.6755 5849.1411 1971.4502 0.344 -0.439 0.830 88 57 28
-3550.3445 5591.5898 1545.6733 0.243 -0.936 0.254 95 58 31
-3689.0994 5884.4946 1591.0116 0.253 -0.967 -0.019 99 62 35
-3518.9438 5860.8208 1440.0172 0.920 -0.392 -0.025 73 28 6
-3509.4331 5862.2339 1430.7997 0.919 -0.392 -0.036 79 34 12
-3514.7703 5889.2236 1428.0729 0.637 -0.686 -0.352 85 41 16
-3524.2512 5923.5239 1427.1089 -0.156 -0.948 -0.276 88 47 22
-3491.8076 5957.9204 1387.2554 0.399 -0.402 0.825 105 68 41
-3414.9189 5877.3018 1338.9055 0.327 -0.486 0.811 71 35 9
-3358.6785 5813.8135 1304.8248 -0.040 -0.911 -0.410 67 33 8
-3283.9246 5752.3687 1253.0022 0.281 -0.573 0.770 84 50 25
-3245.1299 5754.8501 1216.3361 0.543 -0.746 -0.385 40 26 13
-3119.6147 5763.2280 1097.6078 -0.358 -0.860 0.363 163 143 130
-2947.8513 6047.2451 857.6384 -0.015 -0.854 0.519 21 13 2
-2937.1143 6046.2451 847.9700 0.008 -0.856 0.517 22 12 2
-2927.7683 6048.1816 838.7562 0.013 -0.861 0.509 21 11 1
-2914.1797 6085.0273 815.6840 0.921 -0.384 0.070 23 10 2
-2582.5273 5575.3418 653.1762 -0.506 -0.858 0.089 26 13 5
-2764.4324 6728.9175 493.8010 -0.852 -0.520 0.057 48 34 25
-2237.2646 6199.2725 155.7355 0.617 -0.553 0.560 47 27 18
-1750.3781 4995.9321 46.5578 0.010 -0.996 0.087 231 196 194
-1765.1365 5163.7461 12.5241 -0.021 -0.927 0.375 180 150 153
-1624.4741 5454.9204 -200.6511 0.851 -0.483 0.208 255 250 247
-1628.4089 5499.1030 -209.5660 0.197 -0.579 -0.791 246 241 238
-1627.9817 5528.4141 -218.2960 0.257 -0.522 -0.814 238 233 229
-1616.5563 5581.9360 -244.1043 0.248 -0.529 -0.811 97 57 47
-1779.0250 6269.2554 -288.9272 -0.202 -0.553 0.808 113 54 46
-1763.5222 6248.8550 -297.4970 -0.247 -0.617 0.748 124 57 51
-1743.9994 6213.4219 -305.5192 -0.282 -0.632 0.721 151 77 74
-1725.1586 6216.4126 -323.8340 0.183 -0.957 -0.223 166 82 81
-1717.0630 6222.8594 -333.1712 0.299 -0.817 -0.493 175 86 79
-1701.8953 6239.7900 -352.0448 0.299 -0.817 -0.493 202 111 103
-1695.8021 6254.0488 -361.7469 0.317 -0.805 -0.501 208 117 109
-1670.4862 6270.4565 -389.8787 -0.321 -0.945 -0.065 203 113 105
-1656.3682 6253.8784 -398.2517 -0.318 -0.946 -0.057 225 134 127
-1650.9374 6271.1440 -408.1949 0.343 -0.938 -0.052 229 127 123
-1635.9309 6289.7920 -427.4072 0.396 -0.918 -0.000 146 38 36
-1624.0079 6281.6050 -436.1314 0.427 -0.901 -0.070 154 46 44
-1616.3086 6290.2666 -445.7310 0.423 -0.821 0.382 242 135 133
-1606.6239 6290.9873 -454.9130 0.423 -0.821 0.382 228 122 119
-1596.9424 6291.7070 -464.0921 0.423 -0.821 0.382 210 102 100
-1588.9572 6299.3594 -473.6696 0.428 -0.826 0.366 198 86 86
-1572.6998 6273.0068 -481.2466 0.350 -0.923 -0.162 206 78 82
-1559.9716 6260.9287 -489.6110 0.425 -0.878 -0.221 212 74 81
-1549.1526 6256.6401 -498.4202 0.317 -0.761 -0.566 217 72 81
-1543.9728 6275.9531 -508.7129 0.457 -0.718 -0.526 220 69 81
-1535.5162 6281.6455 -518.1702 0.457 -0.715 -0.528 230 76 89
-1533.1573 6313.3262 -529.3645 0.448 -0.873 -0.194 236 76 91
-1525.0004 6320.5747 -538.9864 0.441 -0.876 -0.196 245 77 94
-1514.3036 6316.9487 -547.8708 0.442 -0.880 -0.173 249 78 98
-1506.6455 6326.4346 -557.6665 0.425 -0.887 -0.180 234 78 93
-1470.4415 6567.5889 -659.7922 0.481 -0.574 0.663 243 153 144
-349.5234 4066.3806 -987.6669 -0.158 -0.378 0.912 249 73 107
-65.2386 3102.6309 -977.1650 0.043 -0.908 0.417 216 7 28
-60.7096 3105.3865 -982.1467 0.018 -0.915 0.404 219 10 31
-24.2211 3100.0698 -1014.4580 -0.347 -0.917 0.199 245 108 98
-19.6976 3119.8894 -1024.2864 -0.296 -0.849 0.438 249 123 108
-3589.7219 5638.5933 1551.0811 0.276 -0.953 0.128 95 58 31
-3591.8306 5792.0386 1508.9838 0.326 -0.917 0.229 137 90 62
-3533.5889 5815.0815 1448.4113 0.522 -0.583 0.622 101 57 32
-3513.0134 5832.5830 1424.3250 0.893 -0.450 0.030 58 13 0
-3505.5566 5837.4414 1416.0221 0.887 -0.461 0.014 64 19 0
-3513.3940 5868.5859 1414.3420 0.377 -0.904 -0.202 69 25 1
-3488.1333 5860.6743 1393.2108 0.455 -0.890 -0.019 82 43 17
-3428.9900 5865.3823 1337.0668 0.398 -0.466 0.790 75 39 13
-3408.3301 5847.0864 1323.1790 0.423 -0.517 0.745 68 32 8
-3404.7568 5858.9082 1316.4749 0.350 -0.484 0.802 68 33 11
-3362.3398 5801.8389 1293.5615 0.037 -0.892 -0.451 67 32 10
-3328.8489 5760.3047 1274.4579 0.040 -0.864 -0.501 68 34 9
-3284.8118 5735.5190 1240.7759 0.281 -0.573 0.770 90 55 33
-3267.8721 5723.0596 1228.6591 0.263 -0.557 0.788 92 62 39
-3200.5554 5691.2573 1175.4242 0.359 -0.812 -0.461 31 17 4
-3143.0693 5884.8623 1066.5869 0.004 -0.886 -0.464 161 133 112
-2446.4507 5520.3940 525.8450 -0.315 -0.488 0.814 40 23 15
-1758.1113 4995.1831 38.9193 0.010 -0.996 0.087 218 183 181
-1771.5999 5158.4658 4.5407 0.101 -0.927 0.361 234 208 212
-1626.2133 5431.6411 -208.5738 0.638 -0.498 -0.588 255 250 247
-1638.8770 5536.5684 -226.9640 0.257 -0.522 -0.814 251 246 243
-1634.4600 5552.0659 -235.5052 0.257 -0.522 -0.814 174 165 162
-1630.0210 5567.6396 -244.0885 0.257 -0.522 -0.814 54 39 36
-1627.5231 5590.2700 -252.8993 0.248 -0.529 -0.811 62 29 17
-1731.5239 6028.1118 -282.2443 0.991 0.068 -0.117 92 47 34
-1785.5978 6258.1860 -298.1977 -0.198 -0.554 0.809 87 35 24
-1728.7915 6194.6309 -332.5799 -0.176 -0.575 0.799 128 56 51
-1678.9698 6266.3623 -399.3290 0.507 -0.714 0.483 106 39 23
-1666.9529 6258.0288 -408.0696 -0.318 -0.946 -0.057 104 34 19
-1659.7748 6268.4390 -417.7082 0.343 -0.938 -0.052 124 44 34
-1644.5323 6286.0776 -436.8930 0.396 -0.918 -0.000 154 69 59
-1632.6803 6278.2295 -445.6203 0.427 -0.901 -0.070 159 75 65
-1622.9055 6278.5615 -454.7713 0.398 -0.907 0.140 167 83 74
-1611.1022 6270.7231 -463.4560 0.486 -0.809 0.332 160 76 66
-1601.7236 6272.5713 -472.6752 0.486 -0.809 0.332 149 65 55
-1593.9137 6280.8042 -482.2740 0.511 -0.812 0.282 144 56 47
-1556.4191 6247.6714 -507.4988 0.421 -0.712 -0.562 175 51 53
-1550.2732 6262.8105 -517.5387 0.418 -0.721 -0.552 179 49 53
-1545.2076 6282.6592 -527.9297 0.457 -0.715 -0.528 189 52 59
-1537.6719 6292.2998 -537.6788 0.465 -0.851 -0.245 198 57 65
-1531.7821 6309.0464 -547.9429 0.549 -0.823 -0.143 211 63 73
-1521.9121 6308.9438 -557.0573 0.475 -0.849 -0.229 218 68 79
-1139.3275 5880.1196 -788.3914 -0.542 -0.622 0.564 242 154 142
-994.1327 5321.2144 -762.4551 -0.001 -0.681 0.732 239 152 137
-960.3771 5314.8838 -791.9101 0.019 -0.718 0.696 238 148 133
-640.3049 5004.8267 -999.4259 0.562 -0.734 0.382 249 62 81
-636.8371 5038.8052 -1012.3931 0.278 -0.884 0.376 255 48 80
-630.8784 5052.5425 -1021.8571 0.282 -0.887 0.367 255 34 79
-469.3929 4226.6841 -934.3766 -0.387 -0.694 -0.606 235 53 86
-119.6268 3593.9219 -1076.7600 -0.577 -0.613 -0.540 245 33 59
-69.2982 3094.1514 -979.9126 0.019 -0.908 0.418 216 7 28
-37.4106 3089.1658 -1008.0232 -0.666 -0.729 0.158 246 81 80
-23.9004 3128.3000 -1031.7742 -0.621 -0.740 0.257 249 125 109
-4163.1040 5862.8438 1999.2546 -0.013 -0.953 0.304 108 74 46
-4054.9990 5782.8354 1922.3464 0.811 -0.229 0.538 97 66 37
-4070.7722 5821.5161 1925.7405 0.704 -0.284 0.651 98 67 38
-3735.7834 5582.3496 1684.8846 0.546 -0.524 0.654 177 132 101
-3678.6406 5715.7119 1593.3219 0.627 -0.355 0.694 108 64 39
-3664.7754 5709.8872 1582.1719 0.739 -0.510 0.441 99 57 32
-3628.2532 5667.6045 1560.6101 0.310 -0.899 -0.309 96 56 30
-3677.6008 5813.6587 1563.9709 0.643 -0.177 0.745 97 60 33
-3593.0688 5776.5747 1496.4487 0.137 -0.977 -0.165 140 93 65
-3527.5645 5839.3594 1417.5997 0.621 -0.518 0.589 70 25 3
-3507.8828 5823.3672 1404.0111 0.887 -0.461 0.005 71 26 3
-3486.8098 5840.1641 1379.6306 0.477 -0.878 -0.050 89 51 24
-3438.7659 5792.5723 1348.9393 0.514 -0.785 -0.345 105 68 41
-3350.7751 5762.9727 1276.0457 0.394 -0.582 0.711 83 48 26
-3246.7202 5702.5293 1197.2170 0.767 -0.476 -0.429 57 42 30
-3191.1841 5803.0850 1116.6505 0.683 -0.589 -0.432 106 89 79
-3186.4614 5813.1235 1109.3682 0.575 -0.728 -0.373 147 130 120
-3106.5969 5775.8799 1046.2142 -0.022 -0.996 -0.083 159 128 108
-3105.4321 5792.8115 1040.2284 -0.026 -0.999 0.024 157 129 108
-3071.5039 5804.6079 1005.3943 0.020 -0.985 0.172 160 138 117
-3064.9143 6033.5205 932.9464 0.446 -0.681 0.581 33 19 6
-2989.7837 6113.5132 840.1965 0.901 -0.394 0.183 25 15 5
-3005.4509 6168.4819 838.7715 0.854 -0.476 0.211 23 13 3
-3000.5632 6180.3057 830.8190 0.738 -0.548 0.394 25 12 4
-2986.8601 6173.4697 820.1121 0.259 -0.625 0.737 25 12 4
-2890.8625 6238.3188 712.4303 0.309 -0.808 0.501 45 31 26
-2698.9353 5945.7905 619.5046 0.330 -0.787 -0.522 31 21 12
-2200.5208 5902.8687 170.4509 0.054 -0.994 -0.092 47 30 22
-2185.8848 5889.0146 160.9144 0.126 -0.988 -0.092 51 34 26
-1820.5062 5057.9531 63.4710 0.115 -0.987 0.111 84 61 53
-1763.5238 4987.6060 31.0985 -0.112 -0.987 0.117 200 165 163
-1716.8212 5093.3628 -42.7965 -0.473 -0.868 0.152 253 250 247
-1644.7806 5466.4932 -217.6462 0.701 -0.483 -0.524 254 248 248
-1638.5343 5598.6382 -261.7298 0.248 -0.529 -0.811 77 50 36
-1632.4812 5608.8091 -270.2823 0.270 -0.529 -0.805 108 76 61
-1729.7211 6272.5264 -372.6130 -0.146 -0.598 0.788 101 45 27
-1700.1901 6273.1748 -400.1445 0.523 -0.574 0.630 132 78 58
-1688.6296 6266.7788 -408.9948 0.509 -0.717 0.476 132 78 58
-1680.1160 6272.0249 -418.3984 -0.292 -0.954 -0.071 133 78 58
-1674.7570 6289.5410 -428.4372 -0.078 -0.991 -0.108 145 80 63
-1657.3802 6299.0229 -447.2748 -0.219 -0.972 -0.081 135 64 50
-1641.3531 6274.8545 -455.1098 0.427 -0.901 -0.070 148 78 63
-1629.2455 6265.9321 -463.7346 0.510 -0.816 0.273 145 76 61
-1610.6527 6270.2944 -482.2145 0.511 -0.812 0.282 172 102 87
-1601.4498 6272.8618 -491.4798 0.511 -0.812 0.282 185 112 98
-1585.1747 6246.6543 -498.9535 0.311 -0.933 -0.182 203 114 104
-1553.7017 6278.6182 -537.3594 0.460 -0.716 -0.524 237 125 124
-1142.6045 5851.7183 -794.2743 -0.552 -0.622 0.555 238 158 143
-1112.3492 5785.4150 -803.0714 -0.539 -0.593 0.599 237 156 139
-1009.0569 5360.7803 -775.6390 -0.445 -0.892 0.076 236 157 139
-595.4255 4525.2661 -916.4703 0.005 -0.660 -0.751 240 78 84
-690.0109 5418.7285 -1087.8467 0.264 -0.959 -0.101 255 47 80
-686.6845 5459.0005 -1102.5988 0.288 -0.953 -0.094 255 34 79
-375.1677 4091.8882 -994.8050 -0.621 -0.482 0.619 240 105 116
-141.1636 3617.4839 -1073.9767 -0.587 -0.619 -0.522 255 66 87
-70.1844 3171.9988 -1010.5816 -0.249 -0.936 0.248 222 13 34
-47.4233 3233.4778 -1049.4753 0.177 -0.676 0.716 254 72 77
-37.4382 3153.7261 -1035.6061 -0.651 -0.701 0.291 252 97 93
-3750.8564 5573.9644 1683.6172 0.534 -0.584 0.611 168 128 98
-3745.2446 5580.8164 1676.4189 0.356 -0.563 0.746 175 131 99
-3675.1128 5693.2363 1578.6255 0.627 -0.355 0.694 149 105 80
-3666.8865 5696.3916 1570.0894 0.739 -0.510 0.441 137 95 70
-3633.7029 5659.5586 1550.1580 0.261 -0.908 -0.327 129 89 63
-3626.0122 5663.4790 1541.8938 0.272 -0.908 -0.320 126 89 62
-3610.3140 5753.7944 1500.9410 0.636 -0.180 0.751 155 109 83
-3594.9585 5779.2031 1479.2966 0.137 -0.977 -0.165 136 89 61
-3587.3662 5783.6484 1470.9700 0.146 -0.977 -0.158 116 69 41
-3580.2529 5788.9062 1462.8490 0.099 -0.994 -0.037 110 63 35
-3570.7488 5790.1968 1453.6760 0.099 -0.994 -0.037 120 75 44
-3556.4871 5783.5278 1442.4294 0.494 -0.603 0.626 142 97 68
-3544.8479 5781.2090 1432.3368 0.512 -0.589 0.625 137 92 63
-3533.3882 5796.4419 1417.2749 0.509 -0.549 0.663 96 52 25
-3299.1248 5688.8389 1231.9684 0.504 -0.757 -0.415 113 79 54
-3254.3032 5679.9468 1193.0918 0.484 -0.764 -0.426 98 75 59
-3220.8342 5673.2905 1164.0668 0.633 -0.728 0.264 33 17 2
-3178.2659 5778.5898 1093.8640 0.640 -0.423 0.641 145 128 118
-3072.4509 5825.7163 982.1531 0.090 -0.993 0.075 151 133 113
-3082.2266 6047.4014 926.3367 0.340 -0.772 0.536 42 29 13
-3067.9805 6039.5161 915.4605 0.350 -0.771 0.531 42 29 13
-2997.8254 6130.2700 823.9847 0.761 -0.549 0.347 31 21 11
-3001.4504 6159.8960 818.6708 0.737 -0.547 0.398 33 20 12
-3008.8792 6197.7715 814.4636 0.273 -0.579 0.768 33 20 12
-3007.3362 6216.8398 807.4564 0.321 -0.659 0.680 35 22 14
-2925.1543 6086.1035 769.6565 0.156 -0.514 0.843 37 24 16
-2774.7183 5936.1895 674.3046 0.707 -0.182 0.683 50 36 33
-2801.0112 6016.4463 675.1541 0.775 -0.201 0.599 50 37 31
-2716.2046 5962.2051 612.5434 0.339 -0.783 -0.522 37 27 18
-1929.0558 5199.5322 107.2570 0.131 -0.836 -0.533 53 33 24
-1827.7888 5031.9321 62.5814 0.402 -0.792 -0.460 76 56 47
-1828.9689 5082.7163 48.8145 0.027 -0.999 0.047 194 164 161
-1790.3304 5140.3296 -3.7989 0.968 -0.241 0.075 255 236 235
-1786.1311 5152.7646 -11.3234 0.101 -0.916 0.388 255 237 240
-1670.9194 5557.2832 -236.2993 0.187 -0.522 -0.832 248 243 240
-1665.5940 5600.5049 -253.8739 0.251 -0.548 -0.798 244 240 237
-1771.2252 6244.1206 -344.4366 0.545 -0.430 0.719 163 107 98
-1703.3599 6248.9033 -408.6395 0.640 -0.370 0.673 173 121 100
-1698.1476 6266.6094 -418.6435 0.505 -0.581 0.638 173 121 100
-1695.3141 6293.6172 -429.1678 -0.113 -0.990 -0.087 175 120 100
-1685.3090 6293.2871 -438.3301 -0.113 -0.990 -0.087 206 145 127
-1667.2266 6300.0703 -457.0484 -0.211 -0.974 -0.086 196 130 114
-1648.1780 6264.2246 -464.1883 0.440 -0.895 -0.065 210 143 127
-1636.1123 6255.4883 -472.7978 0.405 -0.892 0.203 208 143 127
-1626.8137 6257.6138 -482.0247 0.405 -0.892 0.203 214 150 134
-1532.5173 6315.3203 -586.1720 0.442 -0.880 -0.173 251 163 155
-1517.8395 6294.6816 -593.7162 0.459 -0.641 0.616 249 164 155
-1242.1262 5899.3833 -733.2043 -0.075 -0.967 -0.244 242 170 153
-383.0152 4116.6758 -1006.6340 -0.548 -0.527 0.650 240 102 114
-362.3456 4016.3000 -996.3931 -0.571 -0.547 0.612 248 70 104
-151.4266 3617.6150 -1074.9287 0.090 -0.629 0.772 254 79 98
-146.0899 3617.6553 -1079.8793 0.171 -0.666 0.726 255 66 87
-56.3688 3220.0667 -1046.5780 0.421 -0.723 0.547 253 61 69
-51.6335 3219.6094 -1050.8262 0.421 -0.723 0.547 254 70 76
-4144.4180 5496.9722 2052.6960 0.295 -0.615 0.731 140 101 70
-2934.9800 3967.6016 1385.7843 0.185 -0.857 -0.482 131 91 62
-3776.8914 5566.9434 1692.1056 0.530 -0.558 0.638 110 73 44
-3665.0142 5660.4277 1561.0201 0.649 -0.355 0.673 169 125 100
-3650.9146 5670.3345 1545.0536 0.760 -0.602 0.246 161 121 95
-3594.6145 5795.1733 1456.1111 0.285 -0.928 0.238 92 45 17
-3579.7571 5787.5918 1444.6085 0.275 -0.939 0.205 98 53 24
-3538.3584 5752.7271 1416.6162 0.542 -0.200 0.816 140 95 66
-3507.4680 5752.2407 1388.1893 0.555 -0.563 0.612 96 52 25
-3340.8198 5726.7603 1241.5824 0.608 -0.355 0.710 120 86 61
-3329.0691 5741.5903 1226.3341 -0.318 -0.894 0.317 133 99 74
-3314.5632 5733.6938 1215.2498 -0.313 -0.892 0.326 135 100 78
-3263.8103 5714.6196 1173.9421 -0.259 -0.912 0.319 33 19 6
-3213.8713 5642.4131 1149.0796 0.616 -0.742 0.265 33 17 2
-3181.8389 5766.2056 1082.8911 0.680 -0.466 0.566 136 119 109
-3189.8889 5800.0142 1080.3513 0.586 -0.646 0.489 140 123 112
-3165.0483 5791.1567 1059.9923 0.599 -0.751 -0.277 152 128 112
-3050.7268 5841.9614 939.2515 0.803 -0.587 0.103 87 70 50
-3115.1238 6092.4980 924.8169 0.396 -0.669 0.630 55 42 27
-3091.8877 6066.6738 910.9529 0.385 -0.680 0.625 54 41 25
-3000.5464 6070.6660 825.2925 0.803 -0.540 0.253 33 23 13
-3008.7285 6109.3335 821.4398 0.764 -0.546 0.345 37 27 17
-3002.1477 6117.3306 812.9914 0.761 -0.549 0.347 44 34 24
-2959.3003 6114.6499 774.1536 0.840 -0.482 0.247 50 37 29
-2901.6956 6013.9565 750.6146 0.222 -0.559 0.799 51 38 30
-2011.2748 4807.3857 283.4231 -0.540 -0.788 0.295 46 32 21
-2149.6638 5660.2451 159.5294 -0.174 -0.978 -0.112 36 19 11
-2115.1960 5616.6553 140.5243 0.012 -0.976 0.216 47 30 22
-1831.1373 5065.5049 40.5795 0.120 -0.988 0.093 213 183 179
-1757.8367 6232.4189 -371.8608 0.551 -0.290 0.783 167 113 98
-1704.9263 6218.8291 -416.7838 0.637 -0.369 0.677 216 160 140
-1694.7780 6217.5972 -425.8059 0.632 -0.375 0.678 216 160 140
-1634.2977 6211.0547 -479.8118 0.543 -0.825 0.155 226 158 143
-1623.8143 6208.2515 -488.6799 0.527 -0.839 0.133 228 161 145
-1618.8289 6227.2329 -498.8971 0.407 -0.889 0.208 232 164 148
-1588.9852 6185.9155 -514.2964 0.544 -0.827 0.142 228 165 148
-1581.8414 6235.9092 -535.6693 0.478 -0.847 -0.233 230 164 148
-1579.5406 6266.5537 -546.8480 0.416 -0.726 -0.547 234 161 148
-1572.9332 6279.8057 -556.8730 0.418 -0.721 -0.552 246 167 155
-1555.0157 6287.1108 -575.6026 0.491 -0.842 -0.225 250 165 155
-1546.9164 6294.4126 -585.2502 0.491 -0.842 -0.225 248 164 154
-1532.4003 6274.6416 -592.8368 0.611 -0.540 0.579 248 175 162
-472.6388 4269.7490 -980.8691 -0.317 -0.717 -0.621 253 165 141
-151.0137 3617.5964 -1085.7281 0.121 -0.490 0.863 255 66 87
-78.9386 3180.7446 -1023.3674 -0.162 -0.987 -0.021 224 12 34
-72.6136 3372.3689 -1085.8130 0.121 -0.712 0.692 233 27 45
-4137.3955 5472.7998 2035.7456 0.312 -0.612 0.727 145 106 73
-3814.6267 5562.3237 1710.6956 0.599 -0.570 0.562 84 48 20
-3587.6838 5783.1885 1435.0718 0.275 -0.939 0.205 94 48 22
-3541.3123 5723.1812 1410.0953 0.593 -0.157 0.790 96 50 24
-3525.8699 5714.3901 1398.4412 0.592 -0.157 0.791 107 61 34
-3339.9124 5742.5469 1218.1511 -0.318 -0.894 0.317 128 94 69
-3325.2720 5734.4551 1207.0300 -0.313 -0.892 0.326 119 84 62
-3273.9939 5714.5703 1165.5573 -0.259 -0.912 0.319 34 19 6
-3183.2617 5749.8813 1071.1593 0.680 -0.466 0.566 127 110 100
-3084.4360 6051.4233 889.9147 0.381 -0.691 0.615 66 52 39
-3064.2202 6031.4810 877.1725 0.379 -0.688 0.619 61 50 38
-2731.2534 5670.9902 676.8475 0.496 -0.751 0.437 61 51 42
-2731.4607 5692.1191 670.7405 0.386 -0.699 0.601 65 55 46
-2720.1606 6016.8149 563.5012 -0.593 -0.693 0.409 56 38 28
-1837.6554 5060.8374 32.7097 0.307 -0.912 0.272 247 215 213
-1667.8448 5579.0391 -278.7399 0.986 0.067 -0.152 255 251 247
-1672.8488 5627.4688 -288.5516 0.986 0.067 -0.153 170 156 139
-1621.6416 6124.7954 -484.1429 0.441 -0.856 0.270 240 167 154
-1607.3107 6106.4155 -491.9110 0.451 -0.884 0.121 237 166 153
-1610.5708 6157.2612 -504.0549 0.509 -0.838 0.197 236 165 152
-1609.1754 6514.8535 -611.9452 0.543 -0.834 0.096 253 175 167
-991.1370 6093.8916 -1057.7592 -0.450 -0.887 0.108 242 145 123
-618.5941 4398.7261 -896.7925 0.812 -0.567 0.141 224 109 90
-609.1541 4535.0103 -946.1458 0.824 -0.369 -0.429 250 61 81
-512.8785 4346.2368 -978.8670 0.864 -0.433 -0.256 239 32 72
-437.1969 4375.7764 -1057.6318 -0.100 -0.810 0.578 254 170 146
-150.1208 3604.1194 -1092.9647 0.115 -0.491 0.863 253 50 72
-153.6252 4224.2598 -1274.5931 -0.289 -0.670 0.683 245 25 53
-83.2686 3181.5720 -1028.7979 -0.162 -0.987 -0.021 223 12 34
-59.9473 3190.8870 -1053.1326 -0.546 -0.826 0.139 251 72 76
-54.2495 3104.1201 -1032.5337 -0.671 -0.740 0.059 248 83 82
-4498.2607 5903.5527 2221.9341 0.414 -0.708 -0.572 148 106 76
-4188.2534 5555.3838 2040.2804 -0.005 -0.584 0.812 146 105 73
-4147.8750 5514.2661 2015.3466 0.000 -0.586 0.810 148 105 73
-4088.0891 5736.4316 1893.2699 0.259 -0.253 0.932 119 81 51
-3931.3066 5554.3101 1803.2174 0.557 -0.333 0.761 112 75 44
-3780.9534 5526.2715 1672.7463 0.562 -0.600 0.569 118 84 58
-3778.0044 5536.9697 1666.8032 0.530 -0.558 0.638 98 64 37
-3768.8469 5538.3252 1657.9351 0.353 -0.567 0.744 98 65 37
-3718.4275 5584.4126 1597.4878 0.863 -0.311 0.399 145 100 76
-3677.0164 5630.1943 1545.4550 0.688 -0.459 0.563 86 39 12
-3471.5627 5690.7393 1337.4265 0.561 -0.136 0.817 92 48 18
-3360.9756 5673.4160 1240.4702 0.592 -0.731 -0.339 95 59 34
-3347.9604 5668.1611 1230.0267 0.589 -0.726 -0.354 94 60 38
-3341.0642 5673.5601 1222.0312 0.601 -0.718 -0.353 105 73 52
-3355.6155 5716.5825 1222.5306 0.480 -0.615 -0.626 114 82 61
-3343.0127 5712.1055 1212.2344 0.527 -0.741 -0.415 116 84 62
-3350.7722 5743.5054 1209.9559 -0.318 -0.894 0.317 118 86 64
-3335.9961 5735.2173 1198.7983 -0.313 -0.892 0.326 110 78 57
-3311.6689 5709.9194 1183.9343 -0.277 -0.901 0.334 90 60 40
-3296.7415 5701.1885 1172.7703 -0.277 -0.901 0.334 59 34 17
-3277.7588 5703.0044 1154.6864 -0.254 -0.916 0.312 41 23 9
-3249.9441 5670.9897 1138.6212 0.177 -0.966 -0.190 40 22 8
-3199.2698 5705.3779 1081.4585 0.351 -0.794 -0.496 34 20 9
-3205.2942 5753.2612 1072.6177 0.696 -0.586 0.415 31 17 7
-3197.1934 5756.8198 1064.0630 0.696 -0.586 0.415 58 44 33
-3202.6218 5804.3096 1054.7900 0.619 -0.636 0.461 69 52 38
-3193.5676 5806.2480 1045.8418 0.456 -0.805 -0.379 64 48 33
-2825.8877 5789.0952 711.3139 0.353 -0.487 0.799 73 66 54
-2849.4138 6146.1499 625.6230 0.439 -0.898 -0.007 78 60 38
-2822.0623 6177.8276 590.8226 0.642 -0.658 -0.394 74 56 32
-2122.1255 4999.6567 298.6445 -0.552 -0.727 0.408 64 45 23
-2179.5735 5519.7222 195.2483 -0.640 -0.704 -0.306 52 28 11
-1842.9108 5005.9614 38.7892 0.703 -0.702 0.118 226 195 186
-1831.4382 5139.3726 -11.9489 -0.134 -0.958 0.254 254 223 221
-1665.5712 5480.9204 -267.9493 0.643 -0.455 -0.615 255 248 246
-1667.3893 5517.2026 -277.1857 0.989 0.059 -0.136 255 248 246
-1631.0087 6124.9238 -493.6401 -0.174 -0.982 0.071 243 175 168
-1599.0023 6112.8672 -519.5825 -0.194 -0.958 0.211 243 175 168
-1583.6837 6090.2290 -526.9238 -0.148 -0.979 0.142 248 181 174
-1564.0098 6049.8760 -532.9589 -0.047 -0.798 0.601 248 181 174
-1587.8369 6263.1606 -575.1161 -0.510 -0.841 0.181 252 180 175
-1583.2427 6284.6104 -585.8142 -0.511 -0.831 0.220 254 179 175
-1570.3953 6272.2632 -593.9686 -0.509 -0.829 0.231 254 179 175
-849.1888 5626.7134 -1066.0457 0.571 -0.580 0.581 218 112 92
-652.4204 4603.9834 -940.1283 -0.648 -0.755 0.096 226 109 91
-627.2989 4571.9590 -953.7023 -0.632 -0.767 0.110 244 73 83
-520.6617 4420.3032 -1006.5929 0.750 -0.509 -0.423 255 112 131
-160.0298 3595.4148 -1091.5884 0.116 -0.490 0.864 254 61 81
-154.8848 3600.0464 -1097.7352 0.120 -0.494 0.861 251 45 68
-159.5814 4886.5264 -1480.4559 -0.412 -0.644 -0.645 228 9 34
-64.1605 3183.8982 -1056.3474 -0.518 -0.854 0.046 250 78 77
-4027.5627 5531.0464 1881.4254 0.881 -0.284 0.377 138 93 60
-3803.3342 5514.0625 1679.5392 0.359 -0.734 0.577 118 86 61
-3706.4204 5549.7847 1579.2068 0.893 -0.420 0.162 129 85 61
-3439.0369 5618.5942 1311.4237 0.579 -0.132 0.804 105 62 30
-3460.0520 5670.8608 1314.9586 0.568 -0.061 0.821 117 74 42
-3359.0667 5652.3525 1227.3326 0.597 -0.717 -0.360 112 76 50
-3353.7639 5660.4653 1219.9731 0.597 -0.717 -0.360 101 67 45
-3348.4495 5668.5962 1212.5972 0.597 -0.717 -0.360 104 72 51
-3368.2310 5720.6284 1215.0641 0.466 -0.621 -0.630 108 76 55
-3363.8904 5730.6768 1208.0052 0.459 -0.624 -0.632 112 80 59
-3298.5586 5704.0322 1155.7706 -0.257 -0.913 0.317 44 22 8
-3287.9575 5702.9756 1146.3027 -0.254 -0.916 0.312 41 23 9
-3150.6609 5782.0264 995.5270 0.498 -0.408 0.765 108 92 77
-2843.4836 6226.0176 577.0838 0.178 -0.982 -0.060 87 62 39
-2366.7866 5808.6274 263.6543 0.913 -0.252 -0.321 66 46 21
-2207.3213 5792.0737 121.4368 -0.080 -0.997 0.008 49 32 22
-1859.1863 5005.8623 38.7013 0.477 -0.840 -0.257 226 193 184
-1849.9550 5003.0229 31.0395 0.692 -0.712 0.119 228 195 186
-1841.4305 5002.1367 23.4376 0.703 -0.702 0.115 249 216 209
-1786.3512 6126.3057 -368.7515 0.601 -0.209 0.771 213 167 167
-1757.7656 6128.6035 -395.8439 0.557 -0.297 0.776 245 186 181
-1727.9923 6056.0806 -401.3151 0.496 -0.545 0.676 240 181 175
-1712.1642 6033.4722 -409.0656 0.493 -0.553 0.671 232 173 167
-1698.0314 6016.7930 -417.0509 0.529 -0.574 0.626 226 167 159
-1595.1942 6024.0820 -514.2194 0.454 -0.616 0.644 242 175 169
-525.5305 4291.9814 -975.9836 0.834 -0.521 -0.181 242 39 71
-529.3716 4383.0762 -1000.0959 0.659 -0.620 -0.427 250 74 102
-527.3428 4424.0869 -1014.4214 0.742 -0.518 -0.426 255 117 135
-480.6467 4700.9458 -1141.6012 0.057 -0.841 0.538 254 160 146
-164.1747 3576.0793 -1092.2749 0.104 -0.486 0.868 254 60 80
-193.3889 5531.4878 -1659.0199 -0.627 -0.778 -0.049 237 6 35
-100.6235 3154.2268 -1022.8683 -0.002 -0.998 0.069 207 0 15
-4410.7930 5813.3228 2130.8689 -0.234 -0.969 0.076 157 114 82
-3896.8179 5547.1899 1738.0922 0.736 -0.669 -0.101 77 46 18
-3805.3975 5501.5771 1667.7008 0.487 -0.565 0.666 143 111 86
-3781.7693 5496.2202 1647.5371 0.488 -0.559 0.670 136 104 79
-3770.4766 5494.2891 1637.7074 0.488 -0.559 0.670 121 89 64
-3377.9641 5615.8838 1238.2242 0.451 -0.502 0.738 159 120 89
-3369.6387 5635.7529 1224.4535 0.494 -0.717 -0.492 151 113 84
-3364.5830 5644.2192 1217.1938 0.494 -0.717 -0.492 121 85 59
-3352.9915 5658.7026 1202.0591 0.489 -0.717 -0.497 102 70 49
-3317.7273 5702.0996 1156.2192 -0.230 -0.902 0.364 47 22 6
-3286.6382 5664.7178 1138.9823 -0.261 -0.893 0.368 43 23 9
-3254.2126 5660.0791 1110.4801 0.460 -0.867 0.191 39 20 6
-3064.2166 5750.1895 907.5342 0.854 -0.514 0.081 83 67 54
-3005.8628 5752.5742 852.9522 0.645 -0.477 0.596 95 75 66
-2784.2534 5640.0967 682.9042 0.806 -0.372 0.459 53 47 35
-2503.5923 5812.2725 371.1445 0.729 -0.158 0.666 84 55 33
-2105.8215 5084.2979 227.1114 0.854 -0.345 -0.389 76 52 26
-2121.4526 5535.3081 103.3498 -0.214 -0.958 -0.193 49 32 22
-1814.6461 4927.0381 6.5858 -0.278 -0.892 0.357 254 217 216
-1814.8019 5140.6284 -58.7133 0.695 -0.615 -0.372 254 238 239
-1611.2394 5326.4204 -303.4949 0.435 -0.741 0.511 254 243 237
-1780.9314 6108.1016 -386.3981 0.569 -0.292 0.769 213 161 163
-1770.6165 6105.9873 -395.2695 0.557 -0.297 0.776 216 160 162
-1760.0266 6102.8467 -404.0800 0.557 -0.297 0.776 219 159 157
-1477.5035 5398.9282 -449.1280 0.261 -0.541 0.799 234 169 165
-649.6304 4641.8042 -981.1464 0.500 -0.697 -0.515 245 73 85
-638.8043 4612.9634 -982.3007 0.779 -0.530 -0.334 249 49 76
-437.8566 4259.0132 -1059.2955 -0.069 -0.722 0.688 255 148 145
-407.7973 4073.1230 -1030.0800 0.091 -0.413 0.906 240 75 101
-168.5154 3562.6321 -1094.4882 -0.561 -0.695 0.449 254 60 80
-92.0975 3430.8684 -1124.6383 -0.483 -0.793 0.371 236 31 46
-4412.0386 5799.6328 2117.5315 -0.230 -0.972 0.046 163 120 88
-3981.0383 5379.6279 1849.8564 0.507 -0.706 0.494 153 107 73
-3965.0129 5371.1733 1837.6896 0.508 -0.699 0.504 153 107 73
-4011.1228 5449.5703 1855.9808 0.331 -0.644 0.690 153 107 73
-3825.5244 5486.2163 1673.4689 0.504 -0.517 0.692 141 109 84
-3810.4109 5493.5205 1657.2711 0.485 -0.562 0.670 128 96 71
-3799.0725 5491.5610 1647.4192 0.485 -0.562 0.670 111 79 54
-3787.7483 5489.6030 1637.5797 0.485 -0.562 0.670 89 57 32
-3452.7393 5524.9053 1317.6774 0.846 -0.283 0.452 151 108 76
-3398.8184 5600.1885 1244.6704 0.720 -0.584 0.375 127 91 59
-3373.4211 5573.8711 1229.3818 0.728 -0.641 0.243 165 126 95
-3386.4412 5612.9434 1229.3113 0.542 -0.753 -0.374 142 103 72
-3385.8979 5629.0239 1223.8386 0.554 -0.744 -0.373 140 101 70
-3377.9246 5632.4360 1215.4294 0.489 -0.717 -0.497 148 110 81
-3372.8855 5640.9111 1208.1619 0.489 -0.717 -0.497 123 88 61
-3367.8347 5649.4058 1200.8771 0.489 -0.717 -0.497 111 77 55
-3362.7717 5657.9204 1193.5751 0.489 -0.717 -0.497 102 70 49
-3330.4854 5706.5137 1148.7734 0.175 -0.552 0.815 45 20 5
-3313.6138 5694.4243 1136.9497 0.175 -0.552 0.815 43 22 9
-3233.5220 5712.2344 1057.5725 -0.131 -0.980 0.150 34 20 9
-3160.7146 5725.1821 986.4175 0.728 -0.662 0.179 90 76 63
-3159.4890 5741.5293 980.2332 0.684 -0.649 0.334 85 72 56
-3110.5857 5687.0601 951.9678 0.181 -0.956 -0.229 68 55 39
-3094.2559 5693.5605 934.8968 -0.317 -0.811 0.491 55 41 28
-3070.0881 5722.9814 903.5104 0.238 -0.965 0.107 76 60 47
-3032.1433 5726.2109 867.5143 -0.127 -0.930 0.344 73 55 43
-2950.2573 5720.4155 793.7803 0.143 -0.939 0.312 72 54 44
-2939.6848 5718.9434 784.4841 0.143 -0.939 0.312 62 45 35
-2817.3218 5569.6421 717.7833 0.443 -0.205 0.872 38 24 15
-2671.8323 6445.7002 312.7525 0.932 -0.357 -0.067 87 57 35
-2359.9583 6070.7808 141.0122 -0.364 -0.911 0.196 34 17 7
-2281.2278 5887.8970 124.9373 -0.001 -0.999 0.040 38 21 11
-2134.8091 5546.9805 95.2888 -0.251 -0.954 -0.164 49 32 22
-1879.6642 5017.6284 23.6157 -0.470 -0.883 -0.013 215 181 172
-1866.9414 5005.2017 15.7231 -0.434 -0.899 -0.062 236 203 194
-1848.1702 4975.7651 7.5104 -0.183 -0.974 -0.136 250 220 213
-1799.5614 4862.3809 -2.2690 -0.264 -0.869 0.418 254 217 215
-1797.2876 4878.4810 -9.3438 -0.332 -0.934 0.130 255 217 216
-1791.8069 4885.6406 -16.6121 -0.212 -0.897 0.388 253 218 216
-1809.9310 4983.1665 -30.0467 0.716 -0.691 -0.097 255 222 220
-1672.7964 5448.3506 -300.3460 -0.061 -0.790 0.610 255 247 246
-1594.4760 5212.4297 -299.6460 0.439 -0.610 0.660 255 248 246
-1725.6570 5750.8242 -345.1039 0.994 0.055 -0.092 220 194 190
-1729.5129 5796.0249 -355.5218 0.994 0.053 -0.093 190 157 155
-1723.0819 5871.1245 -384.6710 0.705 -0.256 0.661 223 169 172
-1706.3164 6014.2681 -444.3886 0.602 -0.487 0.633 229 170 164
-1480.9294 5285.6040 -426.9956 0.929 -0.101 0.357 230 169 164
-1493.5582 5395.8882 -449.4432 0.339 -0.501 0.796 226 163 158
