ply
format ascii 1.0
element vertex 784
property float x
property float y
property float z
property float nx
property float ny
property float nz
property uchar diffuse_red
property uchar diffuse_green
property uchar diffuse_blue
end_header
-2634.5791 1928.2112 2068.9580 0.597 -0.492 0.634 210 202 189
-3920.4431 4852.2939 2884.5750 0.547 -0.599 -0.585 228 223 219
-3931.0720 4883.4819 2890.6895 0.786 -0.339 -0.516 235 228 221
-3935.2603 4906.4492 2892.1440 0.833 -0.288 -0.472 209 198 187
-3933.5542 4921.8267 2889.3403 0.831 -0.289 -0.476 143 126 112
-3962.7319 4977.8042 2908.7749 0.680 -0.423 -0.598 137 114 96
-4025.5610 5645.3076 2901.7200 -0.281 -0.266 -0.922 147 115 90
-2563.1318 5942.4482 1650.1993 -0.317 -0.942 -0.106 2 13 33
-2468.6611 5910.9019 1573.8898 0.222 -0.860 -0.461 92 192 214
-2457.8694 5912.7593 1564.6846 0.152 -0.849 -0.506 72 178 209
-2452.2075 5927.4468 1558.6289 0.261 -0.912 -0.316 65 167 199
-2364.8896 5938.5742 1484.4951 0.649 -0.675 -0.351 169 206 219
-2359.5349 5984.2778 1475.9236 0.994 -0.108 0.000 163 208 225
-2330.8474 5998.9502 1450.5826 0.855 -0.477 -0.204 126 182 212
-2283.6799 6024.9971 1408.7455 -0.234 -0.828 -0.510 4 32 70
-2281.0034 6048.7710 1404.3779 0.039 -0.716 0.697 2 31 71
-2260.6567 6023.8931 1389.5597 0.001 -0.778 0.628 2 32 73
-2148.6003 6576.5571 1246.2858 0.902 -0.218 -0.372 34 112 164
-2041.2666 6307.9883 1180.3940 0.193 -0.597 0.778 30 101 141
-1972.8176 6339.9023 1120.2067 0.094 -0.897 0.433 33 66 86
-2068.4126 6816.3125 1157.6827 0.797 0.062 -0.601 10 38 60
-1763.3181 6374.6313 941.6216 0.172 -0.969 0.179 17 12 22
-1757.9701 6395.1416 935.3082 -0.199 -0.966 -0.166 24 12 23
-1746.9784 6394.4536 926.1629 -0.199 -0.966 -0.166 79 61 72
-1738.0123 6401.4062 918.0311 -0.208 -0.971 -0.116 186 163 171
-2603.0403 1879.3057 2038.2611 0.796 -0.588 0.144 207 201 189
-2621.5193 1900.6882 2051.7512 0.861 -0.468 0.200 207 197 185
-2626.9539 1918.1010 2054.6980 0.588 -0.498 0.638 206 198 185
-2768.7515 2040.5643 2162.0308 0.248 -0.545 0.801 206 198 185
-3930.1370 4852.9609 2875.1494 0.436 -0.599 -0.672 229 224 220
-3938.9358 4881.7217 2879.8684 0.786 -0.339 -0.516 234 228 221
-3939.0020 4899.2847 2878.3125 0.834 -0.287 -0.472 210 199 189
-3940.8911 4919.3076 2878.0552 0.831 -0.289 -0.476 146 129 114
-3936.9773 4931.8315 2873.6340 0.833 -0.288 -0.472 137 115 96
-2474.0312 5901.6216 1561.3994 0.082 -0.759 -0.646 38 142 169
-2465.3496 5908.7012 1553.4907 0.118 -0.728 -0.676 47 150 182
-2457.3701 5917.5479 1546.0070 0.212 -0.808 -0.549 50 152 186
-2449.6062 5926.9653 1538.6512 0.418 -0.872 -0.254 79 176 209
-2441.2368 5934.8901 1530.9260 0.568 -0.720 0.399 119 206 229
-2345.8408 5984.3442 1446.6221 0.876 -0.478 -0.061 165 235 247
-2308.6255 6037.2021 1410.6548 0.909 -0.416 0.009 48 85 121
-2284.4280 6033.1792 1390.7908 0.017 -0.777 0.630 26 62 101
-2266.1172 6013.9521 1377.2435 0.001 -0.778 0.628 25 62 101
-2239.4304 6002.3677 1355.9917 0.007 -0.784 0.620 23 64 99
-2133.0171 5984.1104 1268.6870 0.307 -0.676 -0.670 0 36 69
-2128.5681 6003.2549 1263.2104 0.366 -0.930 -0.031 2 52 87
-2123.2812 6020.0762 1257.2467 0.155 -0.960 0.234 6 61 98
-1936.7257 6262.7427 1078.9937 0.810 -0.246 0.533 25 52 74
-1928.7107 6272.6724 1071.3809 0.810 -0.246 0.533 21 47 69
-1776.4702 6389.8770 933.3303 -0.231 -0.956 -0.183 16 12 22
-1770.1146 6406.6353 926.4786 -0.194 -0.963 -0.188 23 12 23
-1760.4268 6410.9692 917.9803 -0.190 -0.978 -0.086 79 61 72
-1749.7963 6411.7109 909.0234 -0.200 -0.976 -0.084 186 163 172
-1732.9891 6430.1055 893.2823 0.691 -0.288 -0.663 199 166 166
-3944.2153 4859.2715 2868.8435 0.472 -0.577 -0.667 229 228 222
-3952.3889 4887.1934 2873.0400 0.789 -0.347 -0.507 228 224 216
-3953.4998 4906.1050 2872.1885 0.775 -0.366 -0.516 226 217 207
-3957.3081 4928.6187 2873.2500 0.754 -0.279 -0.595 166 152 137
-3950.8425 4937.8267 2866.9866 0.701 -0.371 -0.609 135 116 94
-2501.2346 5917.6729 1564.8014 -0.319 -0.865 -0.388 73 168 192
-2461.5186 5933.9624 1530.1171 0.222 -0.749 -0.624 48 137 176
-2382.2578 5878.1084 1469.2097 0.701 -0.630 0.336 140 219 245
-2370.0615 5875.8608 1459.2406 0.783 -0.478 -0.397 152 223 244
-2331.4441 5952.3008 1419.8160 0.769 -0.477 -0.427 134 206 217
-2326.2590 5968.6128 1413.9537 0.857 -0.513 -0.047 131 202 213
-2307.6753 6040.7646 1391.6550 0.848 -0.529 0.043 168 219 255
-2289.7998 6023.0166 1378.4031 0.017 -0.777 0.630 152 205 244
-2243.8599 5989.6465 1343.1947 -0.459 -0.800 0.385 150 206 244
-2221.8850 5959.6465 1327.6733 0.084 -0.757 0.647 124 193 222
-2207.9958 5951.9019 1316.8082 0.084 -0.757 0.647 115 189 221
-2143.4441 5988.4985 1259.4830 0.307 -0.676 -0.670 24 89 128
-2130.9033 6016.2002 1246.4095 0.155 -0.960 0.234 26 88 131
-2037.1268 6271.8281 1144.0881 0.436 -0.698 -0.569 22 73 94
-1852.3345 6241.0244 992.7347 0.473 -0.749 -0.463 9 27 37
-1844.3298 6250.7739 985.1360 0.473 -0.749 -0.463 3 20 30
-1846.1343 6295.2090 982.4628 0.370 -0.482 0.794 15 30 40
-1833.4182 6288.5239 972.4772 0.370 -0.482 0.794 15 32 42
-1767.6462 6403.9531 906.7187 -0.203 -0.967 -0.153 89 74 84
-1756.5918 6403.0820 897.5732 -0.203 -0.967 -0.153 170 149 159
-1743.6396 6394.9253 887.5290 -0.202 -0.969 -0.144 188 160 164
-1737.5411 6412.7729 880.7596 0.651 -0.318 -0.689 190 160 163
-3959.5779 4884.5562 2861.7312 0.845 -0.357 -0.399 228 224 215
-3960.3711 4903.0186 2860.6128 0.776 -0.364 -0.515 226 217 206
-3958.4619 4918.0586 2857.5725 0.783 -0.365 -0.504 166 152 137
-3956.0691 4932.5327 2854.1836 0.787 -0.371 -0.493 135 116 94
-2620.4709 5928.7368 1645.2427 0.552 -0.812 -0.189 139 135 121
-2479.6252 5927.5483 1527.9929 0.250 -0.822 -0.513 91 174 198
-2468.3208 5928.1680 1518.5135 0.588 -0.775 -0.232 120 202 221
-2406.6458 5888.3633 1470.9570 0.509 -0.766 0.392 167 251 255
-2346.0142 5966.8975 1412.8649 0.583 -0.682 0.442 90 159 182
-2313.1670 6030.9556 1379.3203 0.848 -0.529 0.043 40 85 122
-2295.1553 6012.8857 1366.0530 0.017 -0.777 0.630 45 93 131
-2276.9897 5994.1602 1352.7206 0.001 -0.778 0.628 44 94 131
-2226.4106 5947.3721 1315.0834 0.203 -0.858 0.472 100 164 198
-2211.5916 5937.0327 1303.7312 0.056 -0.754 0.655 103 171 207
-2153.8879 5992.8931 1250.2642 0.307 -0.676 -0.670 143 215 249
-2143.5769 5994.9717 1241.4719 -0.417 -0.761 -0.497 142 215 250
-2138.5178 6012.3276 1235.5835 0.155 -0.960 0.234 142 215 249
-2131.4500 6023.9175 1228.5770 -0.108 -0.875 0.473 144 215 249
-2116.3796 6011.9902 1217.1687 0.063 -0.811 0.582 127 196 223
-2069.4731 6309.7612 1149.3843 0.785 -0.588 0.196 25 72 93
-2042.9962 6296.9390 1128.5573 0.782 -0.574 0.244 26 71 90
-1942.8130 6259.1768 1048.7157 -0.106 -0.912 0.395 18 41 59
-1854.5916 6255.2832 975.5776 0.475 -0.407 0.780 6 23 33
-1772.1573 6386.8984 894.2020 -0.125 -0.987 -0.105 89 74 85
-1762.7675 6392.2090 885.8658 -0.175 -0.978 -0.110 170 149 159
-1749.4829 6382.8057 875.7023 -0.179 -0.976 -0.127 189 160 165
-1742.7043 6397.9360 868.5956 0.736 -0.335 -0.588 190 159 164
-1719.8414 7165.0444 775.6128 0.689 -0.364 -0.627 214 180 178
-3962.6511 4894.0146 2845.8186 0.778 -0.361 -0.514 226 217 206
-3962.8425 4911.7266 2844.2300 0.781 -0.367 -0.505 166 152 137
-3961.5115 4927.5410 2841.5618 0.776 -0.364 -0.515 135 116 94
-2769.0142 6139.5786 1729.9734 0.771 -0.307 -0.558 177 149 142
-2664.4275 5981.9648 1658.5293 -0.488 -0.867 -0.095 121 112 97
-2588.2222 5970.4292 1596.2771 0.244 -0.858 0.452 117 148 163
-2500.1694 5927.1304 1527.3046 -0.102 -0.988 -0.113 45 101 127
-2489.7397 5929.9824 1518.3473 0.262 -0.785 -0.561 47 111 139
-2476.3132 5925.3662 1507.6343 0.588 -0.775 -0.232 43 112 140
-2435.1233 5908.6367 1475.0217 0.374 -0.823 0.427 52 121 149
-2427.8875 5919.2778 1467.9525 0.357 -0.837 0.415 70 138 165
-2389.9316 5968.5889 1431.5127 0.099 -0.936 0.337 136 198 217
-2357.6538 5943.8726 1407.1019 -0.067 -0.807 0.586 132 191 212
-2351.2563 5956.8579 1400.4987 0.507 -0.660 0.554 131 190 213
-2300.4946 6002.7856 1353.7402 0.017 -0.777 0.630 4 41 76
-2282.4016 5984.3071 1340.5134 0.001 -0.778 0.628 3 41 76
-2232.4988 5939.5039 1303.4241 0.203 -0.858 0.472 4 40 81
-2216.5352 5926.0176 1291.4758 0.056 -0.754 0.655 2 43 85
-2202.4670 5917.6245 1280.6016 0.056 -0.754 0.655 8 50 93
-2164.3484 5997.2944 1241.0302 0.307 -0.676 -0.670 52 111 157
-2156.7534 6007.2603 1233.7288 -0.417 -0.761 -0.497 49 112 158
-2150.4512 6021.0244 1227.1279 -0.456 -0.730 -0.509 49 113 157
-2138.6550 6018.8359 1217.5312 -0.108 -0.875 0.473 49 114 155
-2122.8933 6004.9316 1205.7924 0.063 -0.816 0.575 85 147 186
-2103.8416 5981.1201 1192.2942 0.865 -0.444 0.233 88 151 187
-1783.2383 6394.3940 884.8160 -0.142 -0.990 0.019 89 74 85
-1772.5968 6395.0830 875.8959 -0.175 -0.978 -0.110 170 149 159
-1760.5461 6390.4155 866.3324 -0.178 -0.977 -0.116 190 160 165
-3973.3582 4861.2559 2840.4788 0.548 -0.585 -0.598 228 228 221
-3972.3523 4894.6108 2836.2747 0.482 -0.298 -0.824 227 218 207
-2523.7168 5933.9409 1528.3451 -0.425 -0.869 0.254 120 172 198
-2510.1875 5929.2803 1517.5811 -0.102 -0.988 -0.113 123 173 202
-2484.2998 5922.5654 1496.7622 0.588 -0.775 -0.232 160 211 235
-2440.6660 5899.8008 1462.8280 0.374 -0.823 0.427 157 209 230
-2286.3652 6001.1763 1324.4565 -0.462 -0.803 0.378 1 33 67
-2174.3210 6000.2573 1231.5077 0.308 -0.667 -0.679 8 46 92
-2169.9854 6019.6011 1225.9535 -0.417 -0.761 -0.497 7 49 93
-2161.9341 6028.3408 1218.3850 -0.423 -0.756 -0.499 6 49 94
-2145.8496 6013.7612 1206.5010 -0.108 -0.875 0.473 5 50 94
-2128.0015 5993.8193 1193.6941 -0.101 -0.880 0.464 6 48 93
-2122.1360 6008.8047 1187.3098 -0.163 -0.557 -0.814 1 41 85
-2113.2402 6014.9409 1179.3030 -0.178 -0.557 -0.811 2 48 92
-2075.8342 6100.5195 1139.5968 0.453 -0.715 0.533 34 85 130
-1917.0502 6078.7749 1009.9387 0.480 -0.815 0.326 52 75 93
-1907.1034 6081.2246 1001.4314 0.480 -0.815 0.326 16 39 57
-1823.6825 6429.5781 896.9724 -0.056 -0.904 -0.424 8 7 13
-1798.7131 6418.0317 877.4041 -0.227 -0.967 -0.115 90 74 84
-1787.4230 6416.4844 868.1850 -0.227 -0.967 -0.115 170 149 159
-3983.8850 4862.9429 2831.5735 0.774 -0.464 -0.431 224 224 217
-3990.6062 4906.1943 2832.6765 0.497 -0.308 -0.811 236 227 216
-2605.0825 5910.6836 1580.3446 0.439 -0.888 -0.136 5 17 14
-2591.5825 5934.3804 1566.7054 0.702 -0.621 -0.349 1 18 25
-2583.3970 5942.8848 1559.0413 0.695 -0.629 -0.348 0 19 32
-2576.1326 5953.6226 1551.9099 -0.200 -0.975 -0.091 0 20 39
-2529.4788 5925.6733 1516.1232 -0.435 -0.823 0.364 0 23 51
-2518.2925 5926.7378 1506.7401 -0.412 -0.880 0.235 20 52 73
-2487.2024 5907.2485 1482.9812 0.638 -0.739 -0.216 20 53 74
-2447.5942 5837.6978 1457.3333 0.204 -0.635 0.745 20 52 75
-2431.5955 5854.4976 1442.3351 0.522 -0.787 0.328 58 91 112
-2422.1465 5859.2959 1434.0065 0.759 -0.354 -0.547 74 106 127
-2402.9622 5955.3169 1408.1826 0.121 -0.926 0.357 120 154 174
-2274.1133 5973.8774 1299.4537 -0.435 -0.869 -0.237 15 35 69
-2221.7942 5891.4961 1264.5946 0.015 -0.751 0.661 13 26 69
-2194.8176 6033.1914 1227.5923 -0.109 -0.840 -0.531 6 39 75
-2163.2937 6006.4370 1204.2244 -0.106 -0.871 0.480 2 40 79
-2127.3147 6030.1260 1171.9517 -0.178 -0.557 -0.811 1 40 83
-2118.2654 6035.8936 1163.8541 -0.337 -0.640 -0.690 1 41 83
-2042.4449 5939.4146 1110.9695 -0.190 -0.467 -0.864 22 69 109
-2095.3379 6304.1372 1117.1337 0.921 -0.220 -0.321 26 54 81
-1838.4283 6449.9214 889.1025 0.267 -0.957 0.113 16 14 21
-3990.1211 4876.3828 2817.8599 0.597 -0.480 -0.643 228 225 216
-2968.7617 6352.8027 1816.7075 0.604 -0.339 -0.721 166 139 120
-2711.9773 5863.3037 1655.9146 0.080 -0.321 -0.944 159 132 115
-2606.2390 5947.2637 1559.5447 0.648 -0.618 -0.446 6 16 19
-2592.9543 5943.6919 1548.9285 0.709 -0.616 -0.343 5 15 25
-2586.6235 5956.6499 1542.3209 -0.197 -0.977 -0.082 4 16 32
-2557.4651 5942.9849 1519.6346 -0.421 -0.861 0.286 3 14 40
-2540.6497 5930.5625 1507.0316 -0.421 -0.861 0.286 3 15 41
-2492.9619 5899.0547 1470.8965 0.623 -0.761 -0.181 10 25 39
-2411.1211 5952.9595 1397.4773 0.236 -0.911 0.337 13 38 54
-2400.9062 5956.0747 1388.6951 0.241 -0.889 0.389 4 27 45
-2243.3799 6177.8804 1234.9091 0.892 -0.041 -0.451 9 37 76
-2221.2654 6147.0737 1219.8625 0.981 -0.127 -0.149 8 38 76
-2209.5066 6145.7456 1210.2722 -0.223 -0.806 -0.548 7 38 76
-2180.5513 6094.5166 1191.7218 0.325 -0.172 -0.930 8 37 77
-2184.8911 6172.5273 1187.0732 0.295 -0.133 -0.946 8 38 76
-2170.8372 6164.3096 1176.3112 0.201 -0.638 -0.743 6 39 76
-2160.1509 6165.9072 1167.2992 0.256 -0.777 -0.575 12 52 86
-2101.6382 6295.0830 1105.2340 0.921 -0.220 -0.321 32 51 80
-1848.0835 6451.6680 878.8707 0.372 -0.921 0.114 16 14 21
-1834.2308 6521.7109 860.0090 0.767 0.114 -0.631 160 141 150
-1800.4196 6730.2651 810.0005 0.635 -0.055 -0.771 184 153 157
-3571.6375 4971.5249 2444.4109 -0.764 -0.592 -0.256 126 94 69
-2827.4883 5911.7832 1728.1903 0.768 -0.558 0.315 170 138 118
-2862.5750 6068.9175 1740.2156 0.749 -0.560 0.355 166 139 120
-2777.1562 5934.4365 1684.1663 -0.299 -0.922 0.246 157 130 111
-2742.6643 5911.2964 1658.1699 0.097 -0.994 -0.059 129 102 85
-2644.4612 5932.0708 1574.8027 -0.311 -0.949 0.051 6 10 3
-2620.5286 5903.7744 1558.0862 0.355 -0.888 -0.294 8 17 8
-2631.5364 5985.1562 1558.3960 0.625 -0.777 -0.078 9 15 15
-2622.2695 5991.3149 1550.0760 0.594 -0.804 0.035 10 13 20
-2612.3162 5995.8418 1541.3650 0.595 -0.803 0.037 12 13 26
-2596.0134 5985.1719 1529.0490 0.062 -0.997 0.037 13 11 32
-2433.3125 5786.1792 1416.1199 0.184 -0.636 0.749 7 9 16
-2408.6357 5923.4492 1380.9188 -0.011 -0.957 0.289 11 27 40
-2370.2852 5912.3887 1350.4314 -0.013 -0.936 0.351 11 24 43
-2400.5725 6050.5439 1360.5405 0.593 -0.803 -0.062 16 21 45
-2201.7759 6097.3457 1191.2640 -0.364 -0.777 -0.513 17 34 73
-2209.7156 6152.5703 1191.8625 0.276 -0.110 -0.955 17 34 73
-2157.2205 6097.6934 1154.4196 -0.158 -0.601 -0.784 13 36 70
-2116.2170 6042.0703 1126.5500 -0.162 -0.971 0.176 34 68 100
-2081.3469 6203.9819 1080.2690 0.910 -0.365 -0.199 35 50 78
-2059.1741 6204.0308 1061.9469 0.851 -0.526 -0.011 23 37 66
-1853.3228 6437.5186 866.6935 0.325 -0.944 0.062 16 14 21
-666.7888 2999.5081 257.5680 0.109 -0.030 -0.994 239 207 202
-4050.3318 4964.4595 2822.8811 -0.139 -0.600 -0.788 197 184 169
-3658.3730 5920.0957 2394.3049 0.088 -0.929 0.359 169 137 117
-2867.4475 5977.9199 1735.6835 0.734 -0.521 0.435 169 138 119
-2835.7761 5989.2041 1708.3210 0.602 -0.653 0.459 164 140 123
-2467.0203 5903.7783 1413.6383 0.942 -0.296 -0.160 19 15 20
-2454.7656 6017.7598 1390.9678 0.025 -0.990 0.138 13 19 33
-2437.5676 6003.3696 1378.3716 0.327 -0.928 0.178 17 22 36
-2426.8474 6005.4136 1369.3057 0.327 -0.928 0.178 17 22 36
-2301.1367 5884.2207 1278.9960 0.349 -0.707 0.616 17 14 34
-2282.8555 5894.8340 1262.7501 -0.037 -0.827 0.562 17 14 35
-2169.2715 6106.5269 1145.7461 0.051 -0.614 -0.787 18 35 64
-1888.5135 6906.3276 826.0514 0.576 -0.084 -0.813 181 154 157
-1789.6888 6879.2598 747.5380 -0.206 -0.978 -0.037 191 160 160
-3998.7878 4852.2446 2775.3586 0.150 -0.628 -0.764 227 225 219
-4069.9673 4977.5825 2819.8516 0.134 -0.499 -0.856 217 204 192
-4065.5261 4989.5054 2814.8535 0.107 -0.643 -0.758 143 126 108
-2876.5349 5977.0703 1724.9041 0.607 -0.732 -0.309 156 128 109
-2848.6650 5943.3784 1705.7521 0.288 -0.276 -0.917 149 132 119
-2842.3833 5956.2803 1699.1288 0.509 -0.218 -0.833 144 128 117
-2839.8015 5977.3218 1694.6355 0.717 -0.098 -0.690 101 85 73
-2821.6733 5964.4014 1681.1658 -0.426 -0.886 0.183 95 81 70
-2640.1936 5906.7378 1538.2544 -0.085 -0.831 -0.550 12 17 7
-2441.3638 5960.5659 1368.5135 0.359 -0.907 0.221 11 11 13
-2249.7878 5841.6099 1224.1882 0.705 -0.628 0.331 12 14 20
-2169.6292 6081.3013 1131.2261 0.936 -0.165 0.312 16 21 33
-1874.6166 6448.1079 847.0845 0.172 -0.942 0.287 13 11 13
-1524.9758 6156.9619 592.0114 -0.049 0.030 -0.998 207 174 169
-3424.7397 6250.8389 2125.6416 0.553 -0.509 0.660 165 127 91
-2894.7078 5995.7412 1719.3506 0.568 -0.753 -0.332 155 128 109
-2871.2729 5971.8325 1702.8370 0.355 -0.362 -0.862 147 131 118
-2851.0657 5981.2666 1685.1473 0.509 -0.197 -0.838 68 54 45
-2832.5825 5967.6538 1671.5210 -0.426 -0.886 0.183 51 38 29
-2655.2317 5920.2422 1531.2173 -0.158 -0.820 -0.551 18 20 14
-2611.8132 5901.3921 1497.7001 -0.541 -0.841 -0.019 19 18 21
-2385.0754 5629.9805 1342.5312 -0.707 -0.629 -0.322 19 14 14
-2385.6084 5853.7866 1317.2701 0.585 -0.275 0.763 19 19 17
-2313.8025 6404.6455 1195.0061 -0.244 -0.290 -0.926 16 17 22
-2106.8650 6000.3062 1071.3728 -0.131 -0.591 0.796 23 24 43
-1996.9321 5831.5659 1000.4054 0.653 -0.745 -0.134 24 24 30
-1924.3546 6552.0737 858.0268 -0.107 -0.794 0.599 18 16 17
-1881.8784 6939.1992 778.6670 0.494 -0.866 0.080 136 117 115
-1873.1578 6950.1606 770.2416 -0.082 -0.996 0.017 136 117 113
-1809.4958 6881.5977 725.7968 -0.222 -0.490 -0.843 154 135 131
-1803.5085 7040.5356 702.6259 -0.042 -0.413 -0.910 188 157 154
-1633.9609 6574.8530 616.7639 0.172 -0.181 -0.968 210 179 174
-3017.7063 6156.9556 1782.9847 0.642 -0.767 0.028 156 128 106
-2895.0459 5976.0942 1703.5393 0.513 -0.797 -0.320 155 128 109
-2879.5935 5969.3696 1691.6501 0.672 -0.503 -0.544 151 135 123
-2865.8967 5966.3281 1680.7698 0.503 -0.223 -0.835 134 120 111
-2827.2131 5988.7661 1646.4066 -0.426 -0.887 0.176 51 38 29
-2755.9646 5858.4785 1603.2151 0.259 -0.966 0.029 51 38 29
-2005.5740 5831.7847 990.7368 0.756 -0.645 -0.112 17 18 21
-2097.8733 6245.7764 1017.9702 0.814 -0.459 -0.355 16 17 19
-1899.1227 5958.9580 888.5117 0.383 -0.878 -0.288 14 15 17
-1885.9700 6917.8188 765.4190 0.405 -0.911 0.083 73 54 51
-1878.8514 6934.7324 757.5981 -0.051 -0.999 0.001 73 54 50
-1625.2563 6545.3633 595.1572 0.314 0.090 -0.945 199 167 161
-1764.9244 7274.6196 624.3270 -0.039 0.030 -0.999 143 106 98
-464.6819 2117.5579 161.6342 0.437 -0.247 -0.865 218 149 142
-4095.2739 4956.4814 2789.9021 0.913 -0.212 -0.349 231 224 217
-4091.4226 4969.0449 2785.2478 0.915 -0.245 -0.321 219 207 195
-4089.6729 4984.3306 2781.9897 0.888 -0.336 -0.314 146 128 112
-4087.0369 4998.5483 2778.1333 0.866 -0.365 -0.342 142 119 97
-3813.6079 5254.7261 2523.6167 -0.678 -0.705 -0.209 119 87 64
-2899.5623 4721.4731 1838.7314 0.619 -0.779 0.100 161 125 100
-3461.4961 5724.7949 2179.1218 -0.535 -0.293 -0.792 160 123 94
-3459.7922 5883.4517 2158.7810 -0.199 -0.209 -0.958 163 123 89
-2942.5164 6004.1201 1720.7465 0.556 -0.617 0.557 156 128 106
-2900.1985 5940.6172 1693.6731 -0.391 -0.873 -0.291 156 128 106
-2904.0029 5974.9673 1692.6869 0.524 -0.788 -0.323 155 128 109
-2890.0002 5971.3896 1681.6466 0.602 -0.555 -0.574 109 93 83
-2878.5754 5973.2803 1672.0646 0.499 -0.225 -0.837 103 89 80
-2873.2139 5988.2437 1665.8867 0.509 -0.239 -0.827 59 46 37
-2850.5608 5992.3911 1646.8396 0.352 -0.301 -0.886 46 33 24
-2864.1201 6048.9136 1651.1946 0.380 -0.364 -0.850 46 33 24
-2187.4666 6054.9502 1096.3254 0.956 -0.163 0.242 4 5 9
-1946.4205 5816.6895 927.3708 0.940 -0.320 0.119 11 13 12
-1870.9084 6533.8398 779.8940 0.451 -0.681 -0.577 70 59 57
-1843.0304 6892.7163 714.2093 -0.371 -0.844 0.386 72 53 49
-1768.8593 6869.5264 656.2357 -0.210 -0.925 -0.316 195 164 161
-1632.0510 6491.9575 589.2819 0.319 0.094 -0.943 176 145 140
-4102.1978 4953.3906 2778.2639 0.916 -0.218 -0.337 233 226 218
-4094.9885 4996.6855 2767.1013 0.802 -0.395 -0.447 136 112 92
-4075.2021 5006.6191 2749.7166 0.817 -0.528 -0.234 139 109 85
-2922.2349 4727.5508 1841.0916 0.379 -0.858 0.346 150 116 91
-3657.4824 6044.0415 2281.9641 -0.123 -0.665 0.736 153 116 87
-3130.6829 6270.8335 1823.6886 0.346 -0.450 0.824 149 121 97
-2912.8330 5973.5728 1681.7659 0.524 -0.788 -0.323 113 86 67
-2880.1658 5956.3901 1657.1505 0.939 -0.150 -0.309 49 35 26
-2875.7642 5973.3237 1651.4912 0.944 -0.144 -0.298 42 29 20
-2866.3015 6032.8623 1636.5094 0.383 -0.293 -0.876 33 20 11
-2537.8118 5692.1567 1409.4222 0.015 -0.934 -0.356 19 37 65
-2635.7305 6146.2236 1434.2145 -0.556 -0.661 -0.503 27 25 35
-2006.1964 6008.2593 936.3406 0.503 -0.826 -0.254 5 6 8
-1917.3960 6919.3315 752.8671 0.718 -0.208 -0.664 68 53 51
-1909.8820 6934.6440 744.8606 0.579 -0.695 -0.426 70 52 49
-1869.0933 6911.5981 714.3192 -0.280 -0.847 0.452 70 51 47
-1854.9337 6901.4092 703.9833 -0.280 -0.847 0.452 67 48 44
-4016.8157 4817.1821 2707.8149 0.587 -0.436 -0.682 229 227 221
-4093.3496 4982.6318 2749.7620 0.916 -0.229 -0.328 135 111 91
-3715.4141 6053.9717 2308.4963 0.425 -0.732 0.532 150 116 91
-3693.4551 6064.2109 2289.3059 -0.125 -0.657 0.743 144 107 79
-3645.9795 6402.5669 2208.6101 0.927 -0.073 0.368 109 68 36
-3255.1863 6396.6455 1890.4137 -0.496 -0.850 -0.177 156 121 93
-3217.2263 6401.4189 1858.8424 0.803 -0.589 0.090 127 98 75
-3041.7495 6119.0854 1750.6387 0.462 -0.581 0.670 79 51 29
-2897.5166 5869.3257 1663.8948 0.597 -0.317 0.737 81 54 33
-2897.4016 5946.8149 1654.1936 0.893 -0.433 -0.122 51 35 24
-2594.1814 5670.6865 1440.9679 0.965 -0.122 0.231 28 25 17
-2703.6272 6228.1846 1461.1671 0.105 -0.301 -0.948 14 22 55
-2009.8060 5894.3838 936.3183 0.749 -0.456 -0.482 15 16 20
-1992.4326 5873.5771 924.7194 0.157 -0.980 0.123 15 16 20
-1976.7234 5988.9263 897.5975 0.995 -0.007 -0.095 12 16 17
-1990.1227 6098.9390 894.8929 0.992 -0.022 -0.125 8 9 11
-2001.7228 6170.4072 895.4991 0.636 -0.464 -0.617 8 9 11
-1968.8051 6349.1987 846.4674 -0.245 -0.968 0.047 4 5 7
-1811.1729 6216.0967 734.3246 0.186 -0.561 -0.807 65 54 53
-1788.2842 6826.1089 640.0134 0.619 -0.539 0.572 157 128 124
-1777.6895 6828.7544 631.0389 0.619 -0.539 0.572 147 116 113
-4099.0054 4977.8955 2737.2803 0.916 -0.229 -0.328 136 112 92
-3483.0212 6315.4141 2066.5610 0.955 -0.297 0.022 131 93 57
-3155.9788 6148.4233 1821.2075 0.202 -0.727 -0.656 160 125 97
-2886.7925 5956.4521 1626.1433 0.971 -0.183 -0.154 30 17 8
-2614.2087 5964.8105 1403.0162 0.553 -0.084 -0.829 17 28 77
-1995.2253 5792.4292 920.5020 0.997 -0.080 0.022 23 24 26
-1993.1202 5881.6143 907.5259 0.850 -0.473 0.229 28 29 31
-2005.6467 5985.4946 904.6147 0.185 -0.983 -0.015 25 29 30
-1992.6847 6147.7354 873.5692 0.394 -0.887 -0.240 16 16 18
-1821.7622 5898.5000 765.7900 0.503 -0.841 -0.198 12 13 13
-1864.6691 6374.1392 740.6890 0.940 0.124 -0.319 65 54 53
-1675.5337 6145.9712 615.4119 0.400 -0.656 -0.640 78 59 55
-4118.9517 4939.1489 2740.8198 0.566 -0.481 -0.670 232 226 217
-4102.3774 4970.2861 2723.3379 0.755 -0.324 -0.570 137 112 94
-4087.1809 5569.7002 2633.9275 -0.417 -0.842 -0.341 121 89 66
-3676.9065 6025.0278 2241.7324 -0.044 -0.650 0.759 123 83 53
-3488.2656 6305.8667 2052.2153 0.952 -0.307 0.018 122 84 48
-2038.5563 6195.7358 887.3621 0.452 -0.828 -0.332 37 33 32
-1843.2582 5873.5986 769.9404 0.821 -0.568 -0.051 30 32 26
-1803.3545 5876.8408 737.0710 0.324 -0.946 0.036 18 13 14
-1688.1653 6161.0918 606.8518 0.412 -0.629 -0.659 83 65 61
-1471.0980 6015.7251 449.0028 0.594 -0.607 -0.528 234 196 189
-4137.5547 4950.7173 2736.8284 0.531 -0.488 -0.693 228 228 211
-4116.1807 4941.2104 2720.7195 0.808 -0.319 -0.495 233 224 212
-4120.1904 4963.5562 2721.0518 0.819 -0.306 -0.486 201 185 173
-4116.4956 4976.2812 2716.3870 0.625 -0.560 -0.544 138 115 105
-4129.8452 5028.2451 2720.4272 0.786 -0.588 -0.188 137 109 95
-4131.2920 5597.5571 2647.1240 -0.467 -0.852 -0.235 125 93 72
-4109.5439 5587.1450 2630.8296 -0.413 -0.849 -0.330 119 87 66
-3647.2712 5980.9277 2204.0154 0.522 -0.525 0.672 124 81 47
-3631.4631 5977.4341 2191.6384 0.519 -0.528 0.673 129 86 52
-2933.6960 5937.6787 1630.3517 0.516 -0.584 0.626 27 23 6
-2755.0908 6195.1001 1451.6735 -0.342 -0.925 0.164 28 34 45
-1987.2449 5780.0146 882.5938 0.784 -0.216 0.582 34 32 28
-2008.0961 6140.1689 852.4064 0.474 -0.841 -0.260 81 54 47
-1583.5172 6240.2349 494.6182 -0.185 -0.935 0.304 221 181 173
-1340.5132 5505.5205 393.4495 0.753 -0.508 -0.418 238 204 197
-4123.8125 4939.0654 2709.6304 0.808 -0.319 -0.495 232 224 211
-4127.7144 4961.2329 2709.8425 0.819 -0.306 -0.486 201 185 175
-4122.7363 4972.3198 2704.3323 0.751 -0.567 -0.339 137 116 107
-4136.8154 5025.0938 2708.7185 0.823 -0.568 -0.020 137 109 96
-3682.5559 5976.8130 2213.8987 -0.161 -0.660 0.734 117 74 41
-3643.6223 6004.4707 2178.6643 0.285 -0.790 -0.543 140 97 63
-3291.7563 6387.7310 1842.4871 -0.432 -0.737 -0.520 140 100 74
-2857.6077 5708.8228 1580.9927 0.462 -0.813 0.354 29 22 4
-2788.1575 6249.6304 1452.7289 -0.329 -0.922 0.205 29 28 31
-2778.8635 6256.8032 1444.2421 -0.361 -0.916 0.173 28 22 26
-2063.1907 6182.2817 874.1480 0.961 -0.216 0.175 63 47 35
-2028.3226 6175.9321 846.7346 0.592 -0.767 -0.248 86 53 46
-1831.1107 5879.1318 726.4078 0.671 -0.693 -0.263 67 57 47
-4130.5234 4935.7769 2697.9612 0.809 -0.319 -0.494 233 225 212
-4128.5952 4950.5923 2694.3958 0.808 -0.319 -0.495 201 185 174
-4125.9966 4964.6250 2690.3936 0.809 -0.325 -0.490 137 116 107
-4067.6755 4942.8926 2646.1521 0.823 -0.568 -0.016 134 105 85
-3651.3872 6024.0322 2163.0134 0.318 -0.458 -0.830 141 98 64
-3401.6309 6265.0312 1928.3301 0.948 0.064 -0.313 137 94 60
-3307.9175 6345.7417 1841.5878 0.269 -0.960 0.082 140 100 74
-3322.0906 6427.9541 1841.9255 -0.404 -0.692 -0.598 124 84 58
-3281.7412 6374.1240 1816.5684 -0.596 -0.628 -0.500 105 65 40
-2719.2832 5930.9937 1421.5066 0.911 -0.307 -0.274 28 23 20
-2709.9902 5963.9814 1409.5228 0.911 -0.301 -0.281 25 21 20
-2712.4888 5997.0024 1407.0743 0.876 -0.426 -0.227 25 21 20
-2718.9670 6067.1953 1402.8138 0.859 -0.443 -0.255 25 21 21
-1617.9535 6226.7549 490.4608 0.280 -0.715 0.641 246 196 192
-4102.2515 4706.2178 2689.1987 0.005 -0.305 -0.952 231 230 225
-4141.0967 4989.1826 2681.6260 0.460 -0.256 -0.850 133 107 99
-4079.7585 4946.4277 2637.9724 0.833 -0.553 -0.037 135 106 86
-3686.7893 6114.9023 2159.7825 0.318 -0.522 -0.791 141 98 64
-3623.1870 6053.0220 2116.9324 0.187 -0.357 -0.915 142 97 64
-3412.6890 6215.3247 1924.5919 0.982 -0.170 0.084 132 89 57
-3309.0637 6327.8091 1825.4205 0.223 -0.973 0.058 135 95 69
-3271.5491 6279.9370 1801.7115 -0.176 -0.833 -0.525 147 107 81
-3313.6714 6390.5737 1820.5033 -0.339 -0.654 -0.677 114 74 48
-3302.8494 6395.9575 1811.0222 -0.425 -0.668 -0.611 95 55 30
-2895.4001 5749.1904 1570.9740 0.138 -0.785 0.603 28 22 6
-1987.1796 5860.8403 822.1096 0.822 -0.486 0.297 55 44 30
-1960.1185 5809.7305 807.2890 0.802 -0.591 0.090 65 47 35
-1969.0250 5869.3188 806.2808 0.907 -0.170 -0.386 79 55 45
-1684.2333 5730.0947 595.4388 -0.147 -0.836 -0.528 52 41 35
-1641.4523 5896.3291 538.0088 0.703 -0.562 -0.435 21 13 10
-4154.7949 4959.9316 2679.1235 0.461 -0.244 -0.853 220 204 196
-4153.1401 4975.1445 2675.6614 0.461 -0.244 -0.853 155 134 127
-4114.5435 4978.6445 2644.0547 0.675 -0.582 -0.454 136 108 88
-3706.8206 6013.1416 2170.6201 -0.139 -0.492 -0.859 149 106 72
-3694.7964 6087.1499 2150.5725 0.080 -0.174 -0.981 148 105 71
-3743.5334 6194.5903 2174.8342 0.669 -0.526 -0.525 142 99 65
-3408.7898 5871.4473 1950.1669 0.095 -0.230 -0.969 138 93 60
-3628.2690 6390.8105 2054.4561 0.935 -0.332 0.124 137 92 59
-2773.7048 5826.2944 1444.4706 0.514 -0.780 -0.357 24 17 11
-2715.2705 5724.2651 1411.6338 0.422 -0.854 -0.303 24 17 11
-2049.1440 6023.7163 832.7023 0.849 -0.432 0.304 52 40 26
-2049.0430 6089.5610 823.4094 0.896 -0.355 0.266 71 47 37
-1645.7236 5599.6313 566.7884 -0.187 -0.969 -0.159 26 15 9
-1707.2783 5997.3618 560.7731 0.782 -0.601 -0.166 15 7 4
-1666.8567 5997.1328 528.2167 0.784 -0.620 0.017 18 9 4
-4163.6963 4976.5977 2666.3489 0.586 -0.178 -0.790 155 134 127
-4177.1694 5028.2827 2669.8447 0.001 -0.871 -0.491 144 116 103
-4143.1196 5002.8799 2646.0525 0.709 -0.629 -0.320 136 108 88
-3937.6646 5892.4541 2354.2400 -0.257 -0.904 -0.342 65 39 26
-3840.8438 6078.6265 2249.8518 0.064 -0.656 -0.752 104 65 36
-3851.5049 6119.5869 2252.6091 0.318 -0.937 -0.145 111 72 43
-3834.5264 6115.1167 2239.5801 0.310 -0.935 -0.172 120 81 52
-3756.0142 6055.1196 2184.9224 0.040 -0.505 -0.862 142 99 65
-3791.4080 6258.6689 2184.4709 -0.084 -0.659 -0.748 142 99 65
-3481.7864 5913.1270 1984.4081 -0.081 -0.995 -0.052 132 87 54
-3009.6067 5844.9487 1614.0878 -0.809 -0.477 -0.343 67 35 28
-2869.9883 5635.2388 1531.5345 0.338 -0.621 0.707 33 21 7
-2983.8247 5892.8164 1586.5334 0.348 -0.703 0.620 29 24 7
-3053.2971 6302.3755 1584.2227 -0.103 -0.721 -0.685 35 28 22
-2872.6445 5942.3120 1490.0188 -0.265 -0.880 -0.394 34 27 21
-2870.5156 5963.9380 1485.2312 -0.219 -0.879 -0.423 34 27 21
-2781.3677 5875.0049 1426.1272 -0.366 -0.565 -0.739 29 22 16
-2094.8047 6236.8081 822.1443 0.851 -0.204 0.483 79 49 41
-1922.1163 5864.4053 736.1045 0.505 -0.863 -0.003 158 91 83
-1909.1829 5856.1226 726.8731 0.604 -0.791 0.094 161 99 89
-1522.3102 5941.3750 403.3966 0.063 -0.681 0.730 244 201 192
-1490.7114 5852.2295 390.6387 0.746 -0.661 -0.080 244 201 192
-4152.1348 4733.3223 2674.5962 0.121 -0.983 -0.137 212 211 206
-4139.5200 4816.6611 2652.4258 0.665 -0.588 -0.461 236 236 229
-4178.8081 5001.0527 2657.3604 0.547 -0.232 -0.804 130 106 99
-4190.1812 5032.7300 2661.9226 0.001 -0.871 -0.491 144 116 103
-3962.7939 5982.5425 2342.0691 0.906 -0.007 0.423 102 69 46
-3843.1792 6065.5269 2233.9863 0.435 -0.759 0.485 118 79 50
-3863.0405 6121.4590 2241.8652 0.396 -0.900 -0.180 122 83 54
-3844.2537 6114.0469 2227.8423 0.310 -0.935 -0.172 125 86 57
-3752.0986 6031.5195 2165.7234 0.020 -0.500 -0.866 142 99 65
-3436.0681 6383.0562 1861.0562 0.226 -0.636 0.738 117 74 42
-2715.6885 5280.2339 1441.5718 0.524 -0.560 0.642 66 48 36
-2910.9912 5700.3311 1537.8081 0.327 -0.641 0.694 33 21 7
-2998.2847 5903.1523 1578.6483 0.253 -0.627 0.737 29 24 5
-1971.4708 5798.5513 768.8130 -0.233 -0.849 0.475 58 36 25
-1930.1469 5895.7637 721.5741 0.649 -0.623 -0.436 137 87 73
-1897.3977 6025.8701 676.4736 0.044 -0.997 0.057 60 47 41
-1519.1893 5895.6172 391.4322 0.160 -0.688 0.707 244 201 194
-4203.7329 4767.5796 2693.9426 0.019 -0.471 -0.882 225 224 219
-4147.4634 4782.1113 2646.6829 0.508 -0.534 -0.676 36 35 30
-4149.1875 4800.6787 2645.3425 0.735 -0.554 -0.391 51 50 45
-4148.0029 4815.7974 2642.1748 0.663 -0.591 -0.460 170 169 164
-4146.7642 4864.3721 2634.0566 0.373 -0.615 -0.694 227 228 213
-4183.4849 4977.8301 2646.8650 0.395 -0.335 -0.855 158 139 132
-4192.7637 5006.6953 2650.0728 0.380 -0.308 -0.872 129 107 101
-4203.6919 5037.7783 2654.2778 0.009 -0.858 -0.513 143 115 104
-3934.9985 6104.7393 2282.2905 0.969 -0.160 -0.188 160 121 92
-3941.1130 6137.8687 2282.3350 0.748 -0.566 0.347 156 117 88
-3906.0481 6104.4849 2259.1096 0.321 -0.693 0.645 143 104 75
-3855.3108 6115.1650 2216.8518 0.323 -0.929 -0.183 128 89 59
-3791.6838 6199.2583 2153.4890 0.096 -0.108 -0.990 147 104 70
-3375.2935 5714.5981 1890.6333 -0.468 -0.832 -0.297 152 107 74
-2963.2043 5913.1104 1531.0226 0.559 -0.197 -0.805 25 18 10
-2780.2078 5910.6509 1384.6208 0.060 0.007 -0.998 24 18 15
-2183.8230 6315.8843 846.8850 -0.000 -0.959 -0.283 27 20 7
-1967.1210 6190.8438 691.4312 0.684 -0.338 -0.646 54 42 36
-1976.4474 6292.5547 683.9925 -0.256 -0.171 -0.951 55 43 37
-4217.6147 4773.1357 2687.0896 0.118 -0.494 -0.861 225 224 219
-4162.3848 4772.6431 2642.9460 0.508 -0.534 -0.676 38 34 31
-4157.8628 4783.6069 2637.6929 0.508 -0.534 -0.676 26 22 19
-4158.3286 4817.1680 2633.0679 0.738 -0.537 -0.409 74 70 67
-4206.2207 5011.6895 2642.4402 0.380 -0.308 -0.872 123 111 104
-4223.5259 5050.6973 2650.4851 -0.012 -0.876 -0.482 136 118 107
-3945.9302 6128.7524 2267.6899 0.764 -0.556 0.327 156 117 84
-3859.0430 6057.7432 2208.7041 0.415 -0.747 0.518 158 118 84
-3865.0349 6114.0879 2205.1099 0.323 -0.929 -0.183 134 94 60
-3787.6746 6056.6577 2151.7285 0.021 -0.484 -0.875 135 92 57
-3674.8645 5938.0684 2079.0747 -0.401 -0.731 -0.553 135 91 56
-3798.6858 6193.4834 2140.1665 0.379 -0.489 -0.785 134 90 55
-3802.5979 6224.2212 2138.7209 -0.029 -0.759 -0.650 134 90 55
-3412.5281 5740.4482 1898.4812 -0.429 -0.856 -0.290 135 90 57
-3005.0681 5980.1367 1536.5745 0.943 -0.289 0.163 28 18 9
-3065.3716 6488.6152 1509.1259 0.080 0.010 -0.997 35 22 13
-2220.0999 6396.6353 846.1049 -0.286 -0.929 -0.236 30 21 15
-2071.8618 6018.8979 783.6825 -0.158 -0.790 0.592 32 21 16
-1969.6963 6205.4629 674.1044 0.668 -0.306 -0.679 47 39 34
-1733.3276 5793.2090 546.2657 -0.333 -0.943 -0.009 35 31 26
-4205.0166 4964.0176 2631.0137 0.832 -0.317 -0.456 228 219 212
-4204.8770 4981.0244 2628.3313 0.847 -0.319 -0.424 173 162 156
-4207.7842 5001.8892 2627.5005 0.824 -0.292 -0.486 122 110 103
-4216.1494 5029.6538 2629.9883 0.830 -0.293 -0.475 134 118 108
-3992.8201 6071.4766 2294.0022 0.893 -0.016 0.449 121 87 60
-3891.6873 5979.3765 2227.1011 0.790 -0.331 -0.516 145 109 82
-3929.1978 6062.0615 2244.5791 0.820 -0.351 -0.452 151 112 80
-3930.1001 6086.5312 2241.6008 0.737 -0.577 0.352 152 113 80
-3912.7952 6151.6704 2217.9233 0.303 -0.686 -0.661 146 106 71
-3878.3921 6118.9531 2195.3748 0.377 -0.915 -0.145 137 97 62
-3828.2170 6106.7441 2157.1208 0.027 -0.483 -0.875 141 98 63
-3798.8979 6152.4341 2126.7817 0.426 -0.902 -0.069 139 95 60
-3812.1863 6198.6831 2130.4097 0.379 -0.489 -0.785 139 95 60
-3553.1780 5807.3706 1982.5703 0.645 -0.439 -0.625 130 85 52
-3422.7798 5764.3467 1884.8613 -0.424 -0.858 -0.291 144 98 64
-3461.7798 6560.1797 1795.7158 0.768 -0.400 0.500 76 48 26
-2633.0322 6279.8013 1175.7734 -0.348 -0.310 -0.885 33 25 22
-1926.2943 5901.2944 668.1754 0.953 -0.132 0.273 43 33 24
-2056.5422 6495.4312 682.4473 -0.177 -0.152 -0.972 43 36 30
-1568.5712 6113.1919 350.2506 0.069 -0.746 0.662 230 195 197
-4178.6475 4802.9810 2617.1440 0.654 -0.610 -0.447 37 33 30
-4212.2549 4961.3613 2619.6560 0.832 -0.317 -0.456 229 218 212
-4209.4272 4975.0166 2615.3049 0.832 -0.317 -0.456 172 161 155
-4213.7847 4997.6270 2615.3125 0.825 -0.309 -0.474 124 111 104
-4217.4697 5019.5127 2614.8945 0.807 -0.299 -0.510 134 118 108
-4023.8997 5946.3130 2318.2681 -0.099 -0.824 -0.557 47 28 13
-3911.2571 6016.8896 2217.5737 0.776 -0.380 -0.503 142 103 71
-3829.9292 6187.0298 2126.5864 0.345 -0.938 -0.041 146 102 67
-1697.4885 5888.8809 471.0790 0.709 -0.148 0.689 51 50 45
-4220.1587 4976.6494 2606.0481 0.527 -0.389 -0.756 179 168 162
-4222.1924 4996.3564 2604.5999 0.530 -0.377 -0.760 127 114 107
-4221.7417 5013.0747 2601.6384 0.577 -0.385 -0.720 133 117 107
-4222.2969 5031.1172 2599.2717 0.573 -0.406 -0.712 134 105 89
-4211.3906 5034.9312 2589.9924 0.335 -0.404 -0.851 137 105 85
-4071.4106 6003.1904 2327.7803 0.200 -0.600 -0.775 48 29 14
-3988.6672 5942.6401 2271.3096 -0.073 -0.995 0.073 97 68 44
-3844.8857 5784.9722 2181.3467 0.070 -0.995 0.067 120 84 58
-3853.5564 6091.0688 2140.6011 0.311 -0.509 -0.802 150 107 72
-3600.3276 5899.6660 1968.7263 0.294 -0.904 0.310 129 84 51
-3574.3691 5878.3838 1951.3661 0.346 -0.901 0.261 129 84 51
-3468.4688 5810.3979 1877.6106 -0.456 -0.825 -0.335 119 73 39
-3328.3972 5655.5225 1790.1677 0.089 -0.824 -0.559 148 102 68
-3140.8850 6529.0405 1504.8499 -0.138 -0.009 -0.990 50 34 21
-2486.0171 6043.0049 1058.9763 -0.654 -0.720 -0.231 22 18 17
-2473.7817 6041.1606 1049.5192 -0.313 -0.761 0.568 22 18 17
-2447.1284 6002.5630 1034.3013 -0.424 -0.719 0.551 22 18 17
-1993.7565 5896.1030 689.8092 0.054 -0.796 0.602 32 21 15
-1782.6317 5643.9087 560.9296 0.435 -0.848 0.305 17 10 4
-1879.5319 5997.0581 583.1249 -0.007 -0.995 -0.101 12 6 1
-1777.1711 5893.2979 517.7576 -0.648 -0.382 -0.659 35 31 28
-4208.2065 4734.9180 2617.1731 0.107 -0.952 -0.286 220 219 214
-4208.6284 4800.4385 2607.1619 0.506 -0.502 -0.702 111 107 104
-4273.3521 4978.8828 2630.4382 0.445 -0.688 -0.574 236 223 217
-4239.1973 4971.3501 2604.4746 0.556 -0.406 -0.725 230 219 213
-4235.8452 4984.3633 2599.7549 0.556 -0.406 -0.725 200 189 183
-4236.2422 5002.0479 2597.2776 0.555 -0.395 -0.732 142 129 122
-4240.1167 5041.4795 2594.1309 0.614 -0.425 -0.665 134 104 88
-4226.4653 5041.9150 2583.2092 0.330 -0.393 -0.858 135 103 83
-4051.0833 5934.2734 2302.8623 -0.115 -0.653 -0.748 44 25 10
-3919.8674 5864.3149 2209.5928 0.051 -0.978 0.202 99 65 38
-3771.4526 5740.6191 2111.1360 0.896 -0.404 -0.186 127 92 65
-3766.4951 5754.4438 2105.0115 0.896 -0.404 -0.186 137 98 66
-3606.5857 5893.4937 1955.9247 0.304 -0.901 0.310 135 90 57
-3589.9829 5888.1929 1943.5624 0.325 -0.898 0.297 129 84 51
-3431.3123 6131.0376 1779.0696 -0.017 -0.502 -0.864 96 62 35
-3407.1375 6288.1196 1735.0447 0.997 0.056 -0.062 104 76 54
-3168.9851 6510.4883 1510.5972 -0.114 -0.025 -0.993 38 22 9
-2935.3215 6664.5391 1300.5065 0.586 -0.518 0.624 20 12 9
-2708.5647 6305.3110 1176.9618 -0.704 -0.535 -0.467 45 37 34
-2542.9067 6104.4077 1076.9889 -0.468 -0.710 0.526 47 41 37
-2504.0981 6065.5156 1052.2775 -0.222 -0.709 0.669 38 34 33
-1463.3259 5381.5591 332.8669 0.542 -0.296 0.786 34 18 13
-4218.6260 4736.4326 2608.2332 0.107 -0.952 -0.286 220 219 214
-4212.5273 4794.1211 2594.1541 0.521 -0.540 -0.661 182 178 175
-4203.6494 4799.9014 2586.1829 0.670 -0.592 -0.448 91 87 84
-4198.4727 4810.1191 2580.4377 0.670 -0.592 -0.448 84 80 77
-4239.9985 4876.5400 2602.7559 0.527 -0.704 -0.475 212 207 203
-4187.2451 4829.5928 2568.4092 0.587 -0.764 -0.267 233 224 219
-4247.1445 5003.8374 2588.0393 0.555 -0.395 -0.732 142 129 122
-4254.1582 5047.1123 2586.6748 0.548 -0.445 -0.709 134 104 88
-4102.9937 6019.5420 2310.9688 -0.502 -0.713 0.489 50 31 16
-3914.0884 5839.6787 2189.8577 0.277 -0.931 0.235 94 60 35
-3864.8445 5828.4404 2152.5771 0.139 -0.822 0.552 114 83 55
-3830.9126 5797.0210 2130.6804 0.072 -0.824 0.562 116 82 55
-3693.9773 5602.8735 2053.1008 0.132 -0.990 0.041 133 97 72
-3777.3210 5755.9541 2094.7266 -0.321 -0.933 0.163 138 100 67
-3612.6443 5887.0137 1943.0475 0.304 -0.901 0.310 140 95 62
-3596.0598 5881.7534 1930.7281 0.325 -0.898 0.297 135 90 57
-3618.7932 6084.4775 1916.3022 0.019 -0.152 -0.988 130 84 50
-3495.2883 6155.8872 1806.8507 0.113 -0.992 -0.053 112 68 39
-2883.0222 6578.5225 1253.2623 0.727 -0.598 0.337 27 19 16
-2834.3875 6553.9868 1218.5947 0.832 -0.490 0.259 27 19 16
-2778.2249 6449.5884 1190.7435 -0.543 -0.735 0.406 36 28 25
-2688.0366 6291.4365 1144.4979 -0.551 -0.755 0.355 36 28 25
-4248.0674 4841.9009 2597.4666 0.592 -0.632 -0.500 170 166 163
-4242.5371 4851.8257 2591.4736 0.592 -0.632 -0.500 120 116 113
-4253.1680 4881.1733 2595.1299 0.552 -0.701 -0.451 214 209 205
-4256.9092 4902.3809 2594.6499 0.586 -0.668 -0.458 233 226 220
-4251.8403 4946.8052 2583.4199 0.428 -0.744 -0.514 234 224 215
-4257.6738 5005.1582 2578.5652 0.540 -0.391 -0.745 141 129 122
-4264.9419 5048.6899 2577.2539 0.519 -0.463 -0.718 134 104 88
-4236.9600 5833.8159 2427.5872 0.917 -0.319 -0.239 75 47 36
-3919.6609 5832.7031 2176.3975 0.267 -0.936 0.232 88 54 29
-3907.9719 5836.3594 2166.5435 0.201 -0.960 0.196 98 64 39
-3873.4790 5826.2568 2140.8582 0.136 -0.820 0.555 109 77 52
-3710.1311 5613.1274 2046.0614 0.083 -0.967 0.241 140 105 79
-3806.4341 5786.3237 2094.2288 -0.322 -0.926 0.198 140 102 70
-3438.5054 6132.1270 1746.5924 -0.006 -0.521 -0.854 105 71 44
-3484.4705 6267.5737 1761.0114 -0.019 -0.210 -0.978 87 53 26
-3195.6023 6467.5781 1499.6851 0.758 -0.649 -0.062 59 45 34
-3226.7698 6561.0166 1509.2028 0.840 -0.379 -0.388 54 38 25
-3110.7571 6657.2710 1401.6642 -0.391 -0.837 -0.384 26 16 14
-1483.5703 5300.5220 332.9014 -0.146 -0.900 0.412 57 55 46
-4273.6699 4861.3306 2597.2964 0.607 -0.654 -0.451 223 219 216
-4267.8687 4870.9873 2591.1184 0.607 -0.654 -0.451 161 157 153
-4268.2139 4888.0312 2588.5857 0.624 -0.657 -0.424 217 212 208
-4257.5776 4891.9565 2579.5283 0.569 -0.808 0.152 231 225 219
-4297.3159 4990.5864 2594.7173 0.411 -0.782 -0.469 232 223 214
-4197.4536 4970.8027 2519.0000 0.426 -0.434 -0.794 135 104 84
-4118.6909 5650.3916 2344.8333 0.559 -0.648 -0.517 74 47 36
-3922.5510 5843.3301 2157.9573 0.293 -0.947 -0.134 89 59 35
-3907.6833 5842.0679 2146.4072 0.468 -0.878 0.100 104 74 50
-3710.6011 5598.7163 2030.6110 0.108 -0.887 0.450 142 108 84
-3411.2859 5757.2803 1767.7997 0.346 -0.897 -0.275 137 93 59
-3410.9807 5779.5068 1763.8993 0.463 -0.868 -0.181 128 85 50
-3423.2070 5870.3291 1758.6163 0.602 -0.638 0.481 122 80 49
-3439.9673 5947.2559 1759.2067 0.620 -0.648 0.443 123 81 50
-3461.1453 6009.1387 1765.7673 0.557 -0.701 0.445 126 84 53
-2606.8274 6164.4575 1064.5778 -0.625 -0.780 0.026 16 8 5
-2530.7617 6063.5273 1021.0386 -0.468 -0.868 0.164 30 25 24
-4391.7642 4906.6416 2665.6877 -0.023 -0.719 -0.694 226 226 218
-4293.1328 4873.3828 2593.3733 0.579 -0.669 -0.465 223 222 217
-4287.1851 4882.8989 2587.0901 0.579 -0.669 -0.465 185 184 179
-4288.2861 4900.8618 2584.9619 0.578 -0.655 -0.486 204 203 196
-4283.7573 4912.1562 2579.5022 0.574 -0.654 -0.493 231 227 221
-4308.7036 4992.9053 2585.7222 0.418 -0.783 -0.461 231 226 217
-4282.3613 4978.0063 2567.4124 0.748 -0.496 -0.441 232 229 220
-4271.3882 4981.6997 2558.1338 0.727 -0.512 -0.458 214 209 200
-4266.7993 4993.1841 2552.5947 0.727 -0.512 -0.458 153 145 138
-4262.2002 5004.6929 2547.0435 0.727 -0.512 -0.458 131 119 107
-3940.5076 5833.7612 2154.7490 -0.085 -0.988 0.127 53 32 14
-3866.5735 5762.8311 2108.2178 0.271 -0.889 0.370 80 59 41
-3852.3179 5762.2031 2097.0684 0.199 -0.914 0.352 89 67 49
-3707.5420 5578.8540 2013.3698 0.352 -0.850 0.393 113 89 71
-3813.9375 5810.3677 2058.7327 0.581 -0.765 0.277 147 113 84
-3749.8137 6090.8223 1961.3146 -0.452 -0.272 -0.849 146 103 68
-3739.2288 6167.7744 1940.1182 -0.527 -0.268 -0.806 119 77 42
-3488.5403 5806.9038 1802.4286 0.882 -0.441 0.168 121 81 51
-3373.1318 5651.5972 1737.2346 0.330 -0.807 -0.489 118 78 49
-3417.4128 5751.2891 1755.5573 0.352 -0.902 -0.249 118 78 48
-3510.6807 6080.3481 1774.2805 0.643 -0.759 0.103 138 102 73
-3509.0889 6101.7363 1769.4552 0.641 -0.760 0.111 133 97 68
-3612.6914 6338.8306 1811.6821 0.620 -0.562 -0.548 121 85 59
-3550.6279 6251.0562 1777.3325 0.684 -0.518 -0.514 102 71 45
-3532.4644 6242.9102 1764.3527 0.279 -0.960 -0.034 100 70 44
-3484.3027 6331.2573 1711.5905 -0.233 -0.229 -0.945 103 71 48
-3427.9741 6276.2344 1676.3033 -0.540 -0.786 -0.301 102 70 47
-3211.5938 6403.5728 1484.2362 -0.123 -0.434 -0.893 51 41 32
-3109.3672 6381.8584 1407.1575 0.987 -0.059 -0.147 42 31 22
-2633.4199 6177.5698 1065.5121 -0.629 -0.774 -0.078 16 12 11
-2634.4294 6209.0674 1061.0535 -0.610 -0.789 -0.070 16 12 11
-2598.4404 6150.0469 1042.4902 -0.654 -0.732 0.191 17 12 12
-1878.6152 5790.1479 534.2824 -0.058 0.023 -0.998 32 23 18
-1445.2614 5508.5752 239.1576 -0.413 -0.441 -0.797 30 25 23
-4219.8452 4711.1616 2545.7388 0.707 -0.701 0.092 225 224 219
-4284.2646 4868.3296 2569.9302 0.653 -0.757 -0.029 202 201 196
-4282.6880 4883.0278 2566.2021 0.487 -0.758 -0.434 193 193 185
-4272.0015 4886.8887 2557.1279 0.643 -0.764 -0.042 230 227 220
-4274.5288 4923.3491 2552.9546 0.612 -0.395 -0.685 231 227 218
-4286.2095 4971.2314 2554.0635 0.810 -0.485 -0.329 231 228 219
-4277.1719 4977.2622 2545.9214 0.742 -0.636 -0.213 213 209 200
-4271.9453 4987.9434 2539.9966 0.711 -0.664 -0.231 153 146 137
-4266.8154 4998.7759 2534.1223 0.703 -0.664 -0.256 131 119 107
-4257.9053 5004.9995 2526.0483 0.772 -0.502 -0.391 136 111 96
-3799.1353 5771.3115 2034.9384 0.593 -0.647 0.479 142 108 80
-3746.3831 5709.4907 2003.8199 0.779 -0.596 0.195 143 109 81
-3761.7600 6070.3369 1954.9233 0.044 -0.945 0.325 140 97 62
-3553.0366 5947.7378 1811.1677 0.546 -0.744 0.385 113 74 45
-3464.3169 5955.7603 1739.8950 0.292 -0.679 -0.674 129 94 66
-3498.6917 6089.2441 1744.4138 0.165 -0.984 0.066 121 86 58
-3470.4241 6337.3145 1680.1919 -0.557 -0.752 -0.353 102 70 47
-3457.2590 6338.2129 1669.6652 -0.050 -0.380 -0.924 102 70 47
-3147.3394 6224.1011 1444.7262 0.528 -0.010 -0.849 51 41 32
-3218.2729 6396.5366 1471.4691 0.661 -0.586 0.468 51 41 32
-2455.3809 6089.1543 922.2423 0.662 -0.333 0.671 30 25 29
-2206.1709 6412.3594 671.2014 -0.413 -0.606 -0.680 44 33 27
-1985.5033 6277.9287 520.0334 -0.488 -0.273 -0.829 66 59 53
-4292.9009 4851.0405 2562.4214 0.873 -0.423 -0.244 219 218 213
-4285.8979 4925.7549 2544.1128 0.617 -0.406 -0.674 231 227 218
-4270.7905 5009.2188 2517.9297 0.724 -0.383 -0.574 136 111 95
-3878.2112 5771.5259 2078.5056 0.273 -0.960 0.069 75 56 41
-3787.8311 5737.9595 2013.1567 0.535 -0.704 0.467 133 102 73
-3755.9434 5730.6396 1989.3257 0.848 -0.530 0.015 155 124 96
-3537.4436 5903.6279 1787.8030 0.539 -0.736 0.409 107 68 39
-3390.6880 5738.9243 1700.5707 0.011 -0.186 -0.982 115 79 51
-3457.4753 5926.1479 1721.0364 0.358 -0.712 -0.603 121 86 58
-3464.7766 5962.7090 1720.5166 0.074 -0.898 -0.434 125 90 62
-3568.0154 6171.4468 1765.9720 0.354 -0.757 -0.549 121 86 58
-3503.2312 6079.4468 1730.7690 0.174 -0.984 0.043 114 79 51
-3550.4670 6390.7700 1714.5942 0.135 -0.991 -0.008 96 66 42
-3307.4878 6160.3843 1562.9178 0.501 -0.361 0.786 63 43 30
-1491.5334 5666.7700 218.9221 -0.503 -0.827 -0.252 48 42 42
-3098.9758 2175.6506 2071.9077 0.838 -0.542 -0.070 197 192 186
-4022.4092 2965.1653 2660.0591 0.402 -0.798 -0.448 207 207 199
-4027.0701 2978.3574 2661.4302 -0.119 -0.863 -0.492 210 210 202
-4007.4785 2991.3284 2643.7942 -0.121 -0.729 -0.673 197 197 189
-4082.6882 5582.7500 2253.1489 0.840 -0.509 -0.187 58 34 22
-3930.6362 5815.4146 2093.3687 -0.036 -0.994 0.102 61 42 27
-3780.5767 5711.1338 1993.6252 0.846 -0.531 0.050 126 95 67
-3765.2900 5708.4751 1982.0822 0.850 -0.527 0.023 160 129 101
-3708.1653 5746.8789 1930.5583 0.834 -0.531 0.154 152 114 78
-3669.6926 5951.4712 1864.8419 0.943 -0.198 -0.268 134 91 56
-3678.1560 5988.7612 1865.0170 0.927 -0.196 0.321 133 90 56
-3499.2212 5912.5811 1737.7218 0.351 -0.826 -0.442 119 83 55
-3479.4321 5924.3457 1720.1400 0.496 -0.764 -0.413 117 82 54
-3525.8596 6030.1177 1738.2437 0.530 -0.825 -0.193 116 81 53
-3585.2358 6184.1196 1758.1460 0.368 -0.754 -0.543 116 81 53
-3512.0488 6077.3760 1719.1973 0.174 -0.984 0.043 110 75 47
-3547.0347 6164.5718 1731.5394 0.103 -0.993 -0.051 104 69 43
-3453.2295 6043.6172 1678.8654 0.086 -0.965 -0.248 100 70 44
-3447.8315 6057.9800 1672.1339 0.162 -0.986 -0.034 100 70 46
-3142.0171 6173.2002 1411.9868 -0.617 -0.543 -0.570 51 41 32
-2787.5598 5740.4604 1208.7318 0.924 -0.380 0.035 40 35 31
-3189.8933 6717.2285 1355.1744 0.074 -0.229 -0.971 26 21 17
-2654.7666 6161.3374 1031.4133 -0.567 -0.802 0.187 15 14 12
-2590.7190 6091.9985 993.1504 -0.532 -0.786 0.316 50 40 41
-2428.4976 6061.3794 871.0734 0.638 0.191 -0.746 43 26 34
-2431.2744 6098.1538 866.8724 0.473 0.157 -0.867 36 18 29
-2466.6313 6250.8105 868.1461 0.410 0.149 -0.900 21 15 28
-2360.3025 6372.1875 763.5840 0.497 -0.750 0.436 31 22 25
-1541.5857 5442.4331 282.0020 -0.321 -0.615 -0.721 48 42 42
-1505.8143 5692.0806 210.5883 -0.122 -0.977 -0.177 58 52 52
-3100.3684 2172.5879 2063.9321 0.840 -0.533 -0.106 197 192 186
-3091.9207 2173.1443 2057.2122 0.733 -0.675 0.085 195 190 184
-4032.1619 2986.3220 2651.3518 -0.110 -0.863 -0.494 204 204 196
-4019.8186 2986.0173 2641.7295 -0.130 -0.862 -0.491 191 191 183
-4019.8577 2995.6001 2640.0757 0.670 -0.695 -0.262 194 194 186
-3882.1965 5747.0479 2048.5759 0.403 -0.728 -0.555 56 37 22
-3827.1536 5768.7227 2001.6178 -0.337 -0.859 -0.386 111 80 52
-3801.7764 5750.4419 1984.9375 -0.031 -0.994 0.104 123 92 64
-3795.3613 5761.8872 1977.8971 0.007 -0.998 0.068 127 96 68
-3780.9622 5760.7349 1966.8120 0.172 -0.939 -0.298 138 108 82
-3769.7148 5764.5361 1957.3269 0.339 -0.858 -0.385 140 109 81
-3660.7068 5896.9580 1848.6008 -0.480 -0.596 -0.643 152 109 74
-3550.7646 5779.5981 1783.0432 -0.610 -0.458 -0.646 115 73 39
-3486.7058 5896.7056 1712.2446 -0.049 -0.827 -0.561 109 74 46
-3398.5054 5903.1392 1641.9729 -0.595 -0.606 -0.528 100 69 43
-3464.1841 6045.5552 1668.4283 0.076 -0.970 -0.231 95 65 39
-3458.9399 6060.1836 1661.7463 0.217 -0.962 -0.168 88 58 34
-2851.7922 5757.8008 1238.9451 0.101 -0.995 -0.015 28 18 9
-2848.9700 5776.7344 1233.4050 -0.016 -0.924 0.382 28 18 11
-2640.8010 6133.8662 1007.4517 -0.183 -0.853 0.488 37 36 34
-2624.7014 6152.1616 991.6155 -0.397 -0.868 0.297 57 47 48
-2579.2336 6127.3384 960.3359 -0.619 -0.774 0.134 53 43 44
-2383.8708 5837.8203 858.0745 0.881 -0.409 0.238 80 55 66
-2384.5581 6479.2710 745.8737 0.721 -0.682 0.122 22 13 15
-2211.1670 6768.7720 559.0693 0.962 -0.098 0.256 57 48 43
-2101.9600 6531.0464 515.2431 -0.592 -0.402 -0.699 71 64 58
-1522.8661 5691.3965 208.8621 0.811 -0.570 -0.133 62 56 56
-3097.4561 2173.2925 2051.9390 0.765 -0.643 -0.035 195 190 184
-4046.8315 2982.8433 2650.7715 0.294 -0.956 -0.022 210 210 202
-4027.7830 2986.7498 2635.1702 0.349 -0.936 -0.049 191 191 183
-4024.2175 2993.4458 2631.1885 0.695 -0.680 -0.235 195 195 187
-4031.3262 3008.7134 2634.0337 0.677 -0.704 -0.214 207 207 199
-4030.3291 3017.5300 2631.6843 0.662 -0.723 -0.197 209 206 199
-3878.3674 5499.2466 2071.0869 0.116 -0.476 0.872 74 55 41
-4047.5605 5854.8271 2140.2009 -0.169 -0.604 -0.779 89 70 56
-3912.8018 5778.7866 2048.2817 0.419 -0.768 -0.485 54 35 20
