ply
format ascii 1.0
element vertex 795
property float x
property float y
property float z
property float nx
property float ny
property float nz
property uchar diffuse_red
property uchar diffuse_green
property uchar diffuse_blue
end_header
-979.4770 5069.2271 -1140.9893 -0.120 -0.948 -0.295 243 155 161
-956.3533 5096.8755 -1170.3370 -0.111 -0.955 -0.275 220 132 138
-795.2108 4792.2036 -1180.2350 -0.389 -0.721 0.574 254 26 75
-746.8708 5401.8442 -1457.5284 0.945 -0.240 0.221 254 156 159
-233.2390 3605.7993 -1166.2760 0.324 -0.526 -0.786 248 73 97
-224.9204 3550.3003 -1151.2241 0.152 -0.549 -0.822 243 64 89
-130.8733 3124.0110 -1059.7698 0.860 -0.324 -0.394 193 14 33
-2252.6487 2414.7236 910.7872 0.884 -0.244 -0.398 80 75 69
-3022.3879 3144.9814 1239.3142 0.684 -0.544 0.485 57 54 47
-2949.2515 3103.0229 1197.2994 0.676 -0.224 0.703 20 18 10
-2849.7769 3154.3799 1097.4583 0.457 -0.553 0.697 10 13 7
-2852.8271 3164.2515 1096.0123 0.413 -0.398 0.819 32 39 34
-2841.0105 3159.3833 1088.4714 0.842 -0.195 0.503 22 33 26
-2853.7205 3192.8088 1085.4822 0.465 -0.804 0.370 34 14 3
-2847.8154 3193.8608 1080.3414 0.465 -0.804 0.370 52 21 7
-2838.9114 3191.8914 1073.9905 0.518 -0.737 0.435 103 63 45
-2833.0615 3192.9841 1068.8781 0.518 -0.737 0.435 153 104 85
-2823.2012 3190.0173 1062.1542 0.399 -0.849 0.346 175 117 87
-2798.5073 3171.9897 1049.4884 0.720 -0.563 0.405 178 112 71
-2812.2385 3192.9131 1052.2396 0.575 -0.790 0.215 181 113 64
-2809.8306 3343.5042 991.0128 0.671 -0.742 0.004 187 125 62
-2802.5276 3381.5396 970.1899 0.503 -0.819 0.276 188 120 78
-2793.6196 3379.5752 963.8337 0.409 -0.553 0.726 188 120 75
-2789.5574 3382.8860 959.2786 0.224 -0.585 0.780 185 121 77
-2774.4922 3389.6912 944.5410 0.171 -0.623 0.764 181 124 84
-2772.1155 3402.7222 937.5076 0.582 -0.619 0.526 184 126 88
-2735.1978 3393.1013 911.7476 0.336 -0.714 0.615 185 138 106
-2726.2483 3446.8445 883.4217 0.877 -0.251 0.410 203 166 148
-2763.2698 3505.5850 889.9225 0.991 -0.010 -0.136 175 136 127
-2804.2864 3586.4973 890.8898 0.172 -0.975 0.141 159 119 109
-2709.0962 3500.9697 848.3801 -0.057 -0.733 0.678 176 145 128
-2339.1316 3127.0439 699.5104 0.409 -0.666 0.624 56 35 26
-2323.7930 3116.1313 691.5306 0.727 -0.622 0.291 55 35 26
-2322.9250 3122.5212 688.3198 0.417 -0.666 0.619 52 30 19
-2310.9094 3122.9707 678.5258 0.411 -0.665 0.624 48 28 17
-2302.3809 3120.1328 672.8170 0.400 -0.672 0.623 57 35 23
-2295.5710 3119.3560 667.6725 0.449 -0.657 0.605 66 44 31
-2343.6462 3231.9226 661.8250 0.715 -0.572 0.402 63 39 29
-2327.8577 3220.2253 653.7940 0.010 -0.942 -0.335 68 47 36
-2326.0571 3225.8455 650.1399 0.016 -0.957 -0.289 88 69 60
-2351.1592 3273.0291 651.6513 0.011 -0.964 -0.266 126 107 100
-2245.3306 3412.5293 512.0155 0.641 -0.759 -0.113 24 19 16
-2194.4485 3351.4268 495.3512 -0.308 -0.875 -0.374 29 24 21
-2193.0688 3358.2380 491.5649 -0.227 -0.850 -0.475 35 31 28
-2272.4590 3476.8057 508.4181 0.447 -0.499 -0.742 41 36 33
-2539.7947 5164.9922 57.6181 0.868 -0.495 0.041 232 194 193
-2540.2434 5183.0112 50.8815 0.953 -0.277 -0.121 232 194 193
-2533.5461 5187.4419 43.7766 0.663 -0.706 0.247 233 195 194
-2274.2527 4883.3789 -44.0242 0.289 -0.783 0.551 225 194 192
-2252.3257 4856.0537 -50.8144 0.170 -0.816 0.552 225 194 192
-745.3354 5401.7578 -1471.8712 0.895 -0.413 -0.167 255 153 156
-237.5529 3617.7183 -1175.7759 0.319 -0.533 -0.784 240 66 90
-141.3207 3048.8096 -1028.7747 0.219 -0.423 -0.879 192 3 23
-139.9506 3096.0886 -1048.4886 -0.282 -0.914 -0.293 192 12 31
-133.7349 3123.8008 -1064.3761 0.852 -0.349 -0.391 204 25 44
-2252.8940 2409.9346 905.7472 0.900 -0.239 -0.364 58 55 48
-3030.8201 3132.8110 1241.2531 0.323 -0.943 0.073 57 54 45
-3017.7944 3127.3486 1233.0037 0.910 -0.211 0.357 54 51 44
-3026.7861 3142.2688 1234.2803 0.848 -0.266 0.458 33 30 23
-2881.5916 3058.6807 1151.3204 0.454 -0.113 0.884 22 24 23
-2856.5461 3154.1382 1093.4722 0.288 -0.542 0.789 29 32 28
-2852.9551 3164.2849 1086.5804 0.813 -0.301 0.498 36 49 46
-2834.9380 3153.2568 1076.5460 0.889 -0.184 0.420 17 29 25
-2857.3398 3189.3848 1080.1404 0.478 -0.800 0.361 36 22 12
-2848.9062 3187.9067 1073.9835 0.506 -0.772 0.385 49 25 12
-2842.4688 3188.4158 1068.6350 0.527 -0.768 0.365 87 51 35
-2834.9055 3187.7856 1062.8381 0.485 -0.805 0.341 139 92 75
-2826.4656 3186.2588 1056.6954 0.399 -0.849 0.346 173 115 87
-2799.5967 3166.0796 1043.2098 0.720 -0.563 0.405 178 112 70
-2789.2173 3162.5081 1036.3270 0.758 -0.535 0.373 182 112 61
-2817.2817 3374.4219 974.7939 0.987 -0.053 -0.153 197 119 73
-2816.2117 3380.9656 971.3456 0.992 -0.122 0.043 196 117 72
-2814.6409 3386.9895 967.7028 0.574 -0.727 0.376 195 116 71
-2818.5574 3398.9998 966.0748 0.578 -0.720 0.383 195 117 70
-2799.8521 3386.4050 956.1108 0.352 -0.613 0.707 193 118 68
-2788.0415 3381.2700 948.7031 0.214 -0.604 0.768 193 121 68
-2761.0774 3382.7532 926.5579 0.552 -0.811 0.193 196 123 72
-2748.9448 3377.1370 919.0836 0.429 -0.734 0.526 195 124 71
-2735.0496 3385.1519 904.7985 0.307 -0.805 0.508 182 120 72
-2718.2354 3389.9211 889.4659 0.266 -0.620 0.738 178 121 76
-2670.6729 3352.0178 866.4593 0.219 -0.560 0.799 176 119 74
-2704.5959 3414.2144 868.9353 0.953 -0.116 0.279 168 121 86
-2724.8433 3445.3491 872.7857 0.968 -0.145 -0.207 179 134 103
-2809.9998 3584.7297 885.6384 0.172 -0.975 0.141 151 106 74
-2799.4790 3581.0615 878.6807 0.063 -0.961 0.270 149 108 80
-2342.9380 3124.3135 694.6661 0.421 -0.658 0.625 62 42 31
-2357.3298 3217.6755 669.1777 0.079 -0.901 0.426 66 39 30
-2384.5112 3258.8127 674.6085 0.003 -0.909 0.417 63 39 29
-2323.0371 3206.6570 646.1272 0.192 -0.893 -0.406 68 47 38
-2330.2649 3223.4329 645.2582 0.019 -0.960 -0.280 93 74 64
-2452.9104 3468.6265 646.1548 0.272 -0.430 0.861 205 185 178
-2405.3025 3442.0708 618.6154 -0.118 -0.501 0.858 195 179 175
-2249.2593 3409.4661 506.7801 0.653 -0.747 -0.124 24 19 16
-2284.2195 3466.2722 512.2213 0.511 -0.849 -0.136 30 26 23
-2287.3184 3506.9661 498.5739 0.144 -0.879 -0.454 44 34 33
-2242.1592 3471.5349 476.5091 -0.136 -0.834 0.534 45 37 35
-2231.4460 3465.6562 470.2735 -0.135 -0.828 0.545 34 24 23
-2221.0405 3460.1650 464.1302 -0.136 -0.834 0.534 39 29 28
-2215.4270 3461.3972 459.1540 -0.068 -0.998 0.003 53 42 39
-2186.4810 3466.2419 434.0924 -0.369 -0.870 0.327 217 202 197
-2296.6404 4896.3994 -44.5319 0.170 -0.774 0.610 232 200 201
-829.3820 4704.8774 -1141.6990 -0.342 -0.940 0.000 236 126 131
-794.0619 4551.3999 -1109.1219 -0.387 -0.902 0.190 235 101 115
-254.9430 3621.1770 -1171.5436 0.781 -0.606 0.149 235 96 121
-246.4120 3568.1050 -1157.3345 0.394 -0.505 -0.768 240 93 118
-145.7119 3079.4714 -1044.2235 0.215 -0.425 -0.879 192 4 23
-143.5847 3111.5974 -1058.6541 0.216 -0.428 -0.878 193 11 31
-3031.8257 3126.9836 1234.7678 0.534 -0.580 0.615 32 29 20
-3006.4221 3110.1094 1221.2089 0.351 -0.708 0.612 31 28 20
-3001.7161 3112.2932 1216.5797 0.383 -0.700 0.603 23 20 12
-2928.5564 3070.3040 1174.8969 0.716 -0.192 0.672 16 19 18
-2867.3452 3151.0269 1093.8284 0.258 -0.541 0.801 19 16 9
-2853.4009 3144.1221 1085.4457 0.288 -0.542 0.789 55 58 52
-2841.2983 3138.9919 1077.8260 0.295 -0.547 0.784 101 113 105
-2829.0369 3140.4739 1067.4434 0.850 -0.249 0.464 29 43 40
-2850.8386 3182.8062 1067.9753 0.947 -0.262 -0.185 48 30 19
-2827.4778 3166.3682 1055.8737 0.111 -0.972 0.208 67 38 24
-2823.2661 3169.0623 1051.4360 0.153 -0.981 0.121 121 80 64
-2815.2029 3167.8850 1045.4662 0.143 -0.981 0.134 166 114 86
-2808.5549 3168.1204 1040.0632 0.143 -0.981 0.134 175 113 70
-2782.8628 3149.0906 1027.1332 0.694 -0.500 0.518 180 113 61
-2783.3662 3399.5671 927.6660 0.570 -0.797 0.202 206 120 57
-2758.0403 3379.4563 915.4594 0.346 -0.784 0.515 205 122 58
-2741.0576 3376.2556 903.1732 0.263 -0.729 0.632 201 122 63
-2737.7397 3380.3838 898.8776 0.307 -0.805 0.508 190 116 61
-2723.7400 3372.6086 890.7975 0.271 -0.681 0.680 185 116 64
-2714.3264 3369.9121 884.3551 0.271 -0.681 0.680 185 117 66
-2704.9414 3367.2239 877.9322 0.271 -0.681 0.680 185 116 65
-2698.9805 3368.3604 872.7185 0.152 -0.692 0.706 189 120 69
-2680.1562 3362.8228 859.8936 0.139 -0.703 0.697 191 120 69
-2722.9768 3435.2490 865.2122 0.968 -0.147 -0.204 187 133 85
-2814.1494 3581.1482 879.8494 0.534 -0.518 0.668 169 116 66
-2802.5422 3576.2378 872.5378 0.532 -0.511 0.675 162 114 71
-2795.1399 3576.1680 866.6544 0.532 -0.511 0.675 164 121 88
-2333.2888 3112.9792 682.5048 0.075 -0.988 0.136 68 47 35
-2328.5486 3114.7285 678.0217 0.081 -0.989 0.127 65 44 30
-2322.2439 3114.6050 673.0361 0.081 -0.989 0.127 56 34 23
-2315.8606 3151.9133 653.0629 0.064 -0.957 0.285 72 46 38
-2336.6250 3184.8474 656.5138 0.497 -0.848 0.183 70 44 36
-2354.0630 3213.8811 658.8633 0.164 -0.625 0.763 64 38 30
-2328.9512 3214.1885 638.6868 0.049 -0.903 -0.426 100 80 73
-2336.6255 3271.3687 622.0167 0.338 -0.729 -0.595 213 194 187
-2452.5981 3451.2529 642.9086 0.136 -0.961 -0.242 206 185 177
-2226.2417 3267.8743 535.2582 0.389 -0.807 0.445 22 18 15
-2220.1401 3268.0842 530.3018 0.389 -0.807 0.445 20 19 15
-2207.4771 3405.5103 465.3949 0.952 -0.289 -0.098 38 28 30
-2230.0454 3445.9521 467.2930 0.071 -0.771 0.633 36 28 29
-2235.0957 3462.0962 464.8890 -0.120 -0.834 0.538 30 22 24
-2225.3291 3457.5220 458.9134 -0.136 -0.834 0.534 41 31 32
-2192.7393 3466.4392 429.3321 -0.372 -0.867 0.331 178 166 159
-2155.0464 3449.2505 406.0842 -0.276 -0.942 0.189 215 195 190
-978.3794 5048.6577 -1171.3066 0.589 -0.077 0.805 246 156 163
-243.6758 3545.2776 -1158.6116 0.982 -0.176 -0.074 239 74 100
-103.7869 2978.1958 -1044.2203 0.607 -0.287 -0.742 250 106 116
-2249.5186 2401.6904 892.0975 0.933 -0.227 -0.278 16 16 10
-2997.8000 3095.4697 1210.6613 0.361 -0.663 0.656 16 16 10
-2995.1619 3099.5344 1206.9261 0.329 -0.727 0.603 22 21 15
-2864.3887 3134.4539 1088.5992 0.933 -0.360 0.008 22 22 19
-2859.3484 3136.2861 1083.8436 0.323 -0.565 0.759 8 8 5
-2849.0386 3132.9438 1076.9603 0.323 -0.565 0.759 19 24 21
-2838.7664 3129.6135 1070.1024 0.323 -0.565 0.759 65 76 74
-2828.7896 3126.5493 1063.3732 0.321 -0.549 0.772 64 78 77
-2829.7478 3134.2783 1061.0369 0.929 -0.298 0.217 38 51 51
-2828.0615 3146.2415 1054.8922 0.784 -0.620 0.042 39 38 31
-2829.4363 3175.1780 1044.3798 0.091 -0.822 0.562 159 115 89
-2811.5674 3164.1526 1034.5491 0.405 -0.838 0.365 172 114 76
-2787.5669 3146.8789 1022.3340 0.755 -0.532 0.383 176 113 69
-2678.1953 3337.3149 858.6873 0.017 -0.684 0.730 194 118 62
-2677.3862 3344.1692 855.2921 0.062 -0.704 0.708 193 118 60
-2664.7668 3337.7388 847.8054 0.062 -0.704 0.708 191 117 61
-2623.7249 3299.1494 830.5481 0.401 -0.605 0.688 191 120 62
-2461.6140 3196.9802 742.2221 0.017 -0.831 -0.556 187 132 97
-2333.1118 3105.5420 676.4006 0.106 -0.977 0.187 91 60 44
-2332.3811 3112.0544 673.2048 0.169 -0.951 0.259 86 55 37
-2328.9324 3115.3472 669.1328 0.062 -0.976 0.210 81 49 32
-2324.0942 3146.9517 652.5941 0.162 -0.971 0.174 75 46 32
-2316.2122 3144.9558 647.1072 -0.047 -0.962 0.270 81 52 37
-2326.0188 3164.4639 647.1035 0.256 -0.613 0.747 81 51 35
-2339.8140 3275.6255 613.5108 0.337 -0.829 -0.446 218 190 178
-2329.6265 3370.1931 567.4446 0.320 -0.922 0.219 24 19 12
-2319.4529 3365.4092 561.2484 0.119 -0.973 0.200 16 12 6
-2306.2170 3356.5742 554.2347 -0.031 -0.994 0.109 12 6 1
-2196.2332 3381.4290 456.5293 0.975 -0.212 0.065 33 30 33
-2235.0581 3471.6362 451.3096 0.326 -0.934 -0.146 55 49 49
-2229.3157 3472.7356 446.2877 0.174 -0.982 -0.073 48 41 40
-2228.5952 3480.9238 442.4280 -0.204 -0.979 -0.007 52 45 44
-2222.0315 3480.8718 437.2131 -0.304 -0.901 0.308 51 44 42
-2181.5911 3460.2146 413.2414 -0.204 -0.974 0.096 198 191 190
-1383.5967 5158.5034 -904.6551 0.330 -0.289 0.899 240 182 196
-950.0674 4818.9053 -1114.2361 0.982 -0.156 -0.109 246 159 165
-208.0603 3185.8125 -1050.9506 0.576 -0.208 0.790 240 46 73
-146.7083 2862.6587 -970.2443 0.830 -0.171 -0.530 200 4 24
-3003.1147 3100.1768 1203.4877 0.475 -0.606 0.639 15 16 10
-2854.2292 3124.4143 1075.0719 0.287 -0.724 0.627 49 51 48
-2845.3716 3122.4861 1068.7924 0.287 -0.724 0.627 52 57 55
-2838.1189 3122.1157 1063.1630 0.415 -0.643 0.644 55 65 64
-2832.1423 3122.9910 1058.0475 0.559 -0.598 0.574 49 62 63
-2832.0637 3143.2891 1049.7911 0.961 -0.251 0.115 37 36 29
-2843.5754 3168.4646 1048.8011 0.913 -0.318 0.257 40 26 11
-2843.5801 3175.3870 1046.0106 0.722 -0.529 0.446 84 62 45
-2832.5315 3171.2666 1038.8704 0.321 -0.845 0.428 156 118 94
-2822.0266 3167.6628 1031.9547 0.408 -0.874 0.264 167 113 79
-2813.9517 3166.4773 1025.9993 0.344 -0.938 0.043 172 111 73
-2461.6055 3189.5811 735.9236 0.291 -0.753 -0.590 192 123 76
-2337.1216 3147.7627 653.6156 0.185 -0.977 0.107 104 71 52
-2328.8552 3145.3379 648.0078 0.162 -0.971 0.174 103 71 53
-2321.4788 3143.9678 642.6832 -0.047 -0.962 0.270 103 71 53
-2320.5623 3150.4209 639.3481 0.279 -0.605 0.745 102 69 50
-2323.2341 3176.5664 630.9229 0.513 -0.631 0.582 84 49 33
-2465.6946 3451.2339 633.5612 0.159 -0.956 -0.247 222 180 163
-2340.7378 3359.5364 571.0109 0.209 -0.945 0.253 32 23 15
-2333.9956 3359.2451 565.7563 0.637 -0.770 -0.031 38 30 19
-2334.7034 3368.6257 562.5335 0.555 -0.831 0.032 34 29 18
-2318.8433 3373.4492 547.9493 0.521 -0.853 0.046 16 17 3
-2314.3757 3376.1309 543.3069 0.507 -0.859 0.070 14 16 4
-2212.1089 3368.5710 464.8724 0.436 -0.773 0.461 39 39 39
-2227.4390 3470.5535 435.9206 0.167 -0.984 -0.070 47 43 43
-2221.8447 3471.8555 430.9376 0.167 -0.984 -0.070 46 42 41
-2207.5850 3470.0847 420.2900 -0.370 -0.868 0.332 53 48 47
-2189.2002 3462.3525 408.7623 -0.196 -0.977 0.078 140 136 136
-2150.7793 3425.6741 392.9544 -0.109 -0.984 0.140 207 197 195
-891.3182 5054.3486 -1268.0259 -0.210 -0.844 -0.493 242 32 75
-878.9167 5025.8394 -1266.3993 -0.292 -0.884 -0.365 248 30 73
-872.0271 5026.6118 -1272.2006 -0.287 -0.880 -0.380 255 25 73
-586.0950 3641.7136 -940.9936 0.398 -0.068 0.915 255 17 74
-561.7534 3642.9546 -960.8900 0.618 0.105 0.779 253 129 146
-250.3179 3601.6089 -1192.3518 0.976 -0.057 -0.212 243 55 81
-209.3086 3161.2234 -1047.2588 0.638 -0.199 0.744 238 41 69
-170.1167 2711.6355 -897.0031 0.699 -0.146 0.700 236 25 58
-112.6405 3065.2161 -1085.5289 0.600 -0.298 -0.742 239 120 122
-2858.9541 3122.1809 1070.2792 0.285 -0.723 0.629 76 78 77
-2850.0459 3120.2148 1063.9875 0.285 -0.723 0.629 78 84 83
-2838.7783 3115.9194 1056.7643 0.436 -0.618 0.654 76 86 86
-2832.8501 3116.8372 1051.6732 0.561 -0.611 0.559 48 61 62
-2831.7227 3122.4758 1048.4857 0.760 -0.649 -0.029 21 36 36
-2847.2083 3165.0920 1043.5024 0.912 -0.318 0.259 29 22 5
-2843.2188 3168.0217 1039.1373 0.717 -0.533 0.450 71 56 38
-2838.6040 3170.3323 1034.5260 0.717 -0.533 0.450 144 112 89
-2822.6147 3161.2563 1025.4863 0.368 -0.897 0.245 165 115 86
-2818.8972 3164.4441 1021.2328 0.344 -0.938 0.043 171 111 77
-2479.4038 3210.3489 732.3855 0.498 -0.664 -0.558 196 123 71
-2492.7673 3241.1111 730.5276 0.343 -0.688 -0.639 156 84 31
-2481.0840 3235.1284 723.6588 0.233 -0.966 -0.110 127 56 8
-2336.3442 3147.0012 644.2526 0.174 -0.973 0.151 134 99 79
-2320.5090 3142.9758 633.2841 0.279 -0.605 0.745 127 91 70
-2320.0596 3165.2219 623.8913 0.528 -0.612 0.588 104 66 49
-2325.7673 3179.8662 622.4865 0.968 -0.162 0.190 97 57 45
-2334.6709 3198.5012 622.0042 0.997 -0.072 0.016 103 63 55
-2378.9265 3268.6741 628.7269 0.518 -0.648 -0.559 102 62 55
-2376.6597 3273.8579 624.8173 0.518 -0.648 -0.559 104 64 58
-2374.3877 3279.0540 620.8987 0.518 -0.648 -0.559 159 119 113
-2372.1104 3284.2617 616.9711 0.518 -0.648 -0.559 181 141 135
-2370.0969 3289.8171 613.1122 0.530 -0.654 -0.540 175 136 125
-2408.9866 3354.8071 617.6693 0.316 -0.866 -0.389 203 154 130
-2422.4211 3379.9976 618.1309 -0.140 -0.925 -0.353 202 155 131
-2438.7173 3434.4507 608.9852 -0.073 -0.455 0.887 203 156 132
-2348.1702 3361.0022 566.7494 0.224 -0.942 0.250 21 5 0
-2342.9551 3362.7039 561.9075 0.526 -0.829 -0.193 33 18 5
-2338.1812 3364.9768 557.1848 0.343 -0.912 0.226 30 16 5
-2335.0107 3369.3367 552.8907 0.121 -0.918 0.377 26 9 3
-2327.5239 3368.0833 547.4410 0.121 -0.918 0.377 22 5 0
-2323.2107 3370.9614 542.8391 0.136 -0.830 0.540 19 14 3
-2312.1086 3364.9453 536.4465 -0.022 -0.834 0.552 18 15 4
-2243.7446 3368.4861 480.5974 0.281 -0.755 0.593 17 16 11
-2234.7439 3373.6807 471.3238 0.186 -0.644 0.742 31 27 24
-2225.4065 3369.6855 465.5149 0.186 -0.644 0.742 34 34 32
-2217.5627 3367.7002 460.0783 0.377 -0.798 0.470 45 47 46
-2198.8992 3439.9036 415.8990 -0.078 -0.919 0.387 40 38 39
-2180.6709 3432.3118 404.4743 -0.108 -0.918 0.382 37 35 38
-1778.7758 4988.1377 -547.2857 0.856 -0.353 0.378 252 212 221
-1532.6149 4628.7173 -597.2288 0.409 -0.817 0.407 248 206 210
-1514.5746 4618.3955 -607.3950 0.501 -0.724 0.474 247 206 210
-1504.2013 4629.7212 -620.2508 0.402 -0.794 0.457 247 206 210
-965.2636 4970.2397 -1187.4923 0.566 -0.018 0.824 219 132 138
-905.0413 5059.0601 -1271.4972 -0.186 -0.847 -0.498 251 51 90
-897.5419 5056.9824 -1276.6222 -0.192 -0.843 -0.503 245 31 75
-886.8234 5037.6909 -1277.3177 -0.297 -0.884 -0.360 249 29 73
-593.2792 4246.6357 -1189.6669 0.085 -0.965 -0.247 254 120 144
-227.8169 3315.5554 -1102.3851 0.888 -0.459 -0.027 243 45 75
-157.0241 3376.1367 -1183.3340 0.619 -0.324 -0.716 238 65 85
-133.8287 3227.8811 -1141.5820 0.013 -0.757 -0.653 244 92 105
-2854.5073 3111.0242 1061.8347 0.442 -0.609 0.658 52 55 54
-2849.9712 3113.3101 1057.2946 0.446 -0.602 0.662 57 64 64
-2840.6082 3110.8816 1050.8431 0.573 -0.607 0.551 64 74 75
-2834.7195 3111.8357 1045.7717 0.573 -0.607 0.551 67 80 81
-2842.8179 3160.6377 1032.2682 0.914 -0.301 0.271 96 83 64
-2839.2595 3163.9895 1028.0697 0.717 -0.533 0.450 166 136 115
-2829.0615 3160.7170 1021.2994 0.344 -0.938 0.043 161 113 87
-2823.8462 3162.4084 1016.4622 0.344 -0.938 0.043 169 111 80
-2340.9260 3145.1484 639.5922 0.174 -0.954 -0.243 146 109 90
-2317.5005 3154.6699 617.0782 0.525 -0.605 0.598 123 86 68
-2388.6704 3264.9644 628.5894 0.528 -0.659 -0.536 125 87 74
-2386.3308 3270.0439 624.6536 0.528 -0.659 -0.536 114 76 63
-2382.3611 3273.1304 620.2365 0.520 -0.649 -0.555 101 63 50
-2380.0820 3278.3154 616.3060 0.520 -0.649 -0.555 140 102 91
-2377.7979 3283.5122 612.3664 0.520 -0.649 -0.555 163 126 114
-2383.8904 3299.1472 610.8212 0.544 -0.598 -0.589 157 121 103
-2415.2263 3354.5955 613.0757 0.316 -0.866 -0.389 179 131 98
-2420.9790 3370.0986 611.3143 0.094 -0.989 0.111 180 131 100
-2472.6018 3443.3608 622.4177 0.087 -0.968 -0.237 179 130 100
-2352.6118 3358.5972 561.6619 0.224 -0.942 0.250 66 38 18
-2351.9692 3366.1970 558.0455 0.510 -0.841 -0.180 56 26 7
-2344.5710 3365.0947 552.6144 0.257 -0.943 0.209 51 21 4
-2338.2839 3365.4163 547.4847 0.168 -0.927 0.336 45 14 2
-2331.7549 3365.4148 542.2947 0.121 -0.918 0.377 39 9 3
-2325.9019 3366.2842 537.2862 0.293 -0.915 0.278 29 12 1
-2317.4119 3363.7004 531.5925 0.168 -0.805 0.569 26 13 2
-2283.1697 3335.7598 515.7871 -0.214 -0.928 0.305 25 11 2
-2249.7437 3368.2888 475.9211 0.450 -0.826 -0.338 17 16 12
-2235.6611 3366.6023 465.4146 0.186 -0.644 0.742 31 27 24
-2229.8904 3367.4648 460.4745 0.168 -0.632 0.757 35 35 33
-2223.5217 3367.5056 455.3947 0.206 -0.638 0.742 49 52 52
-2205.1914 3351.1667 447.4985 0.910 -0.288 -0.298 48 53 56
-2185.7134 3430.8208 399.4648 -0.108 -0.918 0.382 43 43 45
-2159.9832 3458.4153 367.7332 -0.159 -0.987 -0.003 206 198 195
-1593.2941 4698.8442 -589.6571 0.574 -0.759 0.309 249 204 211
-1544.1906 4643.7686 -606.1891 0.436 -0.806 0.400 248 206 210
-1528.1411 4639.3071 -617.1254 0.388 -0.796 0.465 247 206 210
-1516.6464 4627.1719 -621.3051 0.447 -0.821 0.355 247 206 210
-1512.5751 4636.0488 -628.1691 0.487 -0.745 0.455 247 206 210
-1505.1941 4635.5142 -633.8184 0.482 -0.744 0.463 247 206 210
-1494.2266 4624.6348 -638.0922 0.493 -0.793 0.358 247 206 210
-1485.9800 4663.1865 -660.4014 0.437 -0.828 0.351 251 204 212
-1389.0591 5083.8643 -909.3536 0.524 -0.258 0.812 251 193 207
-1109.8484 5521.6890 -1310.2330 0.783 -0.475 0.402 245 160 163
-707.2369 3833.7498 -940.5749 0.803 -0.185 -0.566 238 137 139
-750.2120 5067.0249 -1410.3575 0.994 0.022 -0.109 255 159 164
-732.0574 4995.3970 -1395.5215 0.994 0.017 -0.110 255 152 162
-248.5062 3276.2524 -1077.4591 0.992 -0.024 0.125 240 89 114
-163.8194 3146.7332 -1091.8606 0.749 -0.262 -0.608 187 11 30
-160.5920 3384.1277 -1191.4318 0.660 -0.313 -0.683 238 65 85
-154.0485 3336.3838 -1177.1245 0.092 -0.693 -0.715 244 68 89
-144.2928 3303.0154 -1171.2451 0.063 -0.589 -0.806 248 84 101
-2853.5002 3103.2432 1054.7883 0.441 -0.609 0.659 40 44 43
-2847.0879 3103.6924 1049.5116 0.447 -0.605 0.659 45 52 52
-2840.3271 3103.7954 1044.1005 0.172 -0.980 -0.103 63 73 74
-2834.7578 3105.0542 1039.1603 0.171 -0.979 -0.113 92 105 106
-2840.1960 3117.0920 1038.5300 0.798 -0.597 -0.076 57 72 72
-2843.0735 3153.9253 1025.6726 0.914 -0.301 0.271 142 126 109
-2839.9143 3157.6614 1021.6278 0.717 -0.533 0.450 185 153 131
-2830.4070 3155.0820 1015.1384 0.382 -0.898 0.219 160 111 84
-2828.7998 3160.3716 1011.6876 0.344 -0.938 0.043 167 109 77
-2385.7312 3153.6265 662.6187 -0.111 -0.953 0.282 153 106 84
-2323.2449 3131.5771 622.0627 -0.192 -0.945 0.264 145 109 87
-2317.1636 3146.8545 610.9529 0.244 -0.938 0.247 134 99 79
-2426.5652 3369.0251 606.4927 0.094 -0.989 0.111 176 118 83
-2474.7991 3437.8530 616.4996 -0.062 -0.968 0.242 175 118 85
-2358.5674 3358.1292 556.9749 0.237 -0.939 0.250 147 100 72
-2357.8926 3365.6799 553.3350 0.500 -0.818 -0.285 128 79 51
-2349.0598 3362.7432 547.5280 0.257 -0.943 0.209 122 72 46
-2341.1809 3361.0134 541.9827 0.165 -0.930 0.327 116 66 40
-2331.8113 3357.3301 536.0563 0.252 -0.931 0.263 106 62 37
-2327.8916 3360.7026 531.5573 0.268 -0.925 0.269 62 33 10
-2320.2412 3359.2188 526.0920 0.168 -0.805 0.569 48 25 2
-2312.4636 3357.5500 520.6018 0.082 -0.732 0.677 41 16 0
-2293.7080 3341.4661 512.3203 -0.013 -0.995 0.100 36 10 0
-2286.7917 3340.8494 507.0815 -0.013 -0.995 0.100 31 4 0
-2267.4526 3332.2925 495.2422 -0.012 -0.967 -0.254 32 4 5
-2243.0808 3316.9028 482.2152 0.442 -0.728 0.524 16 10 6
-2259.8960 3365.0056 475.7928 0.460 -0.742 0.488 16 13 10
-2248.7690 3358.6938 469.5517 0.511 -0.806 -0.298 20 18 14
-2239.5066 3363.5068 460.2176 0.181 -0.627 0.758 26 23 19
-2230.6375 3360.1682 454.5472 0.168 -0.632 0.757 29 28 26
-2222.8708 3358.3000 449.1478 0.187 -0.650 0.736 49 51 52
-2207.0459 3354.0999 438.3078 0.432 -0.764 0.478 53 58 62
-2198.4624 3431.1069 399.8333 -0.050 -0.936 0.349 37 35 36
-2187.3748 3424.5417 393.7277 -0.070 -0.972 0.224 34 32 33
-2187.1970 3433.3904 389.9488 -0.223 -0.959 -0.173 38 37 37
-1541.3650 4618.5679 -610.1448 0.350 -0.799 0.488 199 158 162
-1530.4772 4608.2676 -614.5565 0.322 -0.886 0.334 206 165 169
-1527.5323 4620.1738 -621.7897 0.470 -0.802 0.369 221 180 184
-1519.3771 4617.4570 -627.1488 0.473 -0.803 0.363 236 195 199
-1504.0336 4614.6353 -638.1732 0.484 -0.774 0.408 246 205 209
-1497.2758 4615.7896 -644.0140 0.484 -0.774 0.408 248 207 211
-1490.6460 4617.3008 -649.9001 0.492 -0.770 0.407 253 214 218
-1487.4495 4628.7349 -657.1392 0.470 -0.742 0.478 246 200 207
-1475.4094 4614.5542 -660.8705 0.364 -0.835 0.412 245 198 206
-1476.8795 4639.6714 -670.0289 0.382 -0.808 0.449 242 195 203
-1509.7404 4757.1406 -692.2266 0.428 -0.653 0.625 243 196 204
-1424.8237 5157.3901 -924.2051 0.640 -0.368 0.675 248 194 207
-964.2113 4844.8335 -1161.4839 0.941 -0.308 -0.140 240 155 160
-926.5958 4699.5527 -1131.6283 0.417 -0.859 0.297 226 141 148
-168.3112 3242.5984 -1134.8175 0.758 -0.262 -0.597 200 24 46
-167.3003 3372.2754 -1188.9316 0.765 -0.287 -0.576 224 48 69
-158.5848 3364.2551 -1192.5554 0.102 -0.864 -0.493 247 70 92
-153.0992 3337.0242 -1185.7167 0.194 -0.843 -0.501 252 77 98
-123.3290 3118.5505 -1119.5409 0.188 -0.885 -0.426 237 123 123
-2943.3325 3012.7646 1154.0302 -0.316 -0.845 0.432 12 13 7
-2847.1079 3090.2734 1045.6475 0.624 -0.492 0.607 32 36 35
-2846.7571 3096.5820 1042.7601 0.447 -0.605 0.659 36 43 43
-2840.4490 3097.1199 1037.5341 0.440 -0.601 0.668 52 62 63
-2839.4543 3102.8306 1034.3832 0.167 -0.981 -0.099 97 109 111
-2842.9106 3112.9089 1032.9563 0.800 -0.596 -0.064 80 94 94
-2840.5669 3151.3464 1015.1999 0.717 -0.533 0.450 151 116 95
-2835.8618 3153.5432 1010.5592 0.718 -0.550 0.426 154 104 75
-2831.3320 3155.9165 1005.9846 0.718 -0.550 0.426 161 103 70
-2493.2881 3226.8274 708.5192 -0.404 -0.807 0.431 189 115 66
-2374.5498 3155.5398 643.8199 0.182 -0.978 -0.102 165 122 100
-2315.5005 3137.4587 604.4600 0.314 -0.911 0.268 143 105 86
-2373.2839 3222.9531 614.9339 0.911 0.021 0.413 147 111 84
-2398.8853 3376.2173 571.8519 0.029 -0.693 0.721 181 111 75
-2387.2439 3369.8333 565.2582 0.029 -0.693 0.721 180 109 74
-2359.4744 3368.0073 543.9866 0.321 -0.939 0.121 168 97 63
-2343.1360 3355.4016 536.2406 0.254 -0.958 0.133 160 91 56
-2336.7839 3355.6292 531.1080 0.270 -0.927 0.260 150 89 49
-2332.5366 3358.5769 526.5199 0.275 -0.933 0.231 115 73 28
-2321.4702 3352.6633 520.1880 0.169 -0.811 0.560 99 63 21
-2312.8557 3349.9031 514.4964 0.094 -0.810 0.579 87 50 15
-2299.6223 3341.0769 507.6502 -0.013 -0.995 0.100 77 39 14
-2292.6946 3340.4600 502.4103 -0.013 -0.995 0.100 55 16 2
-2283.4023 3336.7192 496.5867 0.150 -0.686 0.712 52 9 2
-2270.4380 3328.1040 489.8665 0.211 -0.776 0.594 44 2 1
-2251.1643 3311.0847 481.6177 0.521 -0.738 0.428 35 2 0
-2241.1152 3306.1938 475.6696 0.499 -0.780 0.378 20 11 6
-2235.6450 3307.3555 470.8503 0.499 -0.780 0.378 14 13 9
-2260.0640 3356.9697 469.6992 0.466 -0.724 0.509 16 12 9
-2244.3433 3344.5034 462.3854 0.314 -0.738 0.597 21 19 17
-2192.7603 3309.1489 436.0923 0.316 -0.867 0.385 43 44 45
-2209.4180 3349.0400 432.8063 0.393 -0.762 0.515 53 56 61
-2180.4456 3388.2266 393.6181 0.680 -0.654 -0.332 25 21 20
-2196.2292 3419.3577 393.2622 -0.041 -0.973 0.226 29 25 24
-2186.2361 3414.3330 387.4137 -0.031 -0.973 0.227 34 30 29
-2189.4192 3427.8923 384.3305 -0.228 -0.961 -0.156 39 38 36
-1809.3773 5055.6978 -590.3700 0.770 -0.183 0.611 238 198 207
-1642.0419 4736.0137 -590.8814 0.078 -0.378 0.923 247 202 209
-1545.5081 4612.8613 -616.5172 0.350 -0.799 0.488 134 93 97
-1534.0164 4600.9224 -620.6944 0.482 -0.787 0.385 166 125 129
-1530.3506 4610.7559 -627.6693 0.473 -0.803 0.363 171 130 134
-1523.6279 4612.0630 -633.5424 0.473 -0.803 0.363 153 112 116
-1508.1088 4608.7607 -644.4863 0.484 -0.774 0.408 218 177 181
-1501.3527 4609.9155 -650.3228 0.484 -0.774 0.408 247 206 210
-1494.0974 4609.6284 -655.9589 0.550 -0.614 0.566 250 209 213
-1487.8083 4612.0991 -661.9694 0.587 -0.656 0.474 248 202 210
-1502.1190 4737.9146 -702.6547 0.431 -0.475 0.767 248 201 209
-1495.6721 4740.4980 -708.8368 0.490 -0.433 0.756 248 201 209
-1423.9714 5106.3364 -917.0186 0.687 -0.209 0.695 250 196 209
-1017.1401 5065.6133 -1222.8751 -0.054 -0.483 0.874 241 156 161
-587.0948 3613.6760 -963.4752 -0.287 -0.819 0.497 251 66 105
-565.4335 3573.3462 -963.9767 -0.306 -0.885 0.350 255 145 156
-661.7421 4444.8271 -1248.0240 -0.256 -0.927 0.274 251 152 157
-635.3470 4316.6226 -1215.9360 -0.354 -0.924 0.143 249 146 155
-168.2928 3122.6033 -1092.5649 0.624 -0.337 -0.705 196 19 39
-170.0669 3220.1577 -1131.5057 0.598 -0.325 -0.733 205 29 52
-179.3273 3455.9602 -1221.6868 0.565 -0.301 -0.768 219 41 63
-184.2707 3709.1274 -1322.4741 0.593 -0.281 -0.754 247 69 91
-131.0647 3142.5122 -1130.3286 -0.172 -0.869 -0.464 245 119 123
-127.0422 3137.8689 -1131.5989 -0.039 -0.839 -0.543 241 126 127
-2808.6731 2969.7092 1055.9546 0.670 -0.640 -0.377 29 28 26
-2850.0576 3034.1140 1061.9459 -0.023 -1.000 0.014 37 33 32
-2863.7373 3106.2415 1042.7734 0.354 -0.848 0.394 36 43 41
-2854.3230 3103.8005 1036.3301 0.325 -0.867 0.377 59 69 70
-2846.4531 3102.8408 1030.4941 0.337 -0.860 0.382 126 138 140
-2846.3145 3109.4028 1027.6541 0.939 -0.340 0.052 136 150 150
-2845.1418 3148.9258 1010.2802 0.822 -0.557 0.121 143 111 87
-2842.0059 3152.6792 1006.2338 0.822 -0.557 0.121 153 106 75
-2839.5637 3157.1316 1002.4462 0.816 -0.568 0.107 160 103 67
-2836.4141 3160.8918 998.3861 0.816 -0.568 0.107 163 102 66
-2374.4480 3140.5872 640.8187 0.042 -0.999 -0.020 170 124 100
-2380.2446 3154.9348 639.4416 0.182 -0.978 -0.102 168 124 103
-2318.1460 3133.2988 599.2433 0.304 -0.916 0.260 148 111 91
-2380.1880 3352.7747 557.0792 0.082 -0.640 0.764 192 105 63
-2415.9121 3406.5713 562.9996 0.187 -0.930 -0.317 191 106 64
-2352.5583 3350.9990 535.9271 0.217 -0.906 0.364 186 100 59
-2345.6580 3350.5320 530.6542 0.217 -0.906 0.364 177 94 52
-2337.3323 3348.2141 525.0223 0.234 -0.914 0.331 166 91 44
-2332.7173 3350.6714 520.3432 0.264 -0.914 0.308 159 102 52
-2321.4524 3344.5081 513.9825 0.160 -0.801 0.578 148 101 51
-2315.0874 3344.6726 508.8712 0.127 -0.801 0.585 142 93 49
-2305.5476 3340.6868 502.9713 -0.013 -0.995 0.100 136 88 49
-2301.4844 3343.8311 498.4437 -0.010 -0.996 0.094 106 55 25
-2286.8542 3333.1226 491.3076 0.132 -0.696 0.706 93 40 17
-2277.2747 3328.9868 485.4386 0.132 -0.696 0.706 71 23 5
-2249.3721 3300.6484 475.1225 0.499 -0.780 0.378 54 13 4
-2243.9009 3301.8108 470.3041 0.499 -0.780 0.378 38 26 18
-2239.5989 3304.5203 465.7682 0.417 -0.731 0.540 24 23 18
-2236.1138 3308.3215 461.4252 0.164 -0.700 0.695 22 14 11
-2228.7188 3306.9182 456.1501 0.465 -0.709 0.530 15 11 7
-2225.7634 3311.4365 451.9287 0.426 -0.657 0.622 21 18 17
-2194.4683 3294.8176 434.0484 0.056 -0.935 0.350 22 21 19
-2195.4375 3304.6223 430.7366 0.331 -0.853 0.404 38 39 39
-2211.8552 3344.0796 427.3270 0.393 -0.762 0.515 46 50 53
-2193.0117 3370.6516 401.3412 0.653 -0.707 -0.273 22 20 21
-2188.9976 3373.9199 396.8008 0.195 -0.966 -0.171 23 21 22
-2182.2925 3373.4482 391.6847 0.195 -0.965 -0.173 22 20 21
-2181.6858 3390.4053 384.1485 0.784 -0.621 -0.026 27 25 26
-1801.6611 4975.9937 -576.6796 0.728 -0.217 0.651 250 210 219
-1645.0566 4726.8081 -597.0758 0.081 -0.363 0.928 245 202 209
-1549.6478 4607.1597 -622.8846 0.350 -0.799 0.488 114 73 77
-1538.1592 4595.2783 -627.0436 0.482 -0.787 0.385 143 102 106
-1534.5975 4605.3643 -634.0621 0.473 -0.803 0.363 134 93 97
-1527.8759 4606.6724 -639.9318 0.473 -0.803 0.363 98 57 61
-1510.0375 4596.8311 -649.9703 0.511 -0.827 0.235 104 63 67
-1503.6405 4598.9727 -655.9299 0.458 -0.794 0.399 156 115 119
-1496.7275 4599.6406 -661.6849 0.571 -0.640 0.514 206 164 168
-1483.9648 4603.9932 -673.6078 0.738 -0.669 -0.088 243 196 204
-1403.1346 4490.7510 -690.5316 0.659 -0.301 0.689 248 201 209
-600.8575 3613.7166 -961.2579 0.201 -0.294 0.934 247 31 78
-585.3385 3609.1953 -971.6724 0.087 -0.378 0.922 255 113 143
-445.4708 4282.6460 -1362.7002 0.747 -0.205 0.632 252 130 151
-176.3233 3143.2439 -1101.8613 0.463 -0.326 -0.824 189 9 26
-177.7193 3231.1431 -1137.3285 0.458 -0.327 -0.827 201 24 44
-136.4983 3115.2268 -1121.7572 0.250 -0.443 -0.861 246 108 116
-2813.2605 2967.5933 1051.3910 0.670 -0.640 -0.377 28 27 25
-2891.7600 3053.9382 1077.3737 0.360 -0.912 0.198 30 29 27
-2890.9150 3059.6245 1074.3250 0.377 -0.896 0.235 35 34 32
-2842.5200 3059.2454 1036.1837 0.842 -0.521 -0.144 35 40 36
-2870.7166 3099.5215 1041.6400 0.941 -0.321 0.108 33 35 34
-2862.4612 3098.2161 1035.6533 0.474 -0.664 0.579 38 42 41
-2855.0842 3097.7454 1030.0122 0.465 -0.664 0.586 64 72 73
-2848.2117 3097.7527 1024.5702 0.465 -0.664 0.586 145 155 157
-2846.3945 3143.2234 1004.0992 0.822 -0.561 0.098 148 116 93
-2844.3164 3148.0125 1000.4501 0.822 -0.557 0.121 152 105 73
-2840.5952 3151.1868 996.1765 0.817 -0.566 0.114 160 103 67
-2415.2068 3166.2607 653.2156 0.327 -0.851 0.412 159 112 89
-2351.0605 3127.9404 618.4902 0.115 -0.971 0.210 166 129 110
-2345.7192 3144.0439 607.5226 0.399 -0.915 -0.062 155 117 98
-2335.5154 3146.8767 598.2614 0.489 -0.856 -0.166 154 118 98
-2354.2505 3336.7285 533.6217 0.307 -0.777 0.550 201 107 62
-2340.2585 3343.8796 519.5553 0.247 -0.873 0.420 180 96 48
-2339.6313 3351.4761 515.8793 0.203 -0.921 0.332 163 96 43
-2319.5811 3342.3865 503.8162 0.105 -0.810 0.576 156 100 50
-2319.2791 3350.4346 500.2084 -0.071 -0.997 -0.023 154 98 53
-2311.2815 3348.4800 494.6974 -0.029 -0.999 -0.016 142 86 46
-2289.9319 3329.0388 485.9389 0.132 -0.689 0.713 139 79 45
-2251.6726 3295.6353 469.6423 0.525 -0.755 0.392 119 71 54
-2247.1179 3298.0032 465.0467 0.476 -0.716 0.511 53 37 25
-2242.2974 3300.0225 460.3865 0.423 -0.730 0.537 37 31 25
-2238.2480 3303.0662 455.9079 0.166 -0.698 0.697 26 15 11
-2231.2705 3302.2209 450.7396 0.470 -0.701 0.537 14 9 4
-2228.1116 3306.4558 446.4671 0.454 -0.642 0.618 22 18 16
-2209.5930 3290.1521 438.6358 0.164 -0.722 0.672 23 17 18
-2214.2898 3339.1248 421.8542 0.393 -0.762 0.515 41 45 48
-2185.9839 3317.8284 408.3670 0.526 -0.613 -0.589 60 64 65
-2186.9802 3353.9297 394.0446 0.621 -0.725 -0.299 21 21 23
-2188.3252 3364.5781 390.6518 0.303 -0.942 -0.147 21 21 23
-2186.1003 3370.3191 386.4881 0.326 -0.936 -0.132 22 20 21
-2121.2117 3432.0066 309.3146 -0.276 -0.912 -0.304 214 195 195
-1541.5187 4607.4097 -641.4438 0.458 -0.801 0.386 81 44 46
-1508.2792 4594.7393 -662.4459 0.487 -0.778 0.397 99 58 62
-1500.0997 4591.8115 -667.6937 0.571 -0.640 0.514 117 75 79
-1490.1704 4604.2622 -680.7633 0.742 -0.667 -0.074 225 175 184
-971.8842 4866.3408 -1200.6326 0.113 -0.990 -0.087 218 131 137
-685.2623 4529.9175 -1286.6470 -0.176 -0.981 0.081 254 150 159
-667.7430 4497.8232 -1287.0781 -0.290 -0.955 -0.067 251 134 152
-890.0473 5943.6890 -1716.3457 0.979 -0.011 -0.204 255 124 146
-424.9865 4209.1099 -1358.3477 0.777 -0.132 0.615 239 120 140
-237.0764 3336.0679 -1141.6284 -0.030 -0.956 -0.291 236 27 58
-183.6744 3213.7234 -1132.6807 0.588 -0.283 -0.758 190 9 27
-185.8371 3314.3625 -1173.0938 0.529 -0.295 -0.796 207 31 51
-202.7455 3746.0894 -1340.4213 0.611 -0.273 -0.743 227 54 74
-184.6871 3510.6733 -1256.1741 0.414 -0.357 -0.837 237 64 84
-2817.8518 2965.4761 1046.8242 0.670 -0.640 -0.377 25 24 22
-2893.3716 3048.8293 1071.4253 0.407 -0.820 0.402 27 26 24
-2887.0942 3049.3945 1066.2250 0.407 -0.820 0.402 32 31 29
-2871.4966 3041.1716 1057.3574 0.022 -0.887 0.461 32 31 29
-2855.0278 3032.0779 1048.1680 0.004 -0.965 0.263 32 32 30
-2846.5156 3030.4653 1042.1182 0.004 -0.965 0.263 32 34 31
-2848.0891 3038.4087 1040.0173 0.727 -0.667 0.163 41 44 43
-2838.6101 3035.8669 1033.5946 0.710 -0.687 0.152 40 44 43
-2837.3870 3041.1770 1030.3916 0.716 -0.687 0.122 44 46 45
-2845.6826 3055.6038 1030.8748 0.842 -0.521 -0.144 41 43 40
-2872.0452 3087.4038 1038.3245 0.939 -0.325 0.112 29 29 27
-2870.0046 3092.0659 1034.7484 0.939 -0.325 0.112 36 36 34
-2841.7666 3071.5171 1021.0787 0.930 -0.353 0.108 45 48 47
-2848.9421 3091.6792 1018.2614 0.465 -0.664 0.586 150 154 153
-2845.4541 3135.3755 997.1052 0.736 -0.514 0.440 138 102 71
-2844.8870 3141.6362 994.0207 0.736 -0.514 0.440 153 106 69
-2417.6621 3161.7771 647.8213 0.354 -0.813 0.461 151 107 84
-2346.7874 3123.0171 608.1155 0.383 -0.888 -0.255 172 129 115
-2349.4729 3141.1770 602.5920 0.444 -0.892 -0.088 161 120 104
-2345.9929 3144.5391 598.4255 0.399 -0.915 -0.062 159 118 103
-2349.0906 3155.8101 596.1282 0.569 -0.810 -0.141 156 115 99
-2328.2000 3138.2415 587.0119 0.617 -0.787 -0.030 156 117 95
-2313.9731 3128.6160 579.8187 0.613 -0.790 0.009 159 119 89
-2235.3167 3077.7874 539.0433 -0.170 -0.985 0.027 158 113 79
-2281.6653 3157.6458 542.0562 0.809 0.081 0.583 188 119 89
-2363.1079 3331.6482 533.1698 0.158 -0.981 0.115 199 109 58
-2364.5181 3341.7527 530.0298 0.148 -0.983 0.110 202 111 61
-2350.2124 3340.1929 519.3781 -0.119 -0.961 0.249 194 107 55
-2341.2449 3337.0627 513.6072 -0.121 -0.964 0.238 188 108 55
-2339.6023 3351.7361 506.1304 -0.071 -0.997 -0.023 166 94 41
-2325.9966 3351.0142 495.6790 -0.071 -0.997 -0.023 164 96 46
-2324.5432 3357.5938 491.7599 0.028 -0.999 -0.023 165 96 48
-2290.3616 3321.5051 479.9350 0.153 -0.697 0.701 167 96 51
-2250.6240 3294.5793 459.8602 0.470 -0.717 0.516 108 72 44
-2244.4019 3294.7483 454.8706 0.423 -0.730 0.537 85 54 38
-2239.8728 3297.1477 450.2799 0.184 -0.697 0.692 43 18 7
-2235.2129 3299.3772 445.6577 0.426 -0.657 0.622 30 13 4
-2229.3916 3300.0635 440.7669 0.454 -0.642 0.618 25 15 6
-2198.5828 3301.1013 415.9758 0.531 -0.452 0.717 30 32 33
-2191.8293 3300.4805 410.8987 0.549 -0.443 0.709 37 38 39
-2186.5886 3362.5903 380.6035 0.300 -0.953 -0.048 24 24 26
-2109.5664 3424.7883 293.5287 -0.250 -0.965 0.083 207 196 197
-1520.3140 4591.1675 -663.3931 0.484 -0.774 0.408 70 36 35
-1506.8163 4593.4834 -675.0380 0.484 -0.774 0.408 99 53 56
-1497.0110 4606.3110 -688.1904 0.739 -0.658 -0.143 216 147 160
-1467.4838 4624.4014 -719.1487 0.692 -0.718 -0.073 248 199 205
-1022.7476 5076.6250 -1261.1252 0.937 -0.098 0.337 224 138 141
-1029.5487 5396.1025 -1390.2698 0.024 -0.459 0.888 250 103 119
-592.2938 3659.3318 -1004.6248 0.890 0.180 0.418 253 140 152
-687.6674 4514.2847 -1289.2228 -0.196 -0.977 0.089 255 136 158
-672.9956 4499.9624 -1294.7902 -0.290 -0.955 -0.067 253 121 147
-889.9280 5901.4438 -1713.4205 0.979 -0.011 -0.204 253 114 143
-240.4494 3337.9399 -1147.4288 -0.030 -0.956 -0.291 233 22 51
-179.1242 3093.9338 -1093.1639 0.745 -0.624 -0.235 191 12 31
-175.6934 3100.0144 -1098.4363 0.745 -0.624 -0.235 214 36 56
-195.1082 3633.2375 -1307.6102 0.262 -0.600 -0.756 243 69 89
-2888.5107 3044.1104 1060.2144 0.320 -0.919 0.231 25 24 22
-2877.4573 3040.1785 1053.1521 0.009 -0.889 0.458 25 24 22
-2865.4094 3035.2820 1045.7131 0.034 -0.984 0.177 24 24 22
-2860.2131 3036.8250 1040.9568 0.194 -0.973 0.128 27 27 25
-2864.9185 3047.7410 1040.0485 0.159 -0.985 0.068 37 39 36
-2862.7656 3052.1921 1036.4631 0.861 -0.502 -0.077 42 44 41
-2852.9111 3049.3296 1029.8947 0.830 -0.543 -0.126 49 50 47
-2850.6279 3053.6646 1026.2557 0.830 -0.543 -0.126 51 51 49
-2842.7217 3052.6367 1020.4484 0.939 -0.332 0.089 50 50 48
-2840.7456 3057.2776 1016.9224 0.939 -0.332 0.089 55 55 53
-2841.3679 3064.4277 1014.3853 0.934 -0.342 0.102 79 82 79
-2849.6709 3085.6184 1011.9658 0.465 -0.664 0.586 159 156 152
-2842.8210 3085.6338 1006.5505 0.465 -0.664 0.586 148 143 134
-2838.4783 3094.7356 999.2666 0.935 -0.347 0.067 134 120 97
-2841.6387 3138.3318 983.2963 0.740 -0.492 0.459 157 103 57
-2838.9509 3142.5125 979.4034 0.735 -0.493 0.464 163 101 55
-2840.6492 3151.0525 977.1271 0.510 -0.410 0.757 172 103 60
-2822.4570 3139.8596 967.5035 0.712 -0.548 0.440 180 107 64
-2417.2507 3153.9568 641.5858 0.347 -0.822 0.453 140 98 76
-2416.9302 3161.0544 638.3262 0.339 -0.763 0.550 149 109 90
-2344.8091 3128.2791 595.2625 0.524 -0.847 -0.090 163 123 111
-2340.9285 3131.1316 590.9902 0.524 -0.847 -0.090 157 117 105
-2343.9695 3142.2825 588.6684 0.535 -0.837 -0.117 151 112 98
-2323.7231 3125.5103 579.7861 0.549 -0.768 -0.329 154 114 93
-2311.5681 3118.3838 573.2070 0.601 -0.796 -0.071 159 120 92
-2343.2683 3164.1746 578.8420 0.039 -0.670 0.742 158 119 87
-2266.0579 3115.7214 538.4003 0.297 -0.923 -0.243 147 95 69
-2261.9114 3118.1936 534.0792 0.297 -0.923 -0.243 157 96 72
-2257.7625 3120.6670 529.7556 0.297 -0.923 -0.243 183 116 90
-2253.6118 3123.1421 525.4299 0.297 -0.923 -0.243 181 110 79
-2255.7017 3141.0359 519.5009 0.619 -0.752 -0.228 195 115 76
-2361.6252 3330.0359 523.0844 0.225 -0.974 -0.014 200 112 62
-2347.4424 3320.3030 516.0082 0.010 -0.997 0.082 199 114 60
-2339.4634 3318.4202 510.5055 0.032 -0.997 0.072 200 115 61
-2327.8523 3311.8704 504.1118 0.112 -0.987 0.118 199 115 61
-2334.4519 3328.6355 502.2216 0.218 -0.971 -0.098 185 102 48
-2310.1172 3305.6882 492.7267 0.278 -0.732 0.622 182 101 48
-2304.4097 3306.6328 487.8201 0.265 -0.736 0.623 180 101 49
-2302.0811 3311.9436 483.7321 0.253 -0.726 0.639 181 101 51
-2327.2708 3352.9741 486.2427 0.011 -1.000 -0.002 179 99 49
-2268.1741 3292.8716 465.0377 0.296 -0.867 0.400 178 99 50
-2256.8362 3286.3750 458.8369 0.392 -0.829 0.399 171 101 51
-2253.0911 3289.7939 454.4318 0.462 -0.719 0.519 152 102 62
-2248.2517 3291.7820 449.7686 0.262 -0.738 0.622 125 83 54
-2242.4158 3292.4561 444.8751 0.162 -0.750 0.641 62 28 8
-2233.4197 3288.9421 439.2602 0.163 -0.806 0.569 41 17 4
-2223.5298 3284.2119 433.4547 0.142 -0.726 0.673 26 10 1
-2214.4614 3280.5376 427.8506 0.150 -0.725 0.672 18 15 11
-2196.7495 3290.5117 409.6409 0.569 -0.448 0.689 24 25 28
-2188.8552 3357.3440 375.1003 0.306 -0.948 -0.084 22 23 27
-2176.4287 3375.4419 357.6228 0.866 -0.498 -0.053 30 31 33
-2231.3308 3498.3376 348.9194 -0.307 -0.899 -0.313 55 54 61
-2222.2729 3494.8127 343.2604 -0.327 -0.908 -0.261 57 56 63
-1648.4481 4684.4854 -613.7231 0.472 -0.217 0.854 245 203 204
-1565.3696 4599.1450 -643.1745 0.635 -0.302 0.711 51 33 27
-1518.8876 4590.0122 -676.0079 0.454 -0.778 0.435 96 52 54
-1512.0056 4590.8018 -681.7764 0.454 -0.778 0.435 110 58 63
-1504.0450 4608.8613 -695.7112 0.742 -0.657 -0.132 129 55 70
-910.0898 4916.2764 -1294.9009 0.579 -0.757 -0.304 254 21 69
-705.7499 4518.5601 -1287.7891 0.608 -0.362 -0.707 253 148 150
-254.2448 3364.0957 -1155.3086 -0.124 -0.917 -0.380 240 28 57
-2249.1794 2342.7112 845.4551 0.877 -0.389 0.283 97 96 92
-2883.7974 3039.5305 1049.0840 0.000 -0.892 0.453 25 24 22
-2872.8911 3035.7292 1042.1018 0.022 -0.997 0.072 25 24 22
-2880.4924 3049.3391 1042.2983 0.114 -0.993 0.043 27 26 22
-2875.3540 3050.9736 1037.5494 0.252 -0.964 -0.089 32 31 27
-2873.6394 3055.8486 1034.1201 0.148 -0.985 0.086 42 41 35
-2864.7944 3053.9717 1027.9438 0.145 -0.988 0.056 54 52 47
-2860.1636 3056.0859 1023.3908 0.480 -0.861 0.170 69 67 63
-2852.7058 3055.5061 1017.7561 0.693 -0.703 0.161 92 89 85
-2848.8350 3058.3433 1013.4944 0.693 -0.703 0.161 90 90 86
-2845.9541 3062.1340 1009.6072 0.663 -0.744 0.082 110 110 104
-2843.7600 3066.5940 1005.9765 0.622 -0.781 0.064 135 127 121
-2844.4270 3087.0645 997.7810 0.947 -0.201 0.251 132 107 88
-2840.0149 3089.4421 993.2881 0.935 -0.347 0.067 136 106 81
-2855.3376 3131.2676 987.5529 0.725 -0.490 0.484 154 106 66
-2837.5488 3120.6072 978.0652 0.758 -0.575 0.309 153 104 59
-2831.1831 3121.1262 972.8235 0.771 -0.510 0.382 156 104 57
-2874.0981 3170.2502 985.7402 0.406 -0.277 0.871 159 102 57
-2861.6372 3164.8484 978.2141 0.406 -0.277 0.871 169 104 62
-2849.2400 3159.4739 970.7264 0.406 -0.277 0.871 179 107 68
-2807.0007 3124.4104 952.3518 0.679 -0.646 0.349 184 105 66
-2804.8877 3129.1367 948.6718 0.672 -0.637 0.378 186 104 70
-2812.3691 3143.4578 948.4706 0.413 -0.654 0.634 187 106 65
-2416.4275 3145.6816 635.2500 0.418 -0.847 0.328 132 91 69
-2409.7893 3145.3826 630.1420 0.415 -0.846 0.335 141 104 86
-2403.5295 3145.5151 625.1486 0.238 -0.920 0.313 152 118 104
-2393.9243 3141.7156 619.1919 0.253 -0.914 0.317 161 126 114
-2319.5613 3113.2070 572.6891 0.612 -0.788 -0.069 144 107 88
-2315.4119 3115.6963 568.3560 0.616 -0.783 -0.082 140 104 80
-2290.1558 3288.5361 474.7973 0.665 -0.706 0.244 190 107 55
-2344.4700 3367.0859 484.1673 0.051 -0.991 0.120 188 104 52
-2271.5752 3289.3010 459.8172 0.296 -0.867 0.400 188 104 53
-2269.5352 3294.9575 455.7981 0.166 -0.741 0.650 184 108 55
-2260.9058 3292.0142 450.2463 0.166 -0.741 0.650 169 113 68
-2253.1289 3290.1624 444.9018 0.162 -0.750 0.641 153 106 70
-2244.6021 3287.3032 439.3950 0.162 -0.750 0.641 81 43 17
-2236.2229 3284.6121 433.9330 0.163 -0.806 0.569 39 13 0
-2225.4534 3278.7324 427.9443 0.142 -0.726 0.673 27 11 2
-2204.3154 3379.1187 368.5029 0.599 -0.714 -0.362 15 16 20
-2179.1982 3353.1860 359.7421 0.157 -0.980 -0.122 19 20 24
-2153.7788 3326.6711 350.9911 0.633 -0.753 -0.180 23 24 28
-2156.0364 3347.3696 343.9529 0.724 -0.596 -0.348 34 34 41
-2242.1155 3504.7480 344.7898 -0.298 -0.899 -0.321 54 54 64
-1662.0304 4723.0659 -631.7872 0.180 -0.507 0.843 249 202 204
-1631.3429 4681.1440 -638.1288 0.261 -0.391 0.883 135 89 91
-1621.9475 4675.8101 -643.2664 0.261 -0.391 0.883 86 42 43
-1609.0525 4660.9805 -647.1181 0.520 -0.244 0.818 85 41 43
-1550.7018 4542.3359 -642.5892 0.628 -0.369 0.685 59 35 31
-1532.5491 4551.2612 -660.7087 0.514 -0.389 0.764 66 33 32
-1517.4681 4568.8330 -680.0893 0.566 -0.686 0.457 120 67 72
-1510.8962 4570.4185 -685.9480 0.563 -0.691 0.453 137 76 84
-1471.2524 4620.5991 -738.5942 0.566 -0.511 -0.647 230 183 189
-1403.0448 4930.5103 -924.4285 0.786 -0.242 0.568 239 186 194
-1098.8207 5199.2837 -1278.8782 0.992 -0.009 -0.129 244 153 159
-594.3905 3545.8643 -972.2637 0.682 0.009 0.731 255 125 145
-703.3016 4548.7368 -1313.6481 -0.156 -0.762 0.629 255 127 155
-429.0576 4081.7380 -1330.9720 0.374 -0.630 0.681 229 123 141
-280.0630 3475.4146 -1190.1534 0.518 -0.851 0.081 232 48 77
-250.6820 3384.4661 -1174.5765 -0.099 -0.919 -0.381 228 13 44
-2249.6606 2338.3059 840.6813 0.872 -0.397 0.286 90 89 85
-3007.2214 3031.5020 1140.3978 -0.308 -0.860 0.406 40 37 32
-2883.4863 3045.5308 1036.9097 0.269 -0.959 -0.084 26 23 18
-2876.8357 3045.7393 1031.5812 0.268 -0.960 -0.077 28 23 17
-2879.3628 3054.6074 1029.7714 0.148 -0.985 0.086 44 37 29
-2870.6494 3052.8689 1023.6523 0.145 -0.988 0.056 63 56 49
-2851.6858 3041.3865 1013.6340 0.652 -0.743 0.153 80 73 66
-2851.5818 3047.7798 1010.8122 0.618 -0.732 0.287 103 96 89
-2846.8130 3049.7471 1006.2123 0.611 -0.739 0.285 96 91 84
-2844.1196 3053.6990 1002.3969 0.605 -0.718 0.345 112 104 94
-2845.3477 3061.4187 1000.0561 0.593 -0.803 -0.055 132 113 103
-2832.8496 3069.1323 986.9046 0.635 -0.763 0.119 145 101 84
-2824.1084 3067.2849 980.8101 0.850 -0.516 0.102 147 100 78
-2838.3157 3087.6741 983.2644 0.888 -0.235 0.396 156 103 81
-2829.0852 3085.3699 976.9804 0.796 -0.488 0.357 160 101 79
-2887.8982 3149.3506 995.8926 0.687 -0.487 0.539 158 102 75
-2872.2109 3140.8604 987.1732 0.747 -0.446 0.492 156 104 72
-2869.7319 3145.2529 983.3376 0.407 -0.396 0.823 152 104 66
-2860.2375 3149.6125 973.9899 0.396 -0.281 0.874 155 103 65
-2847.5037 3143.9167 966.3994 0.396 -0.281 0.874 165 104 70
-2834.1614 3137.5825 958.6033 0.391 -0.287 0.874 176 107 76
-2812.8225 3136.9534 942.0625 0.413 -0.654 0.634 185 106 68
-2432.0344 3126.9319 646.3804 0.672 -0.075 0.736 157 95 56
-2408.8752 3137.0203 623.8126 0.549 -0.717 0.429 134 100 81
-2407.4819 3142.8203 620.2295 0.238 -0.920 0.313 145 112 98
-2401.0652 3142.7656 615.1979 0.238 -0.920 0.313 156 124 111
-2393.2268 3141.0344 609.7650 0.228 -0.859 0.459 163 132 119
-2383.2251 3136.7405 603.7260 0.242 -0.896 0.372 162 130 120
-2378.7056 3138.8779 599.2496 0.247 -0.874 0.418 164 131 120
-2355.1877 3148.4966 576.6005 0.249 -0.661 0.708 142 108 91
-2309.0144 3115.6555 554.3004 -0.026 -0.995 0.093 142 108 86
-2230.9856 3103.1255 498.2008 0.240 -0.842 -0.484 193 116 74
-2236.7197 3117.8572 496.4046 0.530 -0.802 -0.274 194 116 69
-2316.6682 3323.0378 471.4548 0.706 -0.682 0.189 192 111 56
-2272.0952 3273.7410 457.4677 0.179 -0.672 0.719 193 110 56
-2259.1353 3281.6975 443.8484 0.293 -0.717 0.633 181 125 84
-2251.5835 3280.1299 438.5709 0.293 -0.717 0.633 175 129 94
-2244.0486 3278.5657 433.3055 0.293 -0.717 0.633 93 58 33
-2238.0247 3278.9707 428.3864 0.179 -0.742 0.646 33 10 0
-2227.2722 3273.1272 422.4200 0.294 -0.615 0.731 26 13 6
-2209.7878 3378.2361 363.6011 0.622 -0.730 -0.283 9 10 14
-2219.5347 3445.6931 342.3704 0.061 -0.994 0.092 41 44 51
-2209.6299 3440.9148 336.6154 0.060 -0.989 0.136 47 50 59
-2205.2974 3443.9570 331.8984 0.062 -0.994 0.091 52 55 64
-2189.4490 3430.7146 325.0886 0.052 -0.983 0.176 54 57 66
-2189.3586 3439.7422 321.1487 0.164 -0.955 -0.246 49 52 61
-2187.2490 3445.9382 316.8312 0.085 -0.964 -0.252 42 44 52
-1827.9866 4855.6621 -570.3349 0.703 -0.666 0.252 252 209 218
-1811.8577 4854.5742 -582.5746 0.654 -0.733 0.186 252 209 218
-1657.3348 4635.3525 -610.3555 0.509 -0.758 0.409 252 204 211
-1560.8073 4553.0181 -651.1129 0.794 -0.497 -0.350 84 49 49
-1474.4786 4633.0674 -753.4264 0.699 -0.709 -0.092 251 201 210
-1100.6420 4671.5557 -1064.4215 -0.178 -0.930 -0.323 248 175 186
-1119.1736 4828.6343 -1117.1398 0.041 -0.973 -0.229 250 173 183
-600.6314 3532.5405 -970.1865 0.324 -0.434 0.840 255 100 125
-251.7211 2952.2043 -996.3437 0.649 -0.217 -0.730 247 91 113
-271.5326 3204.5254 -1088.8705 0.649 -0.217 -0.730 250 87 111
-288.3437 3480.2285 -1193.7815 0.873 -0.253 0.418 236 62 90
-283.2655 3472.9578 -1194.6660 0.635 -0.760 -0.135 232 48 77
-266.6077 3382.0530 -1168.8308 0.021 -0.987 -0.162 248 33 64
-259.5723 3400.3120 -1182.1982 -0.093 -0.931 -0.353 238 21 52
-255.5647 3403.8511 -1186.8721 -0.096 -0.928 -0.359 229 14 45
-2250.1055 2333.8779 835.9030 0.872 -0.397 0.286 83 79 76
-2969.4419 2997.4209 1115.9023 0.700 -0.633 -0.330 21 18 13
-2880.5300 3023.3171 1034.7773 0.011 -0.965 0.262 24 22 22
-2898.2573 3052.7673 1036.0315 0.113 -0.994 -0.009 27 20 15
-2892.1467 3053.5125 1030.9022 0.113 -0.994 -0.009 29 19 8
-2885.3020 3053.5605 1025.4956 0.500 -0.860 0.107 48 36 24
