ply
format ascii 1.0
element vertex 798
property float x
property float y
property float z
property float nx
property float ny
property float nz
property uchar diffuse_red
property uchar diffuse_green
property uchar diffuse_blue
end_header
-3318.2766 2741.3506 593.4354 0.609 -0.769 -0.195 65 27 3
-3331.6343 2761.7170 591.9993 0.845 -0.524 -0.110 66 28 5
-3301.2144 2750.9685 578.4866 0.777 -0.621 -0.099 74 38 14
-3297.6760 2756.1272 573.8963 0.777 -0.621 -0.099 75 37 12
-3301.9336 2768.4028 570.7142 0.614 -0.789 -0.010 74 37 12
-3286.7815 2762.9871 564.0128 0.620 -0.785 0.006 80 43 17
-2699.1292 2911.4468 135.2536 0.734 0.097 -0.672 101 74 62
-2732.9570 3281.3723 -18.3266 0.114 -0.905 -0.411 117 79 76
-2681.0896 3235.3884 -28.3394 0.325 -0.712 -0.622 115 78 72
-2791.1467 3402.9744 -40.0697 -0.019 -0.593 0.805 115 78 72
-1473.4277 2955.6689 -634.0165 0.718 -0.631 0.293 52 21 5
-1452.0115 2999.6843 -667.8252 0.673 -0.647 0.359 50 16 4
-1444.1962 3008.5234 -676.7606 0.657 -0.651 0.381 47 18 6
-1314.1769 3129.8892 -813.3171 -0.096 -0.751 0.653 29 22 16
-1313.5911 3143.8860 -820.2674 -0.042 -0.737 0.675 27 15 10
-1228.7808 3094.5029 -848.7949 -0.139 -0.737 0.661 91 46 31
-1202.0034 3048.1838 -843.3293 0.300 -0.953 -0.041 106 52 28
-1230.8171 3375.5161 -979.9097 0.665 -0.120 -0.737 59 38 23
-1032.1774 3902.0002 -1349.1798 0.173 -0.382 -0.908 210 104 90
-3010.0845 1985.6875 752.9595 0.870 0.091 0.485 82 59 41
-3759.1279 2696.6438 873.0038 0.865 -0.386 -0.321 94 66 44
-3748.4270 2696.2920 866.6495 0.856 -0.514 0.055 93 65 43
-3740.4756 2698.0684 860.9636 0.866 -0.496 0.060 93 65 41
-3661.4646 2789.4614 769.5732 0.990 -0.136 -0.039 83 56 35
-2761.4028 2078.2195 557.6388 0.773 -0.516 -0.370 77 54 36
-2736.9578 2064.0244 549.4594 0.877 -0.480 0.038 77 54 36
-3346.6152 2752.2810 595.3072 0.825 -0.493 -0.277 54 24 6
-3340.6567 2755.2917 590.2517 0.824 -0.476 -0.309 55 24 6
-3166.4666 2797.0608 464.3425 0.715 -0.697 -0.046 93 40 9
-2747.5059 3204.9839 16.0285 -0.303 -0.813 -0.498 113 79 77
-2756.5127 3227.1702 11.0192 -0.297 -0.848 -0.439 114 78 76
-2740.6387 3272.0542 -19.8912 0.100 -0.928 -0.358 131 93 90
-2730.7380 3270.1748 -25.0350 -0.005 -0.684 -0.729 131 93 90
-2722.8457 3270.8865 -30.1811 0.069 -0.685 -0.725 131 93 90
-2723.1677 3282.3530 -35.4104 0.669 -0.633 -0.391 138 101 95
-2625.6643 3571.8215 -231.7913 -0.211 -0.638 -0.740 203 152 151
-1490.5295 2932.1021 -620.8128 0.568 -0.760 0.316 60 24 5
-1486.5161 2936.0396 -625.1215 0.582 -0.748 0.317 62 25 6
-1456.4557 2959.3633 -654.4753 0.275 -0.728 -0.629 72 26 9
-1446.2262 3002.7544 -681.2397 0.664 -0.647 0.375 65 24 6
-1411.9332 3031.1135 -715.5552 0.537 -0.786 0.307 38 8 1
-1345.2504 3109.4436 -793.2523 0.982 0.162 0.101 8 5 1
-1322.1803 3155.2192 -828.9696 0.168 -0.562 0.810 47 35 30
-1324.3367 3208.7722 -852.9949 -0.036 -0.647 0.762 34 15 9
-1046.1870 2488.0215 -681.4581 0.300 -0.934 -0.195 43 24 18
-1231.7982 3090.7983 -853.5639 -0.139 -0.737 0.661 76 37 20
-1205.8860 3047.1904 -848.7203 0.300 -0.953 -0.041 99 52 25
-1049.2224 3797.3967 -1299.1548 0.987 0.013 -0.158 223 116 106
-1047.8927 3949.8188 -1372.0853 0.185 -0.379 -0.907 210 104 90
-3037.0676 2049.4631 730.8497 0.388 -0.190 0.902 115 84 63
-3713.8857 2679.4153 843.0007 0.885 -0.421 0.199 102 71 50
-3689.8872 2692.3735 822.2477 0.851 0.068 -0.521 98 70 48
-3686.4465 2721.7693 806.1832 0.933 -0.170 -0.318 96 68 46
-2742.0220 2088.9045 532.6824 0.250 -0.776 0.580 77 51 34
-3371.1372 2784.8342 584.4645 0.872 -0.459 -0.173 51 26 12
-3303.9014 2766.1919 552.4389 0.570 -0.822 0.020 67 31 9
-3341.4478 2826.0322 546.8279 0.253 -0.227 0.940 70 31 6
-3165.7141 2798.5742 453.0139 0.715 -0.697 -0.046 100 44 15
-3161.5344 2803.1707 448.2874 0.715 -0.697 -0.046 107 51 23
-2679.5835 3100.5637 13.8519 0.432 -0.902 0.018 126 80 77
-2783.5332 3242.6011 9.5515 0.204 -0.689 -0.695 126 79 77
-2744.3298 3290.6189 -37.1122 0.063 -0.700 -0.711 137 99 96
-2569.4167 3394.8411 -193.0172 -0.198 -0.874 -0.444 183 127 132
-2690.8062 3658.3096 -244.4308 -0.477 -0.844 0.245 203 152 151
-2221.8032 3539.8711 -473.3398 0.899 -0.197 -0.391 225 178 170
-2221.6738 3553.1982 -479.7532 0.899 -0.197 -0.391 225 178 170
-2212.4790 3550.6492 -484.1330 0.854 -0.388 -0.347 225 178 170
-1895.2384 3356.5913 -584.8105 -0.120 -0.894 0.431 28 7 1
-1830.7769 3310.3721 -602.0413 0.172 -0.895 0.411 43 5 0
-1821.9780 3306.2947 -605.4539 0.189 -0.890 0.415 44 7 0
-1814.4725 3304.7825 -609.2993 0.195 -0.890 0.413 47 8 0
-1531.9246 2837.5396 -559.0298 0.425 -0.895 -0.136 75 34 17
-1534.2826 2854.6233 -565.7161 0.285 -0.958 -0.037 76 36 15
-1413.6487 3024.4370 -719.7903 0.690 -0.609 0.391 84 32 17
-1330.3539 3181.0662 -844.8916 0.002 -0.511 0.860 58 39 34
-1079.9249 2586.3054 -714.4786 0.321 -0.699 -0.639 34 18 11
-1209.7704 3046.1970 -854.1136 0.300 -0.953 -0.041 90 50 23
-3008.8225 1958.5476 748.7451 0.746 0.001 0.666 64 51 40
-3010.8792 2031.5206 715.1502 0.389 -0.200 0.899 96 70 50
-3678.2039 2653.6138 823.0836 0.961 -0.170 -0.219 107 76 56
-2731.8125 2075.6145 524.7439 0.458 -0.734 0.502 83 58 38
-2725.5247 2076.6060 520.4548 0.458 -0.734 0.502 80 55 35
-2743.3984 2104.5215 517.9725 0.537 -0.745 0.396 77 52 30
-3021.3318 2814.6531 347.5663 -0.100 -0.888 0.449 153 87 73
-3009.6787 2811.5820 341.9610 -0.166 -0.876 0.453 134 79 59
-3060.0300 2898.8755 330.8363 0.360 -0.520 -0.774 42 48 38
-2826.1990 3299.3748 -2.2937 0.241 -0.870 -0.430 136 86 80
-2755.7820 3286.1392 -38.7066 -0.156 -0.842 -0.516 144 106 103
-2746.0244 3284.5027 -43.8467 0.042 -0.760 -0.649 144 107 101
-2573.6418 3155.0078 -86.6269 0.268 -0.784 0.560 162 112 115
-2592.4082 3371.5818 -178.6474 0.663 -0.417 0.621 178 119 125
-1919.9438 3380.7832 -591.1278 -0.029 -0.896 0.442 47 14 9
-1531.0291 2887.3640 -591.5462 0.772 -0.624 -0.119 124 58 42
-1304.8854 3193.8843 -875.1382 -0.044 -0.623 0.781 27 11 4
-1289.2305 3198.2922 -886.7431 -0.024 -0.645 0.764 35 18 8
-1259.2977 3129.0493 -871.8461 -0.084 -0.781 0.619 40 16 4
-1223.5690 3042.4377 -852.1731 0.425 -0.671 0.608 45 18 3
-1213.6562 3045.2029 -859.5091 0.300 -0.953 -0.041 81 48 23
-1191.3551 3075.4404 -887.4803 0.080 -0.993 -0.086 133 77 48
-1187.2858 3079.5059 -891.8909 0.107 -0.993 -0.046 116 60 29
-3003.5933 2064.4087 686.6633 0.598 -0.179 0.781 97 76 60
-3002.7236 2069.9294 683.4888 0.489 -0.232 0.841 97 77 60
-2668.7793 2042.5537 494.3834 0.364 -0.852 0.377 86 59 37
-3063.0256 2895.2258 324.1685 0.381 -0.516 -0.767 43 42 31
-2817.8799 3258.8862 1.2857 0.145 -0.975 -0.167 145 89 84
-2825.2351 3278.9983 -3.9065 0.147 -0.979 0.138 143 89 83
-2841.5745 3310.5801 -9.1590 0.302 -0.864 -0.403 142 90 83
-2733.7856 3293.3975 -66.1943 0.400 -0.836 -0.376 157 118 110
-2731.0342 3300.9038 -71.4608 0.449 -0.633 -0.630 153 114 106
-2624.8767 3172.0601 -73.9519 0.410 -0.644 -0.646 154 113 106
-2614.4795 3169.0598 -78.8093 0.258 -0.670 -0.697 159 117 112
-2583.8340 3160.5408 -93.2823 0.297 -0.877 0.378 171 120 121
-2178.5947 3524.3438 -513.1855 0.802 -0.359 -0.478 215 171 163
-1976.6967 3411.4185 -581.2918 0.650 -0.750 0.123 62 32 24
-1963.0363 3440.1987 -603.3685 0.566 -0.818 0.098 73 28 15
-1189.7771 3074.2910 -896.1507 0.077 -0.997 -0.012 121 68 37
-1187.2142 3082.8813 -901.8230 0.040 -0.999 -0.008 107 54 25
-1183.9666 3089.4607 -906.9454 0.038 -0.999 0.003 106 52 26
-1184.4608 3107.4585 -915.2784 0.259 -0.581 -0.772 127 70 49
-1187.4968 3133.3821 -925.8737 0.625 -0.484 -0.613 143 84 66
-3702.5864 2708.8801 790.2352 0.919 -0.197 -0.341 113 71 55
-3156.0925 2387.3218 614.8893 0.868 -0.422 0.260 93 65 43
-3046.8008 2818.6108 341.0497 0.388 -0.729 -0.563 106 43 25
-3042.3459 2822.8972 336.2922 0.385 -0.737 -0.555 108 43 25
-3059.2686 2902.7505 308.0469 0.748 -0.605 -0.274 23 44 29
-2756.8479 2716.3679 215.0787 -0.239 -0.970 -0.032 9 48 49
-2820.8074 3211.6533 15.1093 0.683 -0.535 0.497 140 88 83
-2814.6863 3214.6804 9.9517 0.683 -0.535 0.497 141 89 85
-2846.8643 3265.4160 4.9542 0.982 -0.180 0.050 140 88 85
-2575.4487 2976.4619 -19.8587 -0.221 -0.968 -0.118 150 102 96
-2588.1833 3147.5437 -94.5878 0.026 -0.910 0.413 175 128 119
-2586.2446 3155.6655 -99.6724 0.280 -0.886 0.369 172 126 116
-2727.7014 3631.9446 -243.6499 0.382 -0.767 -0.516 202 152 146
-2125.1951 3406.3259 -499.0690 0.718 -0.522 -0.460 212 171 166
-2226.8472 3627.2368 -544.0687 0.648 -0.715 -0.261 204 162 157
-2183.2163 3563.1394 -539.5552 -0.381 -0.921 0.083 157 117 112
-1571.9742 2707.0854 -496.5174 0.456 -0.314 -0.832 152 69 36
-1423.3710 2920.9128 -689.3441 0.999 0.035 -0.019 168 77 40
-1298.2424 3103.5225 -852.9435 -0.197 -0.478 0.856 35 19 12
-1192.2699 2928.9602 -832.8851 0.921 -0.198 -0.336 26 12 6
-1194.5552 3075.9253 -902.3100 0.074 -0.997 0.028 122 76 51
-1198.0142 3102.5623 -913.0530 0.168 -0.675 -0.719 108 62 39
-1235.8093 3356.3364 -1012.4772 0.881 -0.370 -0.295 87 57 32
-1185.7467 3381.5273 -1054.8688 -0.178 -0.575 -0.798 61 47 41
-1068.8722 3850.6855 -1351.5358 0.955 0.092 0.282 222 115 105
-1042.1598 3814.8032 -1350.3915 0.968 -0.089 0.236 220 95 74
-1057.9597 3908.7554 -1386.1080 0.995 -0.027 -0.098 223 95 72
-3073.4363 2812.5642 350.0019 0.338 -0.868 -0.363 107 48 30
-3073.6287 2821.5022 345.7924 0.477 -0.618 -0.625 106 46 28
-3071.2632 2827.9089 341.2652 0.477 -0.618 -0.625 104 44 26
-3034.2571 2843.4595 311.4218 0.749 -0.640 -0.172 82 39 24
-3038.2163 2856.4082 307.5432 0.757 -0.632 -0.169 61 38 22
-3031.0691 2858.0076 302.4587 0.749 -0.620 -0.233 39 37 22
-3020.5527 2856.1265 297.0267 0.728 -0.642 -0.242 27 43 26
-2908.4534 2837.1868 238.5871 0.356 -0.914 -0.196 9 37 38
-2907.3977 2854.0552 229.7870 -0.288 -0.874 0.391 10 37 38
-2889.3372 2843.6992 223.9066 -0.329 -0.840 0.431 9 39 38
-2766.6936 2720.5520 209.5384 -0.228 -0.973 -0.039 9 40 39
-2862.8584 3255.6345 8.5843 0.956 -0.289 -0.054 144 93 89
-2865.9321 3291.8787 -7.1020 0.163 -0.914 -0.371 149 98 97
-2583.3440 2978.9727 -26.0982 -0.151 -0.938 -0.312 156 106 99
-2518.8059 2936.5312 -44.4810 0.368 -0.911 0.185 168 118 111
-2593.1567 3146.0996 -101.0603 0.078 -0.840 0.537 175 128 118
-2624.6785 3402.3015 -206.0373 0.633 -0.418 0.652 125 74 70
-2790.8667 3687.5393 -243.8505 0.113 -0.696 -0.709 206 157 152
-2182.1985 3496.6228 -518.5368 0.792 -0.429 -0.435 223 182 178
-2184.9348 3569.4622 -552.1367 -0.403 -0.889 0.215 44 5 1
-2156.9834 3533.0217 -551.3587 -0.333 -0.923 0.192 52 14 9
-1568.1770 2713.3306 -509.7755 0.816 0.014 0.578 168 63 24
-1505.8630 2817.6580 -597.8447 0.772 0.110 0.626 110 45 27
-1384.6132 2938.6816 -729.5374 0.304 -0.450 0.839 166 81 24
-1377.7512 2935.5796 -732.1746 0.443 -0.201 0.874 170 81 31
-1294.2616 3005.5706 -816.3978 -0.065 -0.863 -0.501 37 23 21
-1220.1998 2907.1001 -813.4092 0.972 -0.119 0.202 33 14 8
-1226.7799 3000.0547 -854.4256 -0.412 -0.900 -0.141 31 15 6
-1192.4380 3089.4365 -918.3924 0.261 -0.951 -0.165 111 64 40
-1216.2720 3447.5474 -1077.3239 0.126 -0.565 -0.816 73 60 52
-1172.2366 3359.9861 -1061.5063 -0.009 -0.438 -0.899 43 30 22
-1180.4575 3406.4404 -1079.0297 -0.031 -0.445 -0.895 35 22 14
-1062.4241 3753.7117 -1318.2737 0.988 -0.012 -0.154 195 99 104
-2926.3701 2071.6646 611.5873 0.626 -0.146 0.766 119 91 76
-2931.7004 2082.0923 609.7264 0.921 0.035 0.387 118 87 71
-3419.7756 2780.2898 564.0726 0.258 -0.561 0.786 78 51 30
-3101.6726 2790.6575 367.5887 0.293 -0.942 -0.164 85 39 21
-3069.5510 2802.2336 342.6299 0.146 -0.956 -0.254 98 43 26
-3061.7231 2803.1323 337.4818 0.155 -0.955 -0.254 99 44 27
-3059.1396 2818.0090 328.6956 0.765 -0.598 -0.240 101 46 26
-3058.0930 2825.7314 324.3117 0.778 -0.586 -0.227 101 45 25
-3056.9741 2851.1140 311.2999 0.193 -0.936 -0.294 90 36 19
-3050.9814 2853.9126 306.3330 0.193 -0.936 -0.294 81 39 23
-3028.2080 2911.5886 264.5910 -0.147 -0.988 -0.044 15 39 41
-3016.2432 2908.1899 259.0424 -0.152 -0.987 -0.046 14 38 40
-2940.8115 2873.9570 230.2858 0.686 -0.520 -0.509 17 35 33
-2744.8484 2716.4219 188.9266 0.178 -0.981 -0.072 23 30 22
-2580.6572 3111.0024 -101.6937 -0.181 -0.835 0.519 176 128 118
-2611.3887 3363.0437 -205.7151 0.738 -0.464 0.490 125 78 72
-2621.2358 3388.5598 -212.1922 0.693 -0.307 0.652 115 66 61
-2763.1514 3613.1870 -235.9738 -0.431 -0.900 -0.066 190 142 136
-2193.3228 3204.0688 -380.0428 0.360 -0.849 0.387 219 169 158
-2189.7317 3540.1270 -545.5612 0.707 -0.677 -0.206 73 32 28
-1993.0300 3384.1335 -588.1143 0.876 -0.409 0.257 58 26 15
-1492.2855 2803.5200 -607.2428 0.708 0.094 0.700 97 28 10
-1368.0446 2888.1335 -723.1453 0.932 0.081 0.352 161 76 22
-1208.1417 2877.0242 -813.9796 0.986 -0.090 0.139 31 14 9
-1192.2787 3430.6482 -1092.6420 -0.070 -0.506 -0.859 40 27 19
-1176.0392 3415.2227 -1094.9171 0.571 -0.347 -0.744 33 20 12
-1082.5459 3648.3230 -1264.4939 -0.047 -0.998 0.031 202 184 177
-1057.9891 3716.1824 -1312.2592 0.997 -0.035 0.062 154 73 77
-1044.4656 3784.2683 -1353.4945 0.924 -0.202 0.326 213 98 80
-3141.2083 2483.2832 531.3679 0.712 -0.570 -0.409 80 54 31
-2989.4343 2373.3918 493.8708 0.047 -0.445 0.894 77 51 28
-3425.5066 2779.1670 557.6450 0.347 -0.522 0.779 83 56 35
-3139.2598 2803.6831 373.7618 0.126 -0.934 -0.334 67 29 6
-3122.2153 2795.7229 367.4119 0.180 -0.959 -0.218 68 31 10
-3088.4963 2814.6011 337.9438 0.618 -0.618 -0.487 86 39 17
-3046.5486 2833.9597 303.2991 0.842 -0.331 0.425 87 37 19
-3052.8928 2849.2539 299.6418 0.211 -0.913 -0.349 80 41 24
-3050.7107 2855.9277 295.0728 0.213 -0.912 -0.352 63 40 24
-3059.3333 2882.6560 287.2011 0.603 -0.489 -0.630 35 39 26
-3041.4695 2873.3008 281.0403 0.639 -0.454 -0.621 28 38 28
-2749.4902 2723.6650 178.7444 0.283 -0.956 0.080 46 32 26
-2824.3601 3089.3352 45.1702 0.583 -0.141 -0.800 157 64 42
-2610.7681 2988.5908 -33.9194 -0.152 -0.932 -0.328 161 110 107
-1709.1617 1943.9978 -65.3779 0.199 -0.331 -0.922 176 128 118
-2842.3638 3728.5522 -256.1163 -0.506 -0.700 -0.504 193 146 140
-2286.5735 3686.8765 -569.5624 0.290 -0.874 -0.390 95 54 50
-1492.4144 2782.6055 -605.0033 0.749 0.079 0.658 113 40 12
-1363.3999 2933.8367 -756.3253 0.830 0.071 -0.552 132 68 45
-1499.9117 3285.4460 -846.0136 -0.005 -0.315 -0.949 93 44 24
-1203.0784 2985.1677 -877.6731 0.796 -0.580 -0.174 80 40 20
-1200.2789 3256.9431 -1012.0494 0.977 0.103 0.185 47 37 28
-1021.1406 3285.6479 -1133.6508 0.639 -0.176 0.748 170 150 151
-1080.0397 3643.4395 -1272.9698 -0.051 -0.998 -0.031 242 225 217
-1076.1394 3651.3086 -1279.1544 -0.001 -0.998 0.063 195 170 163
-1050.2155 3788.5579 -1361.7360 0.859 -0.200 0.472 208 98 86
-2754.2488 1419.2394 811.8418 0.845 -0.530 0.075 56 50 38
-2753.8726 1423.3051 809.6224 0.989 -0.121 -0.083 58 48 35
-2922.3328 1986.6848 634.2997 0.764 -0.172 0.622 61 49 33
-2915.6853 1987.6011 629.8664 0.734 -0.198 0.650 60 48 32
-3133.4839 2434.0857 541.4391 0.711 -0.626 -0.319 98 68 44
-3221.6956 2764.8291 432.1078 0.217 -0.952 0.215 62 35 18
-3133.1763 2808.6565 357.5631 0.150 -0.963 -0.222 59 25 3
-3121.6541 2806.0613 351.9302 0.145 -0.960 -0.241 60 26 3
-3115.1042 2808.3132 346.9005 0.145 -0.960 -0.241 65 28 3
-3109.7952 2811.7805 342.0182 0.205 -0.914 -0.349 73 35 10
-3104.1536 2814.9214 337.0969 0.205 -0.914 -0.349 72 34 9
-3104.5806 2824.0715 332.8653 0.834 -0.371 -0.407 74 34 9
-3054.1421 2826.2832 301.5518 0.619 -0.780 -0.090 85 39 15
-3053.0869 2834.0256 297.1226 0.612 -0.780 -0.132 82 39 19
-3055.0496 2844.8555 292.9878 -0.002 -0.989 -0.151 76 42 23
-2899.7231 2764.1697 239.4661 0.166 -0.623 0.765 16 27 21
-2906.8611 2789.0908 231.5226 0.988 -0.094 0.126 13 24 18
-2735.7839 2719.6274 163.0576 0.282 -0.951 0.131 74 37 27
-2719.4763 2710.4810 157.7695 0.132 -0.991 -0.001 81 42 27
-2878.3550 3239.9224 -6.6521 -0.263 -0.964 0.041 157 105 102
-2571.2251 3323.8000 -231.8559 0.599 -0.456 0.659 200 149 145
-2869.6733 3757.4375 -265.6476 -0.513 -0.701 -0.496 199 150 145
-2004.8524 3108.9504 -465.9319 0.232 -0.965 -0.121 229 181 169
-2296.5518 3693.6533 -577.8519 0.288 -0.868 -0.405 50 9 5
-2052.3425 3367.0518 -564.0445 -0.159 -0.930 0.332 65 36 28
-1466.2844 2718.1743 -597.0687 0.585 -0.368 0.723 157 77 39
-1435.0199 2721.4309 -617.4032 0.804 -0.342 0.486 169 82 44
-1370.9667 2835.4497 -711.7072 0.796 -0.009 0.606 161 68 28
-1490.9667 3236.5239 -836.4777 -0.331 -0.583 -0.742 93 42 21
-1536.7787 3364.5703 -871.8163 -0.008 -0.319 -0.948 63 29 8
-1543.5983 3397.1299 -883.6966 0.003 -0.309 -0.951 51 33 14
-1199.1937 2774.4729 -784.7512 -0.608 -0.745 0.275 44 25 15
-1218.1383 3525.1348 -1141.5261 0.201 -0.854 -0.479 36 23 15
-1210.9547 3521.0913 -1143.8485 0.187 -0.874 -0.449 36 23 15
-1022.1747 3273.5825 -1135.6088 0.639 -0.176 0.748 77 57 56
-1076.2946 3656.9119 -1291.1605 0.018 -0.998 0.060 173 141 136
-1065.6553 3807.9966 -1371.6298 0.990 -0.065 0.128 197 97 97
-1045.5076 3904.1008 -1430.8347 0.984 0.156 -0.087 185 40 39
-3379.4932 2598.4971 598.2789 0.554 -0.651 0.519 104 74 51
-3362.2156 2811.5630 482.9983 -0.083 -0.957 -0.279 76 50 33
-3347.3748 2806.5928 476.5705 -0.071 -0.939 -0.336 76 51 31
-3298.6062 2795.9873 452.6273 0.236 -0.910 0.342 74 47 30
-3269.7507 2794.8416 435.9343 0.078 -0.996 0.031 68 41 24
-3231.1921 2767.4460 426.3675 0.200 -0.953 0.229 68 41 24
-3149.3994 2809.3704 356.7997 0.220 -0.975 -0.025 55 28 3
-3127.0981 2813.6394 341.3594 0.243 -0.926 -0.288 60 28 2
-3118.6289 2814.0232 336.1051 0.777 -0.416 -0.472 63 31 3
-3115.9148 2820.0613 331.5078 0.838 -0.365 -0.406 63 31 3
-3111.5286 2824.4634 326.7163 0.829 -0.358 -0.429 64 30 3
-3080.2305 2837.1824 301.7330 0.773 -0.604 -0.194 71 36 8
-3070.4834 2845.0381 292.0342 -0.002 -0.989 -0.151 72 35 13
-3062.4807 2845.8054 286.8701 -0.002 -0.989 -0.151 67 37 18
-2898.3953 2756.3396 232.8030 0.166 -0.623 0.765 18 24 14
-2894.8892 2761.3569 228.2348 0.912 -0.265 0.313 12 18 8
-2903.2651 2778.8118 224.6467 0.988 -0.093 0.121 13 19 9
-2902.0205 2786.2615 220.2329 0.988 -0.093 0.121 15 17 8
-2806.6704 3004.1072 55.9053 0.254 -0.143 -0.957 155 87 58
-2855.6648 3225.4106 -23.7978 -0.183 -0.982 0.055 158 107 104
-2449.0649 3546.4500 -425.1028 -0.151 -0.713 -0.684 217 170 160
-2540.0542 3987.2891 -587.8243 0.069 -0.710 0.701 224 176 164
-2332.8743 3804.3245 -621.6110 0.826 -0.259 0.501 61 23 18
-1974.5969 3229.2754 -552.6398 -0.514 -0.821 0.248 59 32 23
-1474.4084 2570.5571 -527.3287 0.734 -0.658 0.169 150 57 18
-1467.9204 2568.2546 -530.0750 0.708 -0.679 0.197 156 63 25
-1437.5436 2717.8188 -621.9116 0.931 -0.068 0.360 174 81 35
-2993.2883 1808.5487 748.6147 0.766 -0.641 0.047 66 54 42
-2885.7278 2083.5967 548.3518 0.397 -0.178 0.901 125 100 82
-2881.8481 2086.7593 544.4717 0.395 -0.181 0.901 125 100 82
-3114.9709 2429.5093 514.0405 0.151 -0.988 -0.024 97 69 47
-3216.6282 2593.5625 493.5519 0.469 -0.288 0.835 87 59 38
-3384.9387 2758.3054 512.5017 0.893 -0.367 0.258 87 59 38
-3387.7393 2769.1343 508.8160 0.893 -0.362 0.269 86 58 37
-3578.2842 2973.9590 521.2068 0.999 -0.035 -0.034 82 55 36
-3579.5906 2993.1543 512.4904 0.985 -0.131 -0.111 77 50 31
-3397.3574 2837.1177 480.9241 0.090 -0.967 -0.238 77 50 31
-3343.2498 2813.5981 460.2674 0.036 -0.972 -0.232 80 52 33
-3333.5552 2813.2729 454.6424 0.207 -0.934 -0.293 80 51 33
-3318.4785 2807.9795 448.2632 0.254 -0.938 0.238 79 50 32
-3115.1956 2830.3506 315.8736 0.844 -0.337 -0.418 57 26 1
-3107.0901 2857.5342 297.5883 0.738 -0.507 -0.446 62 31 4
-2906.8308 2750.0220 231.2581 0.061 -0.532 0.845 28 29 14
-2518.9150 3244.3027 -244.7816 0.786 -0.311 0.534 198 151 145
-1514.8358 2578.4258 -514.6134 -0.069 -0.924 0.377 132 53 6
-1442.4437 2696.0129 -615.9896 0.629 -0.418 0.656 179 87 45
-1441.3888 2717.0679 -627.0353 0.429 -0.318 -0.845 178 82 33
-1256.0065 2862.8081 -809.7736 0.948 0.266 0.173 27 8 6
-1182.2876 3028.5046 -935.7419 0.671 -0.628 -0.394 130 73 53
-969.1204 3159.9890 -1128.0099 -0.417 -0.905 -0.089 143 100 101
-1081.2361 3858.1575 -1406.4896 0.978 0.018 0.209 178 87 86
-3063.2339 1781.6332 795.8633 0.037 -0.995 -0.094 63 53 41
-3056.1626 1782.3253 791.3080 0.037 -0.995 -0.094 62 52 40
-3067.1772 1794.8339 791.6529 -0.062 -0.966 -0.250 60 50 38
-3065.7290 1799.2257 788.6082 -0.064 -0.979 -0.192 60 50 38
-3157.2883 2804.2119 343.7967 0.760 -0.461 0.458 55 30 7
-3126.6504 2817.7031 318.8466 0.743 -0.652 -0.152 51 25 2
-3123.0586 2822.8867 314.1319 0.743 -0.652 -0.152 52 25 2
-3120.8682 2829.4648 309.5591 0.742 -0.653 -0.151 53 25 3
-2919.6428 2748.2200 230.0846 0.067 -0.535 0.842 39 29 13
-3042.2480 2947.3113 204.1823 -0.477 -0.850 -0.225 63 27 15
-2982.7859 2912.0359 186.2962 -0.026 -0.995 -0.096 74 37 24
-2843.7114 3062.2249 28.8454 0.857 -0.165 -0.487 171 88 67
-2878.7847 3237.7793 -37.4929 0.787 -0.607 -0.108 162 107 105
-2586.4033 3330.5476 -257.7168 0.818 -0.238 0.524 197 151 145
-2129.5769 3209.1492 -469.4662 0.115 -0.962 0.249 224 172 159
-2119.4890 3204.3425 -473.0860 0.078 -0.965 0.251 224 172 159
-2121.3350 3408.0322 -573.1924 -0.584 -0.805 0.108 69 32 26
-1626.6620 2720.1680 -526.0258 0.412 -0.384 0.826 137 54 30
-1447.4139 2697.6973 -621.6140 0.807 -0.531 -0.259 176 84 41
-1441.1327 2695.8708 -624.4473 0.809 -0.495 -0.317 185 88 45
-1445.9226 2741.3640 -644.1985 0.503 -0.660 -0.558 168 68 24
-1558.4998 3335.4048 -872.3090 -0.341 -0.597 -0.726 85 50 26
-1314.9384 2839.5793 -771.0072 0.603 -0.305 0.737 28 22 14
-1186.1987 3027.7229 -941.1611 0.671 -0.628 -0.394 120 60 40
-1079.3420 3201.1741 -1090.9823 0.653 -0.481 0.585 32 24 19
-989.8567 3184.1169 -1135.8011 -0.097 -0.993 0.063 100 64 63
-981.3484 3191.4863 -1144.5299 -0.181 -0.980 -0.081 142 96 98
-1073.8553 3807.7385 -1395.6295 0.974 0.163 0.160 187 104 102
-3008.9561 1696.5117 798.2729 -0.143 -0.959 0.245 64 56 43
-3149.1453 1806.5750 826.6653 0.419 -0.878 0.232 62 52 40
-3144.3975 1808.8947 822.6861 0.538 -0.815 0.214 62 52 40
-3070.7310 1787.9814 789.3416 0.069 -0.914 -0.399 57 47 35
-3069.3193 1797.7140 783.6459 -0.058 -0.976 -0.209 56 46 36
-3064.3521 1799.8035 779.6512 0.576 -0.654 -0.490 56 46 36
-2972.6672 1781.5811 734.2554 0.641 -0.556 0.529 47 37 25
-2968.8262 1784.3098 730.6110 0.710 -0.579 0.400 51 41 29
-2857.3118 2120.9238 496.3619 0.295 -0.230 0.928 130 102 92
-3247.7983 2524.2898 527.1456 -0.166 -0.970 0.180 105 72 58
-3339.8528 2610.2964 538.9357 -0.235 -0.950 0.203 104 73 57
-3146.1079 2812.9094 322.6846 0.803 -0.590 -0.086 59 32 11
-2908.4575 2738.9155 218.3713 0.046 -0.552 0.832 55 31 10
-2883.6670 2739.0439 203.5740 0.822 -0.381 0.422 56 32 11
-3048.1951 2946.6824 197.7397 -0.478 -0.857 -0.191 75 29 14
-3006.9583 2912.4685 190.3055 -0.038 -0.982 -0.184 76 28 13
-3033.7080 2949.9370 187.5059 -0.011 -0.974 -0.226 79 31 16
-2660.9075 3200.2998 -158.9870 -0.542 -0.786 -0.297 182 134 121
-2646.3523 3191.9639 -163.4776 -0.542 -0.786 -0.297 184 136 122
-2221.6055 3303.1606 -471.3965 0.881 -0.472 -0.030 225 168 150
-2176.3054 3277.4902 -485.5089 0.137 -0.833 -0.536 224 169 153
-1533.1827 2608.3652 -533.8183 0.120 -0.549 0.827 124 49 15
-1447.6823 2577.7749 -569.3669 0.457 -0.889 -0.028 143 66 30
-1446.1353 2596.3567 -579.5588 0.366 -0.929 -0.051 144 61 26
-1437.1744 2588.8274 -581.1271 0.240 -0.879 0.412 142 57 20
-1458.8179 2748.2056 -647.7963 0.353 -0.737 -0.577 168 74 33
-1587.0638 3392.2166 -892.9496 -0.200 -0.555 -0.807 62 39 16
-1572.7242 3373.1555 -891.9601 -0.225 -0.561 -0.796 56 44 18
-1316.4940 2819.9258 -768.1699 -0.251 -0.918 0.308 31 21 14
-1198.0261 2797.4104 -827.3406 0.971 0.030 0.238 156 93 63
-1198.2665 3066.9951 -961.7245 0.281 -0.941 -0.188 150 89 65
-1120.7454 3291.3757 -1119.7650 0.724 -0.313 0.615 34 26 21
-1090.0303 3204.8811 -1094.8573 0.568 -0.469 0.676 26 18 12
-1096.8228 3466.1377 -1221.1914 0.941 -0.151 -0.302 33 16 8
-990.5256 3171.1096 -1137.1411 0.563 -0.343 -0.752 139 107 106
-985.3329 3171.1362 -1140.2405 -0.241 -0.964 -0.110 96 55 56
-982.0631 3178.5076 -1145.8622 -0.247 -0.960 -0.134 84 42 46
-2750.3469 1410.1605 780.8566 0.893 -0.166 0.418 51 42 33
-3066.2788 1708.6378 818.6351 -0.047 -0.953 0.301 60 52 39
-3054.2312 1706.1793 812.7222 -0.047 -0.953 0.301 60 52 39
-3045.5054 1705.7809 807.7470 -0.140 -0.957 0.252 59 51 38
-3004.8247 1695.3026 788.8726 0.202 -0.932 0.301 57 49 36
-3157.6733 1802.8035 825.6445 0.388 -0.819 0.423 55 45 33
-3033.2253 1791.4645 757.5227 0.303 -0.345 0.889 49 39 29
-3287.4751 2560.0256 523.1304 0.031 -0.839 0.544 109 80 66
-3498.7083 2780.9324 537.6924 -0.044 -0.707 -0.706 105 74 60
-2546.7690 3169.4934 -221.5929 0.262 -0.695 0.669 66 38 24
-2199.1719 3257.3125 -471.7489 0.878 -0.425 -0.221 221 164 145
-2264.9265 3402.0442 -505.2873 0.394 -0.907 -0.148 221 164 145
-2096.9209 3345.1785 -576.4247 -0.289 -0.703 0.650 63 29 22
-2015.7030 3239.5713 -571.6648 0.554 -0.724 0.411 55 18 13
-1490.0741 2569.0039 -547.3262 0.137 -0.952 -0.274 113 42 12
-1485.5520 2570.6646 -550.8403 0.137 -0.952 -0.274 113 42 12
-1482.3528 2574.9463 -554.8835 0.140 -0.955 -0.260 115 41 11
-1461.8505 2587.4519 -573.3099 0.350 -0.935 -0.051 129 53 22
-1457.5995 2589.6492 -576.9322 0.343 -0.939 -0.032 129 53 21
-1452.6191 2590.3555 -580.2397 0.371 -0.928 -0.049 132 53 20
-1449.6763 2595.2246 -584.4253 0.366 -0.929 -0.051 130 48 15
-1440.3347 2597.8813 -591.2968 0.408 -0.913 0.015 131 43 7
-1432.2173 2592.0454 -593.1860 0.450 -0.893 -0.017 138 50 14
-1426.4724 2591.0852 -596.1119 0.467 -0.884 -0.015 144 56 20
-1374.0701 2695.2151 -679.3757 0.741 -0.079 0.667 173 83 42
-1334.0983 2826.6316 -768.9425 -0.252 -0.848 0.465 40 27 23
-1327.6802 2824.0742 -771.4671 -0.267 -0.910 0.316 35 21 18
-1317.5929 2812.4561 -771.6269 -0.328 -0.897 0.297 26 16 11
-1263.9846 2718.7039 -756.4341 -0.153 -0.933 -0.325 29 17 12
-1176.9889 2743.3240 -820.3661 0.972 0.166 0.168 166 90 59
-1216.3201 2878.7454 -864.9090 0.195 -0.924 -0.328 166 89 59
-1203.0145 2856.4858 -861.6442 0.433 -0.894 -0.114 167 91 59
-1204.6610 2875.4121 -870.1531 0.624 -0.433 -0.651 169 90 59
-1204.4126 2889.2222 -877.2214 0.675 -0.397 -0.622 166 91 59
-1092.8220 3181.5586 -1089.9097 0.730 -0.346 0.589 34 27 21
-999.6009 3189.9204 -1149.3855 0.573 -0.360 -0.736 119 90 88
-1000.9055 3214.7385 -1161.0498 0.545 -0.405 -0.734 106 67 68
-2748.4800 1406.0173 775.2225 0.893 -0.166 0.418 45 36 27
-3099.8542 1705.5134 832.4254 0.970 -0.220 -0.105 57 49 38
-3069.0327 1711.7798 811.0313 -0.181 -0.973 0.144 61 53 40
-3062.0125 1712.4762 806.5262 -0.190 -0.974 0.122 58 50 37
-3035.1477 1705.7535 794.0111 -0.190 -0.974 0.125 52 44 31
-3167.5667 1805.2390 822.3043 0.078 -0.868 0.490 50 40 28
-3021.9043 1769.5992 754.0391 0.957 -0.277 -0.092 44 34 24
-3020.2661 1779.0757 748.3000 0.303 -0.345 0.889 44 34 24
-3039.6997 1813.3132 742.5685 0.341 -0.548 0.764 56 46 34
-3252.2400 2547.3726 498.8867 -0.190 -0.907 0.376 115 80 66
-3402.2544 2782.4666 469.3391 0.924 0.028 0.381 102 64 45
-3101.5520 2861.1387 251.7858 0.703 -0.385 0.598 54 31 15
-2538.9292 3086.9624 -194.8362 0.300 -0.953 0.038 149 101 87
-2125.7761 3071.7556 -431.6873 0.077 -0.955 -0.287 215 158 141
-2248.7766 3292.2249 -469.8610 0.373 -0.722 -0.583 216 159 142
-2177.3169 3236.5051 -484.1064 0.630 -0.768 -0.116 213 156 137
-2244.7341 3396.9348 -524.9556 0.180 -0.451 -0.874 210 161 148
-1961.7731 3220.7756 -603.7488 0.362 -0.497 -0.788 77 42 13
-1954.3572 3245.1968 -620.4291 -0.517 -0.833 0.199 122 57 17
-1932.6801 3230.6409 -625.9314 -0.335 -0.933 0.132 131 53 9
-1455.5930 2598.9456 -590.3304 0.842 -0.428 0.328 120 38 7
-1451.3132 2601.1050 -593.9500 0.687 -0.582 0.435 123 38 2
-1446.2065 2601.5583 -597.2004 0.349 -0.871 0.347 131 43 7
-1316.7526 2800.2791 -773.8307 -0.311 -0.885 0.345 19 7 4
-1199.9528 2851.2175 -868.5913 0.876 -0.283 -0.391 163 84 53
-1199.4611 2878.6572 -882.6931 0.863 -0.365 -0.348 159 85 55
-1197.7341 2888.3926 -888.6151 0.863 -0.365 -0.348 157 86 58
-1094.0680 3189.7800 -1101.6580 0.623 -0.562 0.544 27 22 16
-1058.7253 3736.4236 -1397.7080 0.987 0.125 0.102 202 106 104
-3316.0562 1760.4370 924.6559 0.791 -0.174 0.586 44 34 24
-3101.8628 1713.2587 822.0110 0.900 -0.412 -0.140 51 43 32
-3106.9014 1726.6097 818.2380 0.031 -0.857 0.515 46 38 25
-3068.2393 1717.8055 799.8563 -0.195 -0.955 0.225 42 34 21
-2992.6841 1736.3202 745.8787 0.291 -0.370 0.882 48 38 28
-2998.0903 1750.2222 742.0444 0.835 -0.224 0.502 48 38 28
-2945.8159 1773.1940 699.5623 0.392 -0.728 0.562 68 58 46
-3402.3687 2784.7800 457.8579 0.918 0.031 0.395 109 71 50
-2982.4202 2804.2654 200.0081 0.064 -0.972 0.227 59 32 11
-2014.4299 3230.7126 -587.1930 0.098 -0.951 -0.292 51 14 5
-2012.2241 3239.2747 -592.8235 0.876 -0.482 0.028 46 12 6
-1957.9976 3216.8555 -613.5148 0.743 -0.449 -0.497 109 54 23
-1956.2123 3226.1985 -619.2917 0.743 -0.449 -0.497 115 53 18
-1286.7566 2729.6975 -763.6747 -0.423 -0.820 0.384 26 14 10
-1169.8815 2689.7451 -812.5008 0.986 0.145 -0.085 166 87 60
-1174.1707 2714.6479 -822.5553 0.988 0.141 -0.060 164 87 56
-1167.0999 2834.4180 -887.2706 0.898 -0.296 0.324 156 86 56
-3086.4402 1720.4055 801.5919 0.007 -0.780 0.625 43 35 22
-3022.2231 1705.4915 771.3195 0.829 -0.503 -0.243 49 39 27
-2990.1960 1720.7017 744.7250 0.273 -0.306 0.912 59 49 37
-2994.4944 1728.6136 743.2418 0.291 -0.370 0.882 63 53 43
-2988.0854 1734.7604 736.3449 0.974 -0.212 0.078 62 52 42
-2990.6321 1741.5933 734.3771 0.964 -0.259 0.065 62 52 42
-2996.5325 1750.6459 733.2590 0.958 -0.276 0.073 62 52 42
-3043.8560 1792.2434 740.0311 0.409 -0.497 0.766 62 52 42
-4344.2744 3539.2278 619.5704 -0.537 -0.836 -0.114 119 82 60
-3123.3669 2706.6484 322.7215 0.905 0.151 0.398 87 59 38
-3148.0164 2797.8093 290.9727 0.796 -0.422 0.434 82 55 34
-2924.0515 2798.7305 158.5231 0.857 -0.430 0.283 62 36 13
-2747.2043 2857.6118 24.4183 0.633 -0.127 -0.764 154 88 62
-2676.8240 3188.7058 -185.1250 -0.653 -0.687 -0.320 144 96 82
-1351.3363 2582.7788 -658.6550 0.989 0.120 0.082 174 82 45
-1317.3228 2743.3855 -760.2255 0.880 -0.016 0.475 34 23 20
-1289.5332 2726.6621 -768.1129 -0.418 -0.821 0.389 30 16 13
-1221.0299 2595.5142 -741.9091 0.826 -0.110 0.552 47 32 25
-1092.8363 2522.9939 -780.6410 -0.375 -0.781 0.500 151 75 42
-1095.1052 3201.3066 -1123.6252 0.706 -0.207 0.677 25 17 12
-1093.3025 3213.6567 -1130.9567 0.718 -0.205 0.666 24 17 11
-1051.2893 3141.9302 -1119.3057 0.733 -0.191 0.653 31 24 18
-3076.4050 1710.4688 793.0593 0.041 -0.669 0.743 45 37 24
-3060.5193 1705.6316 786.1835 0.073 -0.655 0.752 51 43 30
-3038.1345 1696.6807 777.5831 0.055 -0.665 0.744 50 44 30
-3021.3809 1691.2059 770.5219 0.112 -0.649 0.752 50 42 29
-3025.4380 1724.2621 756.0569 0.212 -0.331 0.919 66 56 44
-2966.3794 1706.7361 730.2618 0.963 -0.259 -0.073 65 55 45
-2967.0010 1712.2289 727.8273 0.964 -0.258 -0.064 65 55 45
-2962.9287 1714.6893 724.1783 0.945 -0.259 -0.201 65 55 45
-2964.4250 1720.7780 721.9546 0.939 -0.284 -0.193 65 55 45
-2972.6758 1731.2993 721.4429 0.941 -0.214 -0.263 65 55 45
-3143.3896 2736.1177 309.6112 0.957 0.095 0.273 86 58 40
-3095.3306 2835.2563 230.8130 0.631 -0.658 0.410 70 49 32
-2968.9404 2794.9231 177.0502 0.238 -0.911 0.336 68 41 20
-2965.4854 2808.8872 167.8999 0.488 -0.873 0.014 65 44 19
-2929.4878 2797.8723 152.3467 0.361 -0.912 0.194 64 43 18
-2910.0894 2795.1489 142.3278 0.359 -0.712 0.603 64 43 19
-2027.4449 3222.3250 -594.4670 -0.019 -0.927 -0.374 99 60 34
-1994.8230 3226.5898 -615.8243 0.836 -0.548 0.039 118 51 33
-1970.0630 3207.0500 -620.4236 0.866 -0.498 0.054 125 48 31
-1226.5970 2587.6929 -741.8909 0.826 -0.170 0.537 37 26 21
-1167.3434 2610.9233 -788.5768 0.260 -0.580 0.772 126 63 38
-1168.5275 2678.7793 -822.4709 0.989 0.148 -0.021 153 77 45
-1143.3331 2890.5166 -945.2224 0.987 0.127 0.098 141 78 51
-1111.0105 3150.0701 -1096.5404 0.474 -0.330 0.817 15 8 2
-1014.5471 3184.2048 -1170.6660 0.686 -0.345 -0.641 57 42 35
-1045.9500 3603.9500 -1366.1703 0.987 0.158 0.009 86 27 17
-1061.7780 3715.7239 -1413.8409 0.988 0.106 -0.116 134 61 45
-1038.3098 3692.0938 -1415.5955 0.753 -0.249 0.609 196 101 88
-3046.6226 1673.2751 786.9618 -0.296 -0.855 0.427 42 36 22
-3006.6724 1653.5461 773.6188 -0.293 -0.850 0.438 42 36 22
-2969.3274 1704.9698 725.3804 0.937 -0.344 -0.065 52 42 32
-2968.1443 1709.2891 722.4752 0.964 -0.258 -0.064 52 42 32
-2964.7256 1712.1689 718.9948 0.945 -0.259 -0.201 52 42 32
-2986.5325 1731.4534 721.9191 0.947 -0.311 -0.077 52 42 32
-3079.0684 2612.4717 325.2155 0.963 0.167 0.211 98 63 43
-3077.0762 2626.6304 316.7984 0.959 0.142 0.244 95 60 38
-2914.9275 2758.8535 153.9638 0.729 -0.679 0.083 69 49 24
-2908.4614 2760.8040 149.1711 0.581 -0.813 0.046 69 49 24
-2893.0693 2770.8069 135.0185 0.138 -0.959 0.248 67 50 24
-1831.6554 2045.2397 -116.3884 0.978 0.020 -0.209 149 111 100
-2290.8152 3227.5166 -452.1764 -0.413 -0.694 -0.589 209 156 142
-2106.6755 3190.9006 -541.4846 0.460 -0.879 0.123 90 43 33
-2010.4965 3158.9224 -581.5521 0.988 -0.130 -0.088 108 74 46
-1264.7972 2647.1433 -757.1394 -0.424 -0.823 0.377 30 16 13
-1203.0602 2617.6868 -778.2873 0.496 -0.415 0.763 132 57 33
-1183.6930 2618.2974 -789.9644 0.612 -0.330 0.719 107 55 28
-1156.7623 2586.0469 -789.2579 0.836 -0.427 -0.344 102 53 27
-1169.5592 2671.3079 -825.3948 0.984 0.170 -0.058 146 71 41
-1149.7733 2959.2095 -984.3851 0.976 0.214 0.033 79 51 44
-1019.0423 3185.5674 -1176.9728 0.945 -0.210 -0.250 48 36 27
-3011.3154 1677.6625 756.4906 0.476 -0.580 -0.661 57 51 37
-3017.0640 1691.2982 752.8470 0.513 -0.669 -0.538 54 46 33
-2946.7283 1686.7639 713.9932 0.936 -0.251 -0.245 43 33 23
-2965.6309 1703.9950 716.2038 0.893 -0.250 -0.374 44 34 24
-2947.9326 1697.6232 709.1161 0.898 -0.181 -0.400 44 34 24
-2955.5005 1707.5980 708.4198 0.906 -0.200 -0.373 45 35 25
-2972.4880 1723.7441 710.0667 0.945 -0.138 -0.297 48 38 28
-2971.6931 1728.3634 707.2267 0.935 -0.190 -0.300 47 37 27
-2962.9929 1727.8223 702.4105 0.797 -0.513 -0.319 46 36 26
-2857.9749 2651.8623 165.9068 0.706 -0.403 0.583 83 56 33
-2905.3486 2725.4470 155.8194 0.539 -0.842 -0.011 82 54 32
-2918.6436 2747.6636 152.1835 0.719 -0.688 0.102 77 54 30
-2917.5488 2755.1448 147.6967 0.714 -0.696 0.080 73 51 27
-2914.6182 2760.7520 143.0983 0.572 -0.820 0.038 73 52 27
-2909.8333 2764.4490 138.3960 -0.078 -0.936 0.342 72 52 27
-2897.1621 2768.6147 128.8351 0.138 -0.959 0.248 71 53 27
-2255.3137 3175.3462 -456.0798 0.532 -0.763 -0.368 213 154 136
-2236.0327 3168.3381 -463.7670 0.294 -0.952 -0.081 215 155 136
-2110.4404 3188.0916 -547.4614 0.460 -0.879 0.123 92 46 38
-1454.4224 2565.8435 -611.7172 0.820 -0.543 -0.184 138 54 18
-1415.2505 2528.7542 -615.5878 0.914 -0.362 0.183 156 71 34
-1209.8107 2612.6729 -779.0212 0.512 -0.405 0.758 121 53 33
-1200.3137 2613.5154 -785.0152 0.513 -0.404 0.758 115 47 24
-1181.9385 2604.0159 -790.8914 0.571 -0.339 0.748 91 47 19
-1162.9563 2579.9387 -789.6293 0.852 -0.484 -0.197 97 53 25
-1141.7826 2600.0334 -812.3573 0.767 -0.519 0.377 139 64 38
-1155.8074 2744.6587 -878.4910 0.655 -0.546 -0.523 135 82 58
-1068.8503 2778.4199 -946.7635 0.508 -0.456 0.731 39 27 15
-1059.8771 2795.8970 -961.0020 0.991 -0.077 0.112 41 21 9
-1022.2101 3182.0317 -1181.5537 0.942 -0.218 -0.254 41 29 22
-1050.9841 3634.2705 -1397.1825 0.989 0.145 -0.032 173 109 106
-1029.8911 3643.2012 -1414.1244 0.779 -0.078 0.623 184 92 84
-1076.6896 4076.9622 -1609.7004 0.987 0.162 0.018 178 9 17
-3017.9214 1673.2062 755.1455 0.374 -0.501 -0.780 41 35 23
-3019.4246 1689.1561 747.7903 0.869 -0.483 -0.109 41 33 20
-2960.6624 1702.1957 706.7249 0.934 -0.191 -0.301 47 37 25
-1811.9727 1982.7859 -109.2901 -0.223 -0.789 0.573 49 21 8
-1807.2378 1983.5831 -112.4681 0.959 0.024 -0.281 47 17 4
-2675.5586 3134.0671 -199.0001 -0.615 -0.786 -0.062 185 128 119
-2734.2761 3252.2776 -225.7127 0.186 -0.686 0.703 194 142 128
-2649.7598 3164.0544 -229.5538 0.971 -0.237 0.030 191 139 125
-2112.3606 3230.2578 -577.7275 -0.489 -0.620 -0.613 28 15 14
-2101.9746 3224.8435 -581.0010 -0.567 -0.616 -0.547 24 7 5
-2080.0994 3273.4614 -618.8795 -0.158 -0.580 -0.799 116 53 16
-1472.5663 2551.5422 -601.1985 0.636 -0.637 -0.436 127 51 16
-1466.8990 2550.8247 -604.1395 0.873 -0.464 -0.150 130 51 16
-1463.1781 2553.9727 -607.9387 0.895 -0.420 -0.148 129 51 16
-1460.9962 2560.2148 -612.4357 0.895 -0.420 -0.148 133 53 19
-1460.0428 2568.9624 -617.5083 0.899 -0.412 -0.150 143 60 23
-1457.8857 2575.3259 -622.0535 0.899 -0.412 -0.150 142 58 22
-1390.2511 2532.9446 -639.6946 0.891 -0.288 -0.350 162 69 43
-1260.0742 2616.8831 -759.0857 -0.470 -0.822 0.322 35 18 7
-1236.6689 2596.3577 -762.1660 -0.238 -0.536 0.810 69 46 36
-1209.2904 2601.7927 -780.9687 0.560 -0.335 0.758 99 36 19
-1139.9761 2585.3062 -812.9583 0.742 -0.533 0.406 129 59 35
-1121.9340 2549.8105 -805.1770 0.610 -0.689 0.391 134 64 43
-1109.4883 2541.5635 -808.1918 0.636 -0.736 0.230 142 68 48
-1105.7629 2544.1240 -811.6902 0.815 -0.424 -0.394 141 69 48
-1096.3091 2543.7681 -817.0304 0.541 -0.398 -0.741 130 73 46
-1166.1901 2748.8301 -882.0535 0.272 -0.754 -0.598 124 75 50
-1162.5122 2752.4785 -886.0858 0.294 -0.743 -0.602 121 77 54
-1092.1542 2837.9285 -971.3053 0.908 -0.016 0.419 47 22 13
-1084.9515 2831.0981 -971.9880 0.912 0.016 0.410 50 19 8
-1015.0764 3319.9890 -1265.1838 0.095 -0.955 -0.279 152 145 136
-3026.9172 1680.2072 749.2594 0.487 -0.688 -0.538 32 26 14
-2974.8953 1702.6378 707.3013 0.865 -0.207 -0.458 54 44 32
-2974.6729 1707.5693 704.6153 0.863 -0.218 -0.456 53 43 31
-2967.9067 1708.2856 700.2992 0.906 -0.130 -0.403 55 45 33
-2632.4846 1961.8851 373.2794 0.639 -0.102 0.762 39 33 21
-2988.3464 2621.4080 238.8973 0.520 -0.848 -0.102 99 61 40
-3012.4016 2735.8267 193.6134 0.930 0.027 -0.366 95 59 37
-3020.1299 2856.6614 135.4843 0.387 -0.750 0.537 83 57 34
-2998.4060 2843.1467 129.8237 -0.137 -0.903 0.407 83 57 34
-2121.2432 2940.8367 -432.2384 0.961 -0.276 -0.030 214 153 135
-2179.4136 3188.5747 -526.7382 0.237 -0.377 -0.895 59 15 11
-2108.6248 3178.8308 -562.9604 -0.321 -0.826 -0.463 61 30 30
-1499.2242 2522.9053 -578.2672 0.527 -0.236 0.817 125 47 11
-1384.2385 2588.5759 -679.3494 0.942 -0.334 0.038 133 56 30
-1391.6252 2638.5078 -700.9249 0.969 -0.225 0.103 93 37 24
-1261.5840 2611.1877 -762.5831 -0.100 -0.606 0.789 29 14 4
-1248.1899 2590.9512 -759.9029 -0.045 -0.554 0.831 34 17 10
-1125.0891 2561.0654 -816.1847 0.646 -0.664 0.377 131 64 43
-1117.1458 2552.3867 -816.3173 0.555 -0.760 0.337 132 64 43
-1112.0486 2551.2961 -818.7239 0.826 -0.540 -0.163 130 64 43
-1100.3008 2544.7817 -822.1966 0.555 -0.352 -0.754 125 70 44
-1074.1556 2786.2737 -962.6183 0.707 -0.313 0.634 72 32 20
-1064.9619 2773.0479 -961.1230 0.686 -0.301 0.662 86 37 23
-2977.6960 1700.7795 702.3884 0.809 -0.263 -0.525 59 49 37
-2978.2507 1706.2050 699.8873 0.869 -0.201 -0.452 59 49 37
-2299.6462 1803.9850 254.1850 0.812 -0.557 0.174 120 84 64
-2665.9910 3127.0122 -221.3111 -0.519 -0.814 -0.260 183 131 117
-2269.3699 3193.9021 -486.8790 0.345 -0.937 -0.046 153 89 62
-2209.4502 3157.9392 -503.0213 0.229 -0.957 -0.179 200 135 109
-2138.5874 3160.3120 -545.4838 0.462 -0.868 -0.184 56 29 26
-2123.2083 3146.8669 -547.4332 0.419 -0.373 -0.828 58 31 30
-2101.6912 3123.2246 -547.6459 0.371 -0.557 -0.743 60 33 32
-2113.8440 3238.5356 -600.5947 -0.589 -0.599 -0.543 54 29 17
-2111.4858 3296.1824 -631.9717 -0.561 -0.512 -0.651 120 52 17
-1574.1389 2514.1660 -537.5587 0.488 -0.701 -0.520 138 66 28
-1364.2001 2537.0281 -671.5995 0.366 -0.609 0.704 113 48 22
-1262.8655 2604.9749 -765.9214 -0.235 -0.530 0.815 24 10 2
-1116.0143 2552.1589 -823.8680 0.825 -0.528 -0.203 121 61 37
-1110.7480 2550.6025 -826.1218 0.483 -0.440 -0.757 119 63 38
-1105.8021 2549.8806 -828.6235 0.555 -0.352 -0.754 116 65 38
-1101.8098 2577.4475 -845.2948 0.035 -0.674 -0.737 74 37 23
-1034.4364 3181.3828 -1198.8395 0.984 -0.176 0.036 27 18 13
-1042.9874 3251.2935 -1230.2529 0.790 -0.387 0.475 39 25 19
-1017.8589 3318.8027 -1280.0110 0.067 -0.974 0.217 50 41 32
-1013.2476 3321.8752 -1284.2930 0.072 -0.976 0.204 35 18 11
-1009.2966 3327.5173 -1289.5284 0.058 -0.968 0.245 36 13 7
-1057.5060 3724.1531 -1467.9287 0.983 0.103 -0.151 186 90 77
-1053.8164 3733.4490 -1474.9138 0.953 0.154 0.262 192 88 74
-1071.1875 3960.7715 -1583.1283 0.684 -0.174 -0.709 218 82 78
-2919.2378 1606.1409 710.4059 0.087 -0.597 0.797 51 45 33
-2912.8486 1626.2556 696.1839 0.295 -0.347 0.890 53 45 32
-2123.5757 2917.8352 -437.0597 0.852 -0.194 -0.486 213 152 134
-2192.1663 3214.7800 -552.4362 0.358 -0.611 -0.706 49 25 21
-2130.8821 3150.5291 -554.4339 0.600 -0.285 -0.747 46 32 27
-2107.4751 3123.8835 -554.0967 0.374 -0.545 -0.751 44 31 25
-2173.7605 3380.7439 -649.8614 -0.598 -0.529 -0.602 123 58 29
-1562.0680 2465.2261 -526.4866 0.927 -0.369 0.066 129 60 21
-1418.5048 2502.9263 -629.5351 0.223 -0.824 0.521 137 53 17
-1264.3538 2599.2866 -769.3888 -0.098 -0.605 0.790 26 11 2
-1171.4377 2600.6606 -824.0487 0.592 -0.318 0.741 75 30 5
-1122.4191 2546.9526 -824.4360 -0.361 -0.933 -0.002 111 57 31
-1118.6925 2549.5510 -827.9575 0.825 -0.528 -0.203 114 61 35
-1112.0375 2556.9197 -835.6722 0.581 -0.341 -0.739 112 62 33
-1015.4434 3025.2012 -1136.4938 0.844 0.047 0.535 20 9 5
-1016.8479 3140.6372 -1196.0103 0.952 -0.292 -0.091 33 18 13
-1012.4422 3323.2393 -1294.0038 0.044 -0.955 0.292 37 15 9
-1007.3005 3324.2549 -1297.5194 0.046 -0.956 0.291 38 9 6
-1056.0730 3699.1646 -1465.1489 0.981 0.105 -0.161 180 81 71
-1073.0941 3793.4937 -1504.5680 0.982 0.092 -0.165 192 87 76
-1045.0886 3702.5513 -1473.2960 0.897 -0.089 -0.433 188 78 67
-1043.3112 3744.4824 -1496.2429 0.595 -0.260 -0.760 201 82 73
-1059.8192 3839.2273 -1536.1770 0.620 -0.243 -0.746 197 83 72
-1101.4449 4096.6978 -1646.5767 0.651 -0.192 -0.734 208 50 54
-2933.8542 1606.9503 711.2192 0.034 -0.585 0.810 52 46 34
-2326.9224 1819.9187 247.8632 0.997 -0.033 0.063 141 112 90
-2730.8491 2876.0288 -72.3783 0.134 -0.720 0.681 176 114 107
-2516.1028 2654.3594 -80.4502 -0.648 -0.708 0.281 178 117 110
-2475.8738 2616.0828 -83.6676 -0.645 -0.704 0.297 173 113 105
-1819.5935 1965.5284 -122.4441 -0.631 -0.760 0.156 54 35 26
-2254.0686 3198.7944 -517.9584 0.461 -0.844 0.274 198 132 106
-2227.1414 3226.4651 -548.0785 0.212 -0.724 0.656 51 19 6
-2229.3450 3241.8127 -554.8563 0.074 -0.997 0.015 51 25 14
-2220.7283 3239.8835 -558.8354 0.134 -0.991 0.032 54 34 25
-2199.3613 3217.3855 -559.4066 0.356 -0.722 -0.593 55 39 32
-2140.0999 3156.6736 -561.8755 0.647 -0.288 -0.706 32 35 24
-2116.5793 3188.6633 -592.2886 -0.307 -0.951 -0.019 21 21 3
-2102.6841 3249.8315 -632.4385 -0.272 -0.900 0.339 117 50 16
-1182.4066 2151.5750 -589.1982 0.669 -0.641 0.377 49 20 9
-1267.2970 2597.0859 -773.8207 -0.105 -0.607 0.788 29 12 1
-1226.9612 2571.4893 -783.7542 0.047 -0.941 0.336 83 47 23
-1208.7281 2550.6973 -783.4052 -0.160 -0.910 0.382 81 45 19
-1189.5354 2551.0369 -794.7016 0.430 -0.839 -0.333 78 39 14
-1155.5270 2562.1162 -820.2169 -0.247 -0.963 0.110 77 31 4
-1116.6259 2572.1919 -848.0396 0.880 -0.245 -0.406 97 47 21
-1111.1219 2608.9468 -870.5166 0.666 -0.574 -0.476 33 4 1
-1014.9327 3045.2273 -1155.1936 0.996 0.074 -0.043 17 10 4
-1022.0239 3088.6589 -1173.8781 0.994 0.081 -0.079 18 9 4
-1022.7380 3304.9917 -1286.9933 -0.062 -0.928 -0.367 77 65 57
-1044.9655 3707.2424 -1485.2135 0.902 -0.055 -0.428 196 82 72
-2350.0532 1819.3192 254.6038 0.992 -0.037 -0.120 56 39 19
-2331.2300 1947.8967 175.9714 0.969 0.013 -0.246 116 73 54
-2336.9487 1959.3654 173.2340 0.969 0.012 -0.248 116 73 56
-2532.4468 2666.8745 -86.5689 -0.648 -0.708 0.281 181 117 111
-2115.7327 2226.9797 -95.6537 -0.173 -0.567 -0.805 78 48 39
-2501.3738 2772.2253 -160.0433 0.471 -0.332 -0.817 84 64 57
-1808.8269 1953.8865 -129.1578 -0.566 -0.823 -0.043 101 75 59
-1797.0787 1945.9413 -131.7622 -0.566 -0.823 -0.043 151 121 103
-2225.6699 3226.9446 -559.0191 0.227 -0.742 0.631 47 29 14
-2170.4224 3330.5527 -645.5493 -0.288 -0.909 0.301 103 56 20
-1571.5546 2438.7251 -521.7894 0.928 -0.344 0.144 114 45 6
-1427.1439 2493.9263 -634.3527 0.323 -0.640 -0.697 141 57 20
-1423.7993 2497.5869 -638.2148 0.314 -0.646 -0.696 145 61 25
-1252.5098 2588.2590 -785.0062 -0.215 -0.883 0.417 42 26 13
-1242.5735 2576.2622 -784.4284 0.054 -0.987 0.152 58 32 13
-1229.6871 2556.9958 -781.7253 0.079 -0.958 0.274 67 38 10
-1193.2662 2551.0261 -799.6325 0.477 -0.552 -0.684 87 49 23
-1177.2506 2596.2495 -832.7200 0.539 -0.437 0.720 71 30 3
-1113.6039 2605.6045 -874.4401 0.667 -0.552 -0.499 41 15 7
-1112.4760 2615.6104 -880.3646 0.452 -0.621 -0.640 33 6 1
-1061.9777 3758.2502 -1511.6492 0.827 -0.092 -0.554 196 84 71
-2350.5808 1810.0878 252.8205 0.993 -0.018 -0.116 46 30 7
-2339.2507 1950.9492 171.7588 0.959 0.007 -0.283 115 74 54
-2133.8794 2242.8857 -101.1555 -0.176 -0.571 -0.802 52 26 19
-2513.8025 2771.3652 -161.6229 0.564 -0.329 -0.757 95 75 68
-2511.2954 2777.4514 -166.2890 0.566 -0.332 -0.755 79 59 52
-1794.9041 1918.8127 -125.2162 0.537 -0.710 -0.455 49 26 18
-2435.3953 3072.2534 -366.0408 0.918 0.112 0.381 207 154 140
-2205.8667 3140.4036 -534.4888 0.861 -0.076 -0.504 103 67 41
-2215.8391 3179.0811 -549.2001 0.070 -0.922 -0.382 42 16 5
-1573.9517 2445.2136 -531.1673 0.915 -0.384 0.125 112 44 7
-1554.6907 2420.5139 -529.2089 0.911 -0.386 0.145 108 40 3
-1241.8901 2565.4399 -786.3083 0.154 -0.890 0.430 46 24 5
-1238.0105 2567.9409 -789.8694 0.183 -0.888 0.421 53 30 3
-1025.7755 3304.8152 -1302.1487 -0.018 -0.970 -0.244 32 15 9
-1035.8444 3561.3845 -1432.0858 0.828 -0.088 -0.555 140 44 39
-2342.8821 1949.8713 167.1827 0.964 -0.001 -0.264 117 77 60
-2621.0764 2712.1650 -77.6480 0.701 -0.606 -0.376 168 105 99
-2398.8550 2634.1377 -164.0979 0.110 -0.965 0.238 75 52 43
-2099.6995 3031.3679 -547.2929 0.942 -0.327 -0.076 37 42 32
-2086.7419 3021.7422 -549.6372 0.954 -0.300 -0.001 28 51 36
-1752.8060 2581.0383 -507.7232 -0.468 -0.869 -0.162 84 54 24
-1551.0172 2425.6709 -541.3283 0.910 -0.391 0.136 104 37 1
-1417.0293 2397.8271 -603.6537 0.661 -0.751 0.000 122 50 15
-1413.5543 2400.8855 -607.2784 0.661 -0.751 0.000 122 50 16
-1410.8372 2405.4387 -611.2610 0.483 -0.875 -0.032 121 47 14
-1410.0811 2413.8779 -616.1793 0.686 -0.655 -0.316 124 42 11
-1246.6422 2555.9319 -785.7083 0.744 -0.531 0.405 29 18 9
-1206.4999 2553.2832 -807.4050 0.483 -0.603 -0.635 60 33 14
-1202.7683 2556.0369 -811.0155 0.503 -0.550 -0.666 57 25 7
-1037.8430 3334.3196 -1319.3772 -0.091 -0.967 -0.237 24 7 1
-1014.7555 3436.6235 -1387.0110 0.990 0.080 -0.114 160 78 80
-1108.3700 3986.8716 -1625.4337 0.583 -0.248 -0.774 204 59 63
-2659.9829 2740.9551 -79.8791 0.702 -0.523 -0.483 166 110 103
-2156.2751 2265.5806 -115.6122 -0.210 -0.633 -0.746 77 70 67
-1935.8394 2019.4121 -110.9118 0.551 -0.187 0.813 86 81 77
-1750.3602 1842.4293 -123.0367 0.590 -0.588 0.553 69 41 31
-2187.6689 2964.1216 -470.1581 -0.016 -0.970 -0.241 204 143 114
-2057.7722 2840.1846 -478.6545 -0.088 -0.995 0.053 188 123 99
-2210.6003 3107.9592 -533.7061 0.828 -0.076 -0.555 177 131 109
-1444.5797 2404.3582 -598.3583 0.444 -0.883 -0.151 113 48 13
-1433.6715 2412.7695 -609.1092 0.604 -0.670 -0.433 111 46 11
-1431.6287 2418.6780 -613.4338 0.580 -0.677 -0.453 112 45 11
-1448.1289 2460.7964 -626.4220 0.292 -0.529 0.796 114 45 12
-1449.6411 2494.2883 -643.4169 0.129 -0.460 -0.878 121 38 15
-1445.5090 2506.7368 -652.4296 0.200 -0.686 -0.700 119 39 16
-1209.5110 2575.4868 -824.6321 0.520 -0.422 -0.743 52 24 4
-1165.0753 2585.6306 -855.5619 0.804 -0.381 0.456 65 34 13
-1154.4073 2570.3323 -853.5289 0.154 -0.948 0.279 63 34 13
-2906.3318 1689.5959 614.9717 0.655 -0.752 -0.078 48 40 27
-2359.9539 1885.5051 196.9579 0.025 -0.905 -0.425 180 155 125
-2349.6753 1882.0518 192.9170 -0.090 -0.954 -0.287 180 155 125
-2828.3748 2701.5383 28.3987 0.606 -0.709 -0.361 95 54 34
-1751.3781 1839.0201 -126.8956 0.642 -0.542 0.542 69 40 27
-2078.7639 2864.5237 -488.4475 0.038 -0.825 0.564 183 121 98
-2258.8335 3220.2112 -575.7302 0.057 -0.455 -0.888 27 22 13
-2098.0195 3011.8572 -556.3107 0.872 -0.263 0.412 17 35 24
-1760.7670 2579.4504 -518.0188 -0.023 -0.412 0.911 109 45 20
-1530.2468 2459.9321 -586.1166 0.437 -0.735 -0.519 117 51 17
-1460.6393 2447.3142 -619.2484 0.575 -0.746 0.338 107 43 8
-1444.9539 2446.9038 -628.0173 0.403 -0.500 0.767 106 40 6
-1441.6467 2450.4814 -631.8282 0.433 -0.484 0.760 109 40 10
-1442.6654 2493.1536 -654.0956 0.434 -0.761 -0.482 120 44 21
-1366.0389 2493.5481 -698.2178 0.925 -0.165 0.342 26 18 15
-1244.0331 2531.7158 -788.5727 0.807 -0.464 0.365 18 9 2
-1164.5718 2574.6543 -857.1020 0.781 -0.360 0.511 64 34 14
-1158.4773 2571.2700 -858.7822 0.157 -0.954 0.255 56 28 7
-1096.0237 2581.6418 -900.1256 0.367 -0.656 0.659 107 54 41
-1058.9081 2622.7144 -943.3894 0.909 -0.105 0.404 116 52 23
-1055.1210 2625.3206 -946.9551 0.699 -0.171 0.694 115 53 23
-1032.6643 3540.3345 -1449.8179 0.987 0.099 -0.126 142 48 51
