ply
format ascii 1.0
element vertex 775
property float x
property float y
property float z
property float nx
property float ny
property float nz
property uchar diffuse_red
property uchar diffuse_green
property uchar diffuse_blue
end_header
-1604.8578 5343.6680 -391.0427 -0.368 -0.920 0.135 231 192 205
-1605.4363 5370.7222 -399.5238 -0.403 -0.912 -0.074 233 191 205
-1390.6281 4853.6953 -408.3530 0.701 0.203 0.684 237 187 199
-1519.7007 5405.5425 -482.9795 0.910 0.219 0.353 247 197 209
-851.7488 5276.1382 -1000.3741 0.083 -0.731 0.677 227 148 146
-841.9214 5260.5566 -1003.4534 0.084 -0.749 0.657 225 143 144
-829.4500 5228.9702 -1003.4461 0.105 -0.690 0.716 219 139 139
-418.2758 4339.8008 -1053.6525 -0.065 -0.972 0.225 254 143 159
-372.6412 4047.0007 -994.8910 -0.280 -0.594 0.755 241 92 120
-351.1694 3879.6257 -957.4301 -0.060 -0.920 -0.388 244 81 121
-117.0180 3494.3267 -1026.1417 -0.268 -0.884 0.384 232 66 95
-114.2492 3535.7549 -1042.1945 -0.335 -0.924 0.182 233 57 86
-103.7856 3471.7827 -1029.7697 -0.306 -0.891 0.334 238 41 68
-48.2362 3078.0615 -945.8776 0.302 -0.703 0.644 187 2 20
-44.6728 3079.0481 -949.1935 0.299 -0.692 0.657 183 3 22
-42.3074 3171.9722 -981.9745 0.625 -0.279 -0.729 185 11 28
-38.8404 3191.2761 -991.2805 0.697 -0.266 -0.666 199 29 47
5.0211 3062.6912 -985.4561 -0.272 -0.961 -0.041 225 128 122
-4282.3345 4807.9268 2017.8605 0.318 -0.700 -0.640 94 90 79
-3887.8333 4664.8428 1735.0599 0.650 -0.131 0.749 165 154 151
-3785.0464 4603.6880 1669.3468 0.338 -0.259 0.905 183 172 170
-3625.7964 4444.6768 1588.9896 0.569 -0.655 0.497 185 171 168
-3620.2161 4448.7607 1582.9503 0.577 -0.654 0.489 182 167 161
-3553.6196 4435.1914 1531.6764 0.376 -0.768 -0.519 150 130 122
-3620.7961 4523.4751 1558.4934 0.299 -0.733 -0.611 145 125 114
-3631.1116 4546.1948 1559.5524 0.353 -0.851 -0.388 143 121 107
-3645.5208 4573.7822 1562.4165 0.015 -0.889 0.458 143 120 102
-3395.0188 4438.8745 1397.5491 -0.218 -0.976 0.018 168 123 115
-3291.7107 4366.5596 1335.1248 0.705 -0.344 -0.620 180 125 120
-3763.3374 5185.4307 1456.9449 0.889 -0.458 0.022 140 127 114
-3779.9268 5273.7227 1441.3700 -0.345 -0.931 -0.119 164 150 138
-3772.3391 5277.3237 1433.8098 -0.347 -0.931 -0.113 165 153 141
-3773.3760 5292.2700 1429.6891 -0.409 -0.913 -0.016 160 146 135
-3747.4846 5271.7744 1414.8359 -0.408 -0.913 -0.030 149 135 124
-3710.6853 5250.2617 1391.1821 0.549 -0.832 -0.085 151 134 124
-3696.3625 5244.8130 1380.9996 0.677 -0.484 0.555 141 124 116
-3597.5852 5332.4414 1268.9760 0.307 -0.948 0.084 164 148 137
-3553.8162 5313.8862 1238.4946 0.631 -0.496 0.596 168 151 143
-3543.2429 5313.2466 1229.8485 0.633 -0.486 0.603 179 160 153
-3534.3130 5314.9043 1221.8123 0.633 -0.486 0.603 184 165 159
-3516.3870 5303.8301 1210.4886 0.941 -0.173 0.291 184 165 161
-3482.2781 5326.9180 1174.1995 0.252 -0.898 0.361 185 168 161
-3474.5188 5330.2168 1166.5964 0.443 -0.896 0.031 185 168 161
-3465.7361 5332.0405 1158.6281 0.935 -0.349 0.056 180 163 156
-3462.5586 5341.9727 1152.6498 0.938 -0.272 0.215 154 139 132
-3439.0281 5322.3975 1139.4679 -0.323 -0.877 0.357 119 104 97
-3414.3979 5301.0894 1125.9427 -0.358 -0.858 0.369 132 117 110
-3348.9456 5277.6606 1078.9191 0.981 -0.131 0.142 135 120 113
-3360.0376 5367.8906 1058.0908 0.957 0.022 -0.291 163 148 141
-3376.0916 5437.3413 1048.3573 0.985 0.031 -0.172 156 137 131
-3358.8845 5426.5015 1037.5577 0.222 -0.927 0.303 130 111 105
-3349.9084 5428.1074 1029.5002 -0.021 -0.933 0.359 117 96 91
-3300.0420 5397.6470 997.8842 -0.267 -0.860 0.436 192 173 167
-3236.5176 5345.3047 962.1287 0.776 -0.234 0.585 194 175 169
-3103.5864 5429.5322 822.6215 0.917 -0.359 -0.172 159 134 130
-3100.4780 5440.4761 816.3633 0.917 -0.359 -0.172 166 142 138
-3134.3706 5529.0669 815.1879 0.901 -0.347 -0.261 177 152 145
-3122.6692 5542.5811 800.8712 0.130 -0.444 0.887 167 139 130
-3059.6357 5486.3633 766.8208 0.353 -0.439 0.826 157 130 119
-2808.5427 5573.5542 527.3119 -0.175 -0.979 0.103 34 19 19
-2788.3350 5553.6641 517.0190 -0.168 -0.984 0.051 36 22 21
-2770.0791 5537.2891 507.1884 -0.155 -0.988 0.030 33 19 18
-2781.4258 5576.6504 503.5559 -0.036 -0.857 0.514 36 19 18
-2672.5564 5459.2754 451.5147 0.230 -0.732 0.642 155 124 119
-2660.1416 5453.2822 443.1126 0.241 -0.726 0.645 164 135 129
-2626.1873 5532.6392 388.1681 0.967 -0.054 -0.248 164 124 116
-2514.5718 5494.3843 307.4120 0.924 -0.319 0.212 176 128 117
-2559.5696 5724.3281 268.3524 0.834 -0.242 -0.496 168 119 104
-2363.1777 5561.4551 158.1620 0.365 -0.699 0.614 161 117 101
-2351.3347 5555.3486 150.2767 0.351 -0.706 0.615 153 109 93
-2348.1619 5568.5332 143.2166 0.420 -0.748 0.514 152 108 93
-2337.7896 5565.6602 135.4843 0.457 -0.717 0.526 151 108 92
-2321.2937 5548.9634 127.2360 0.686 -0.359 0.632 151 108 92
-2323.8108 5679.3682 85.8102 0.469 -0.554 -0.688 110 75 60
-2311.4363 5714.8335 63.6013 0.489 -0.872 0.006 87 57 46
-1945.7555 5011.3096 -7.9504 0.507 -0.613 -0.606 207 179 180
-1945.7755 5030.6094 -14.3768 0.507 -0.623 -0.595 207 178 182
-1988.6725 5154.1831 -19.6859 -0.105 -0.948 -0.301 207 178 183
-1865.5060 4989.0137 -67.7513 0.640 -0.663 -0.388 239 218 225
-1872.7069 5127.9497 -108.1002 0.263 -0.921 0.286 247 230 236
-1843.6781 5115.0483 -128.1175 0.588 -0.774 -0.234 249 244 248
-1843.9446 5136.5820 -135.0832 0.409 -0.885 -0.223 244 239 243
-1805.4175 5119.2231 -161.5714 0.455 -0.850 -0.264 255 249 253
-1938.8160 5565.8008 -198.8785 -0.519 -0.731 0.443 252 247 251
-1754.2240 5428.4019 -307.6859 -0.272 -0.645 0.715 255 245 251
-1619.6841 5245.2065 -359.2635 -0.245 -0.914 -0.322 255 251 255
-1612.4376 5247.2505 -366.0180 -0.185 -0.951 -0.248 255 250 254
-1601.2102 5237.0669 -372.0262 -0.154 -0.988 -0.025 242 229 236
-889.6005 5461.5469 -1043.2537 0.470 -0.651 -0.596 228 150 148
-884.9249 5477.8140 -1052.6023 0.491 -0.767 -0.413 225 144 146
-871.5842 5443.2407 -1052.2388 0.467 -0.781 -0.415 220 140 143
-871.6612 5532.6304 -1082.0165 0.311 -0.541 0.781 210 128 127
-653.6690 4848.3223 -1036.2290 0.887 -0.456 -0.068 255 43 91
-518.9467 4218.2300 -938.7661 0.690 -0.708 -0.150 255 32 86
-130.4056 3434.9253 -1002.8389 0.557 -0.365 -0.746 244 87 112
-127.4564 3464.8369 -1015.2960 0.557 -0.365 -0.746 241 72 101
-123.9249 3481.3096 -1023.7545 -0.167 -0.955 0.244 242 64 98
-119.5116 3474.6326 -1025.2235 -0.265 -0.810 0.524 241 55 91
-110.6484 3458.2795 -1027.1909 -0.315 -0.721 0.618 246 42 75
-106.3964 3454.4622 -1029.4795 -0.315 -0.721 0.618 246 36 68
-45.5307 3201.7278 -996.1075 0.625 -0.279 -0.729 193 21 37
-42.1343 3228.4863 -1007.8867 0.661 -0.269 -0.701 200 31 49
-40.1216 3382.3948 -1060.9546 0.739 -0.441 -0.509 208 43 60
-32.5156 3418.7297 -1079.4581 0.864 -0.503 0.003 229 64 81
-19.0385 3118.2139 -990.4258 0.224 -0.318 0.921 248 84 101
2.3776 3062.7510 -989.8553 -0.288 -0.958 0.012 225 131 124
-3896.8403 4653.0610 1732.7009 0.706 -0.212 0.676 168 157 156
-3879.3152 4644.4136 1720.9390 0.697 -0.202 0.688 167 155 155
-3868.4712 4643.1562 1712.2845 0.510 -0.082 0.856 167 155 156
-3766.0413 4560.7681 1654.2477 0.527 -0.063 0.848 183 171 173
-3777.6602 4671.6816 1626.6768 0.585 -0.481 0.653 155 135 126
-3875.1614 4795.0811 1666.7971 0.674 -0.288 0.681 152 129 119
-3640.8225 4535.8687 1557.8035 0.405 -0.640 -0.653 147 124 112
-3827.9443 4763.2910 1637.9631 0.813 -0.223 0.538 142 119 103
-3291.1025 4355.2749 1325.7902 0.712 -0.319 -0.625 165 115 108
-3640.6465 4902.4888 1434.3732 0.939 0.014 -0.343 179 167 153
-3791.7185 5262.3867 1439.8090 0.805 -0.431 -0.408 179 169 159
-3801.0918 5288.0972 1439.0095 -0.226 -0.974 0.033 181 168 159
-3802.9666 5304.1255 1435.1890 -0.346 -0.935 0.079 181 169 158
-3801.6030 5315.9790 1430.0616 -0.343 -0.933 0.108 182 168 157
-3775.0247 5294.7227 1414.9613 -0.358 -0.932 0.050 184 170 161
-3752.7883 5279.0596 1401.6152 -0.362 -0.928 0.089 185 168 160
-3717.7708 5246.3921 1383.2878 0.549 -0.832 -0.085 185 168 160
-3705.1545 5243.2319 1373.7898 0.393 -0.919 -0.022 182 165 157
-3680.8259 5224.4653 1359.7357 0.282 -0.582 0.763 178 161 153
-3648.4568 5194.8574 1342.5964 0.280 -0.396 0.875 177 160 152
-3628.6660 5181.8872 1330.3916 0.280 -0.396 0.875 178 161 153
-3609.0039 5169.0015 1318.2660 0.280 -0.396 0.875 169 152 144
-3587.3052 5166.7300 1300.8665 0.499 -0.455 0.738 162 145 134
-3571.9653 5159.4897 1290.4604 0.806 -0.474 0.356 160 144 131
-3564.3020 5162.6016 1282.9995 0.796 -0.492 0.352 161 143 131
-3624.1162 5341.3135 1272.9730 0.816 -0.420 0.397 177 163 155
-3581.5059 5310.5156 1247.6614 0.687 -0.485 0.541 176 161 153
-3514.3274 5273.0381 1204.0305 0.636 -0.352 0.687 189 170 164
-3501.3452 5268.8711 1194.5648 0.827 -0.322 0.461 189 170 164
-3494.7170 5330.8301 1168.1816 0.219 -0.897 0.384 191 172 166
-3483.8586 5329.7061 1159.4702 0.431 -0.902 0.038 197 180 173
-3473.9124 5329.8721 1151.0887 0.387 -0.922 -0.009 200 183 176
-3432.9143 5299.6006 1126.9496 -0.357 -0.854 0.378 162 145 138
-3409.1812 5279.6118 1113.8049 -0.345 -0.860 0.377 145 128 121
-3376.2698 5289.4238 1082.9563 0.981 -0.101 -0.167 149 132 125
-3347.7561 5261.9819 1068.3159 0.982 -0.122 0.146 151 134 127
-3348.1443 5277.0708 1063.5669 0.981 -0.130 0.147 152 135 128
-3360.7996 5354.7573 1048.0369 0.957 0.023 -0.291 127 110 103
-3362.5725 5372.3398 1043.6086 0.957 0.023 -0.291 127 110 103
-3373.6042 5419.0615 1037.1317 0.987 0.026 -0.160 127 108 102
-3292.0669 5386.1167 979.9574 0.089 -0.957 0.276 196 175 170
-3283.0784 5387.5376 971.9557 0.098 -0.960 0.261 195 174 169
-3108.2275 5422.0679 813.9811 0.905 -0.373 -0.205 184 159 155
-3054.8420 5479.2988 750.0486 0.339 -0.464 0.818 163 132 122
-3045.1165 5479.3521 741.8895 0.445 -0.470 0.762 157 126 116
-2825.7476 5483.1411 556.9877 0.791 -0.545 -0.277 27 22 19
-2737.4709 5424.6938 502.7476 0.649 -0.695 -0.309 38 22 22
-2732.6519 5433.1362 495.8748 0.642 -0.702 -0.308 45 29 29
-2727.4651 5440.9282 488.9129 0.642 -0.702 -0.308 59 43 43
-2722.2681 5448.7354 481.9374 0.642 -0.702 -0.308 75 56 56
-2704.6277 5468.4688 460.5353 0.613 -0.729 -0.303 158 127 122
-2680.3044 5457.7085 443.7935 0.072 -0.747 0.661 148 117 112
-2810.3931 5725.4863 462.6416 -0.091 -0.914 -0.395 134 105 99
-2803.6121 5731.2910 455.0134 -0.057 -0.998 -0.016 116 85 80
-2641.3254 5436.3105 418.3605 0.031 -0.733 0.680 105 73 67
-2629.8862 5432.0537 410.2164 -0.126 -0.893 0.433 122 84 77
-2761.7112 5725.8242 421.7776 -0.238 -0.969 -0.063 184 141 135
-2671.2034 5623.4805 380.4310 0.367 -0.666 -0.650 175 132 126
-2560.1875 5648.1123 279.2198 0.948 -0.015 -0.319 174 122 108
-2363.6506 5564.5156 142.8149 0.459 -0.719 0.522 155 109 93
-2354.6470 5564.7446 135.2012 0.459 -0.719 0.522 153 106 90
-2345.0334 5563.5918 127.5417 0.453 -0.721 0.524 154 108 92
-2339.2476 5570.9907 120.2104 0.495 -0.694 0.523 154 108 92
-2328.4885 5567.2305 112.4688 0.450 -0.724 0.524 158 118 99
-2320.0122 5589.1455 98.0041 0.730 -0.374 0.572 150 112 93
-2331.7258 5699.8340 70.5881 0.509 -0.588 -0.628 153 115 97
-2328.5913 5713.9707 63.2106 0.514 -0.595 -0.618 152 114 97
-2315.7566 5705.6592 55.2620 0.502 -0.865 -0.016 140 108 94
-1958.6683 5025.2720 -14.8541 -0.140 -0.973 -0.182 208 179 181
-1978.8009 5093.0547 -20.7949 0.527 -0.550 -0.649 207 178 182
-1992.0872 5144.8091 -27.0767 -0.100 -0.914 -0.393 207 178 183
-1870.9496 4985.2358 -74.8182 0.632 -0.682 -0.369 230 207 215
-1926.0284 5183.5791 -95.4099 -0.388 -0.906 0.171 222 196 205
-1850.1167 5031.9102 -107.9520 0.703 -0.709 -0.058 198 176 183
-1878.2999 5124.1001 -115.3612 0.263 -0.921 0.286 242 221 228
-1847.8153 5066.4771 -121.5023 0.554 -0.710 -0.434 233 225 230
-1801.8993 4968.5547 -127.0090 0.639 -0.769 0.006 255 251 254
-1812.4648 5056.8633 -147.8604 0.453 -0.892 0.006 254 249 253
-1747.2587 4926.5728 -158.6301 0.112 -0.975 -0.190 254 249 253
-1943.3700 5557.5942 -206.6634 -0.520 -0.729 0.446 252 247 251
-1929.5093 5543.5039 -213.5276 -0.520 -0.729 0.446 253 249 252
-1888.4581 5501.7720 -233.8574 -0.520 -0.729 0.446 229 224 228
-1788.5697 5250.0664 -232.8304 0.981 -0.066 0.184 241 236 240
-1782.6633 5256.1392 -239.8167 0.981 -0.069 0.181 246 241 245
-1752.9438 5403.7769 -314.3400 -0.270 -0.640 0.720 255 245 251
-886.8491 5497.1943 -1070.7382 0.507 -0.753 -0.419 220 140 143
-895.0875 5590.1470 -1095.0992 0.645 -0.741 -0.185 212 134 136
-456.3951 4454.5601 -1080.4542 -0.556 -0.827 0.087 255 156 170
-135.6174 3386.1477 -989.6949 0.748 -0.316 -0.584 238 88 111
-126.9451 3476.4810 -1027.3306 -0.173 -0.959 0.226 249 61 97
-44.1573 3465.1399 -1092.8163 0.178 -0.687 -0.704 206 44 61
-40.2355 3479.1699 -1100.8170 0.182 -0.696 -0.695 220 56 73
-22.0078 3159.2783 -1008.5053 -0.519 -0.849 -0.101 247 85 101
-0.3434 3023.9868 -981.1457 0.369 -0.390 -0.844 223 132 124
-2281.3276 2588.2781 1067.2819 0.102 -0.734 0.672 182 181 177
-3869.1899 4590.2314 1717.0067 0.678 0.028 0.735 168 158 156
-3702.9229 4510.8374 1604.8636 0.446 -0.443 0.778 184 173 172
-3718.9536 4539.5581 1608.5411 0.509 -0.358 0.783 184 168 163
-3882.5156 4780.7588 1663.6187 -0.052 -0.887 -0.459 158 136 125
-3710.5728 4671.7202 1556.7703 -0.415 -0.755 0.507 146 121 99
-3441.8147 4463.0674 1402.7030 -0.127 -0.773 -0.622 166 140 123
-3298.4917 4343.2104 1323.4506 0.009 -0.962 -0.273 156 125 111
-1782.4193 2527.7925 670.5781 0.160 -0.695 0.701 164 147 133
-3777.5156 5190.9712 1436.8796 0.816 -0.472 0.333 179 169 160
-3805.0508 5239.7104 1443.3967 0.816 -0.424 -0.392 179 169 160
-3808.2727 5257.2461 1440.1516 0.830 -0.413 -0.375 181 171 162
-3798.3242 5257.7764 1431.6530 0.805 -0.431 -0.408 186 173 165
-3823.1653 5330.8159 1427.6871 0.116 -0.697 0.707 184 170 161
-3715.3894 5230.0308 1371.7000 0.704 -0.708 0.058 179 162 154
-3711.4246 5238.2964 1365.5848 0.408 -0.913 -0.023 181 164 156
-3680.3123 5210.5933 1348.9515 0.282 -0.582 0.763 184 167 159
-3638.2810 5168.2012 1328.1628 0.257 -0.385 0.886 184 167 159
-3625.7336 5164.8726 1318.7981 0.499 -0.480 0.721 184 167 160
-3610.5803 5158.0249 1308.4459 0.509 -0.475 0.718 185 168 161
-3607.3464 5167.1060 1302.6660 0.490 -0.456 0.743 188 171 163
-3595.7246 5164.9434 1293.6803 0.490 -0.456 0.743 187 170 160
-3584.7498 5163.6255 1284.9495 0.874 -0.448 0.189 187 170 160
-3578.4231 5168.5693 1277.9847 0.864 -0.460 0.206 189 172 162
-3503.9751 5330.1519 1161.0033 0.246 -0.900 0.361 197 178 172
-3495.8281 5332.9326 1153.2488 0.419 -0.908 -0.020 198 179 173
-3484.1865 5330.6973 1144.2711 0.404 -0.915 -0.025 206 189 182
-3426.2163 5290.4438 1109.4299 -0.346 -0.859 0.378 191 174 167
-3365.1873 5361.9570 1034.1759 0.957 0.023 -0.291 185 166 160
-3372.9468 5388.5488 1031.6577 0.986 0.020 -0.165 179 160 154
-3374.8835 5406.5225 1027.1897 0.987 0.026 -0.160 200 181 175
-3332.0244 5417.5171 987.6267 -0.293 -0.887 0.357 200 179 174
-3205.8418 5239.5596 942.3859 0.739 -0.176 0.650 197 176 171
-3108.3757 5407.2759 804.0792 0.908 -0.368 -0.200 187 162 158
-3105.3228 5418.2251 797.8177 0.908 -0.368 -0.200 183 158 154
-3023.0137 5394.2036 737.1264 0.825 -0.529 0.199 161 128 119
-2967.5808 5381.5454 695.0604 0.301 -0.653 0.695 129 114 101
-2948.8528 5365.8555 684.7140 0.318 -0.724 0.612 122 108 97
-2901.9121 5334.0078 656.2487 0.164 -0.986 0.000 42 26 13
-2893.3257 5335.4360 648.5850 0.164 -0.986 0.000 38 25 13
-2896.0952 5356.5728 643.7419 0.285 -0.937 0.202 34 26 19
-2880.1477 5378.1758 623.0897 0.337 -0.894 -0.294 28 27 25
-2869.8728 5376.7104 614.9939 0.316 -0.902 -0.294 29 25 22
-2860.4165 5376.6621 607.1029 0.324 -0.901 -0.289 27 23 20
-2855.9783 5385.4814 600.4046 0.235 -0.934 -0.269 27 23 20
-2883.7629 5451.5923 601.2466 0.867 -0.363 0.342 26 25 23
-2880.0164 5461.9150 594.6175 0.860 -0.376 0.346 27 23 20
-2860.1848 5477.7139 572.6833 0.864 -0.371 0.342 27 22 19
-2844.1621 5483.2490 557.4103 0.669 -0.691 -0.274 27 22 19
-2831.9177 5478.3169 548.8420 0.791 -0.545 -0.277 27 22 19
-2824.8940 5482.8594 541.4301 0.769 -0.573 -0.282 28 22 19
-2734.0461 5385.0620 498.5862 0.133 -0.843 -0.521 38 20 20
-2732.0859 5433.4224 480.5676 0.628 -0.717 -0.303 103 87 87
-2726.7900 5441.0200 473.5660 0.628 -0.717 -0.303 127 108 107
-2849.3787 5707.8013 485.7172 -0.054 -0.864 -0.501 151 122 118
-2813.9409 5733.8247 447.2700 -0.093 -0.911 -0.401 131 100 95
-2647.5168 5431.8521 410.3824 0.043 -0.791 0.611 167 135 130
-2636.9233 5429.2568 402.4030 -0.126 -0.893 0.433 188 150 145
-2624.7419 5423.5400 394.1530 -0.126 -0.893 0.433 179 138 134
-2711.8745 5705.7607 371.4267 0.268 -0.676 -0.687 186 140 134
-2372.2466 5525.3164 148.5437 0.342 -0.939 -0.008 130 81 66
-2362.0959 5522.9409 140.8603 0.366 -0.929 -0.063 141 92 77
-2356.1709 5529.8589 133.5626 0.338 -0.757 0.558 153 104 89
-2349.0095 5534.0674 126.1488 0.345 -0.769 0.539 156 107 92
-2335.8992 5525.0449 118.2418 0.424 -0.687 0.590 155 106 91
-2326.5425 5524.3184 110.6637 0.424 -0.687 0.590 154 106 91
-1983.0029 5085.8047 -28.0830 0.554 -0.569 -0.608 207 178 182
-2013.8793 5179.7764 -34.0920 -0.261 -0.941 -0.213 208 179 184
-1877.6161 4984.4883 -81.8926 0.634 -0.684 -0.361 233 207 216
-1934.0746 5185.6309 -102.8079 -0.388 -0.906 0.171 229 203 212
-1857.1594 5012.1021 -108.3512 0.354 -0.921 -0.161 224 201 209
-1884.9976 5123.0576 -122.6532 0.256 -0.921 0.294 241 220 227
-1831.1432 5005.9209 -128.0127 0.421 -0.907 -0.031 251 243 248
-1801.6583 4950.3345 -133.8411 0.545 -0.832 -0.105 255 251 255
-1949.5032 5553.6504 -214.5536 -0.523 -0.728 0.444 252 247 251
-1935.5853 5539.4766 -221.3910 -0.523 -0.728 0.444 232 227 231
-1790.7158 5236.4775 -239.9070 0.981 -0.168 0.094 242 237 241
-1787.6505 5250.3276 -247.1612 0.981 -0.168 0.094 246 241 245
-1782.6260 5258.8550 -254.2510 0.971 -0.191 0.142 253 248 252
-1751.0450 5377.5283 -320.8533 -0.280 -0.650 0.707 255 245 251
-1731.2601 5344.0020 -326.0424 -0.268 -0.650 0.711 241 230 236
-1581.3652 5206.7798 -404.9086 -0.405 -0.858 0.316 232 194 207
-909.6848 5463.8745 -1053.6489 0.433 -0.671 -0.601 226 149 151
-900.9828 5456.9404 -1058.5770 0.468 -0.656 -0.592 225 149 149
-894.9420 5465.1870 -1066.4215 0.439 -0.722 -0.535 225 145 148
-898.9808 5576.4878 -1100.7415 0.441 -0.763 -0.473 211 135 137
-443.9514 4403.4614 -1083.9396 -0.528 -0.843 0.099 254 138 162
-136.7673 3340.8762 -980.9146 0.802 -0.225 -0.554 235 90 111
-133.5160 3456.6455 -1022.8441 0.779 -0.227 -0.585 244 71 101
-134.7828 3826.3381 -1146.9984 0.556 -0.827 0.076 249 46 82
-61.7485 3165.3479 -984.1949 0.693 -0.220 -0.687 185 2 19
-39.3323 3487.2690 -1111.9730 0.681 -0.554 -0.480 227 65 82
-24.7336 3152.4712 -1010.7857 -0.518 -0.851 -0.085 245 86 101
-2279.8792 2592.0095 1057.3529 0.281 -0.753 0.594 183 182 178
-3791.4810 4654.3223 1616.5404 0.004 -0.784 -0.620 165 141 129
-3823.9600 4702.4570 1627.2512 0.007 -0.763 -0.647 158 136 125
-3353.4036 4388.7065 1341.2068 -0.423 -0.872 0.247 160 150 130
-3334.1729 4376.0396 1329.4636 -0.423 -0.872 0.247 162 148 129
-3310.2354 4357.5679 1315.7689 -0.431 -0.896 0.104 162 146 128
-3788.6089 5299.4951 1394.0555 0.040 -0.644 0.764 189 172 164
-3662.2805 5160.2773 1336.0197 0.258 -0.510 0.821 189 172 164
-3658.1311 5168.1133 1329.8805 0.286 -0.495 0.820 190 173 165
-3694.9573 5230.3159 1339.4236 0.520 -0.135 0.843 190 173 165
-3669.0769 5263.9126 1306.3441 0.639 -0.445 0.627 198 181 171
-3660.0444 5265.4961 1298.2587 0.639 -0.445 0.627 198 181 171
-3666.7319 5288.3296 1296.0560 0.658 -0.431 0.618 198 181 171
-3664.1023 5298.6406 1290.3422 0.650 -0.429 0.627 197 180 170
-3309.5479 4920.0840 1123.3052 0.811 -0.077 0.580 196 181 174
-3252.5999 4866.7847 1093.9163 0.901 -0.084 0.425 198 180 176
-3353.8025 5048.1260 1116.5942 0.760 -0.116 0.640 200 181 175
-3388.7681 5124.6934 1119.6830 0.749 -0.137 0.648 201 182 176
-3454.4675 5231.7041 1138.0601 0.076 -0.871 0.485 201 182 176
-3503.2847 5329.6719 1145.4194 0.419 -0.908 -0.020 193 174 168
-3491.7327 5327.5845 1136.4817 0.404 -0.915 -0.025 199 182 175
-3490.5320 5340.3276 1131.1318 0.381 -0.924 0.017 206 189 182
-3479.8340 5339.4551 1122.4930 0.377 -0.925 0.047 199 182 175
-3473.7019 5345.1528 1115.4270 0.375 -0.920 0.109 190 173 166
-3471.3708 5356.3711 1109.6528 0.378 -0.919 0.113 189 172 165
-3472.5925 5387.5239 1100.0461 0.372 -0.927 0.059 191 174 167
-3358.2139 5307.7954 1031.6990 0.992 -0.097 -0.086 197 180 173
-3367.7966 5351.5952 1024.7625 0.957 0.023 -0.291 199 180 174
-3367.2114 5365.6240 1019.4882 0.998 0.060 -0.025 201 182 176
-3370.5151 5385.5522 1015.4497 0.998 0.057 -0.026 189 168 163
-3184.1284 5192.3418 925.6632 0.793 -0.150 0.590 200 179 174
-3164.9165 5436.3828 826.3658 -0.276 -0.384 0.881 127 102 98
-2966.0969 5237.0874 728.2695 0.779 -0.612 0.135 185 152 143
-3009.9578 5357.2700 723.9103 0.866 -0.438 0.239 158 125 116
-3020.1409 5406.5435 715.6084 0.718 -0.691 -0.086 160 128 118
-3019.5652 5421.8301 709.9128 0.720 -0.693 -0.032 150 128 118
-2913.7966 5355.5737 644.1622 0.217 -0.976 0.008 43 29 19
-2875.3958 5354.4561 612.4656 0.824 -0.390 0.412 25 24 22
-2873.4160 5367.4912 606.3654 0.042 -0.993 -0.112 28 24 21
-2860.4578 5377.8774 591.9977 -0.001 -1.000 0.006 28 24 21
-2865.1328 5402.8521 587.3836 0.760 -0.438 0.479 27 23 22
-2845.5439 5452.5767 554.0577 0.758 -0.476 0.445 28 20 18
-2759.2673 5347.4131 517.8618 -0.044 -0.955 0.292 27 20 18
-2715.2244 5317.5483 491.2587 0.586 -0.793 -0.167 55 39 39
-2731.9084 5365.2588 488.9202 -0.249 -0.892 0.377 70 54 54
-2860.6733 5749.2852 465.4807 -0.060 -0.867 -0.494 131 98 93
-2613.7676 5494.2925 346.2158 0.039 -0.995 -0.097 182 137 131
-2698.9087 5778.6797 320.3253 -0.229 -0.878 0.421 178 128 119
-2517.2305 5581.7197 235.7511 -0.175 -0.461 0.870 173 121 107
-2506.6736 5598.6274 221.1648 -0.191 -0.852 0.486 173 122 105
-2379.2939 5522.8179 140.6205 0.342 -0.939 -0.008 134 87 71
-2369.2314 5520.6626 132.9500 0.366 -0.929 -0.063 120 73 57
-2362.7087 5526.2617 125.5914 -0.037 -0.922 0.385 104 57 41
-2341.0659 5518.4536 110.1759 0.062 -0.998 -0.005 159 112 96
-2331.2969 5516.8154 102.5744 0.363 -0.778 0.514 162 116 100
-1986.9513 5077.9678 -35.3676 0.040 -0.996 0.082 208 179 183
-2025.9540 5191.1128 -41.3842 -0.262 -0.942 -0.211 207 178 183
-1883.7919 4982.5000 -88.9741 0.634 -0.684 -0.361 224 201 209
-1877.3885 4986.1396 -95.5647 0.654 -0.730 0.199 227 204 212
-1861.8793 5026.3198 -122.2266 0.665 -0.739 0.108 225 204 211
-1855.7631 5030.8481 -128.8804 0.665 -0.739 0.108 238 219 225
-1838.8247 5007.8262 -135.1763 0.426 -0.900 -0.090 245 237 242
-1789.2518 5213.0933 -246.6084 0.960 -0.203 0.191 249 244 248
-1722.7953 5299.0073 -331.4297 0.166 -0.802 0.573 246 235 241
-1705.0834 5271.1143 -336.7100 0.007 -0.678 0.735 240 229 235
-1640.3413 5269.3438 -390.1875 -0.225 -0.974 -0.022 254 249 253
-1580.7084 5183.9224 -410.8618 0.063 -0.998 -0.003 237 199 212
-1327.8634 4551.8213 -406.4459 0.949 -0.310 0.053 239 192 205
-914.5513 5456.8008 -1060.4138 0.294 -0.944 -0.153 230 153 155
-908.4974 5464.9443 -1068.2489 0.468 -0.769 -0.436 229 153 155
-906.2294 5494.8569 -1080.3474 0.487 -0.760 -0.430 228 148 151
-479.8031 4582.2363 -1125.2379 0.326 -0.784 -0.528 255 154 170
-364.5136 3810.8777 -958.4125 0.123 -0.770 0.627 255 82 122
-136.7000 3360.5356 -995.0900 0.784 -0.159 -0.600 245 87 112
-139.4383 3855.0896 -1161.5082 0.862 -0.477 0.168 249 43 81
-87.2135 2645.4587 -792.4960 0.930 -0.095 0.356 248 35 66
-84.4303 2653.6086 -797.6011 0.930 -0.095 0.356 241 29 59
-3768.7769 4585.0098 1607.6161 0.043 -0.689 -0.724 168 148 140
-3417.7209 4466.5972 1355.3527 -0.398 -0.752 -0.525 156 150 128
-3477.1868 4697.6646 1325.5898 0.523 0.040 0.851 191 168 162
-3641.5596 5133.2334 1313.1100 0.681 -0.727 0.092 194 177 169
-3530.4756 5077.8672 1239.4354 0.568 -0.233 0.790 195 179 166
-3483.0776 5053.5190 1208.2483 0.456 -0.306 0.835 194 176 166
-3301.0640 4857.2437 1123.7960 0.138 -0.303 0.943 195 178 171
-3506.9631 5335.4282 1131.3276 0.377 -0.914 0.150 198 181 174
-3496.0583 5334.2900 1122.6188 0.388 -0.913 0.125 198 181 174
-3480.6111 5326.6069 1112.3680 0.391 -0.909 0.147 198 181 174
-3502.4736 5372.5820 1114.8165 0.853 -0.516 0.079 198 181 174
-3497.4041 5379.9180 1108.0659 0.853 -0.516 0.079 199 182 175
-3405.3154 5261.2573 1071.9879 0.310 -0.892 0.329 198 181 174
-3385.2095 5246.4370 1060.3016 0.335 -0.891 0.305 198 181 174
-3401.9482 5285.1851 1060.9573 0.169 -0.934 0.314 198 181 174
-3364.6775 5245.2378 1043.5803 0.981 -0.124 0.149 199 182 175
-3353.3748 5272.0210 1024.9469 0.965 0.051 0.258 197 180 173
-2946.9612 5160.4146 724.1511 0.790 -0.439 -0.428 189 161 154
-2969.8091 5213.2192 725.0754 0.752 -0.633 -0.185 183 153 145
-3050.5916 5377.8574 735.9228 0.379 -0.799 0.467 186 153 144
-2996.5806 5351.8569 699.7850 0.882 -0.425 0.203 169 138 128
-2990.3704 5406.0605 675.9809 -0.223 -0.789 0.573 131 118 109
-2925.5413 5360.5479 637.5192 0.307 -0.893 0.328 37 25 14
-2916.2512 5360.8760 629.6542 0.310 -0.885 0.348 37 28 22
-2909.5842 5365.7295 622.4235 0.800 -0.592 0.096 30 25 21
-2885.1611 5339.7524 610.9677 0.917 -0.398 0.020 30 26 23
-2876.4919 5357.4800 597.6431 0.779 -0.311 0.544 31 27 24
-2819.3027 5372.7661 544.6689 0.728 -0.569 0.383 40 35 32
-2785.3423 5345.3535 525.7477 -0.025 -0.962 0.274 37 32 29
-2779.4763 5368.4482 512.9184 0.052 -0.962 0.269 38 32 29
-2766.1218 5361.1206 504.2921 0.121 -0.954 0.276 53 42 40
-2754.3716 5373.6641 490.1774 0.823 -0.512 -0.245 99 83 83
-2747.1926 5377.5742 482.8433 -0.130 -0.936 0.328 121 105 105
-2695.1284 5349.7837 448.9451 0.042 -0.786 0.617 125 108 107
-2420.3286 5534.6406 156.1242 -0.136 -0.872 -0.469 163 114 97
-2379.5212 5525.2588 125.2948 -0.159 -0.887 -0.433 143 96 80
-2363.1606 5529.2329 110.2771 -0.029 -0.936 0.350 114 67 51
-2348.6536 5517.2246 102.2968 0.065 -0.998 -0.012 99 52 36
-2333.2617 5503.1392 94.2921 0.167 -0.986 0.025 119 72 56
-2317.7437 5488.6411 86.3237 0.139 -0.876 0.461 148 106 90
-2289.2590 5485.0615 63.7841 0.380 -0.747 0.545 155 117 98
-2285.1184 5495.9209 56.5979 0.422 -0.816 -0.394 162 124 105
-2256.7053 5492.2710 34.1420 0.388 -0.656 0.647 158 121 102
-2258.2070 5516.2153 27.1689 0.392 -0.631 0.669 154 123 111
-2058.1746 5230.5127 -41.5961 -0.153 -0.964 -0.215 208 179 183
-2025.1233 5171.4448 -48.8831 -0.165 -0.948 -0.273 208 179 184
-1888.0061 4975.6606 -96.0395 0.648 -0.735 0.201 219 198 205
-1881.6693 4979.4507 -102.6295 0.648 -0.735 0.201 220 197 205
-1872.6906 5016.0234 -122.6868 0.729 -0.682 -0.060 213 192 199
-1907.0853 5142.8589 -137.5611 0.398 -0.770 0.498 236 217 223
-1846.9668 5175.6528 -198.9946 0.925 -0.379 -0.032 253 248 252
-1780.4578 5236.0820 -275.2554 -0.273 -0.909 0.316 252 247 251
-1677.6234 5103.8081 -315.6234 0.441 -0.194 0.876 255 248 255
-1744.0348 5339.8071 -341.2850 0.196 -0.831 0.521 247 238 243
-1621.7717 5264.6489 -417.4883 0.080 -0.512 0.855 236 203 214
-868.8622 5788.1436 -1225.6190 0.056 -0.938 -0.343 228 115 123
-559.5745 4428.2969 -1016.5219 0.632 -0.120 -0.766 245 27 76
-380.7326 3882.1731 -978.1337 -0.057 -0.998 0.007 251 85 118
-361.2465 3742.9702 -946.5698 0.176 -0.934 -0.312 254 81 119
-142.7522 3847.8950 -1164.9443 0.862 -0.477 0.168 242 38 75
-86.4155 2643.0493 -798.0196 0.946 -0.107 0.307 236 24 56
-3705.2178 4460.7925 1583.9952 0.528 -0.493 0.692 179 169 170
-3720.8784 4509.6997 1580.1283 0.523 -0.526 0.670 169 153 148
-4152.2817 5005.9312 1768.0524 -0.135 -0.989 -0.059 167 147 138
-3845.4746 4682.4985 1624.2041 0.057 -0.774 -0.630 159 136 124
-3331.0247 4480.8184 1265.1396 0.996 -0.080 0.029 186 159 152
-3343.5266 4518.7134 1262.4497 0.996 -0.080 0.041 193 163 160
-3364.0979 4555.7798 1266.7733 0.997 -0.081 -0.007 196 168 164
-3348.9443 4548.0425 1256.8184 0.980 -0.170 0.104 198 168 165
-3363.6565 5273.2104 1018.1783 0.976 -0.218 0.022 197 180 173
-3348.7043 5265.7251 1008.3043 0.943 -0.199 0.266 197 180 173
-3228.2690 5102.2290 964.4783 0.772 -0.633 0.066 197 180 173
-3167.7297 5040.4648 935.3829 0.493 -0.867 0.077 199 180 174
-2952.3660 5154.9653 716.2395 0.659 -0.629 -0.413 191 162 155
-3083.1697 5400.5981 740.2896 0.282 -0.769 0.574 192 159 152
-3094.5591 5435.4199 737.7358 0.290 -0.819 0.494 193 159 150
-3070.8491 5412.3364 725.9579 0.294 -0.724 -0.624 188 155 146
-2982.5474 5345.2998 675.5438 0.258 -0.954 -0.150 165 148 138
-2931.4531 5355.4585 629.4370 0.310 -0.885 0.348 66 53 43
-2922.0769 5355.6460 621.5563 0.310 -0.885 0.348 66 57 51
-2907.7920 5347.3428 612.5211 0.829 -0.553 0.082 68 61 58
-2894.5686 5373.6475 592.3969 0.018 -0.990 -0.143 68 64 61
-2888.5344 5379.6499 585.2900 -0.038 -0.988 -0.147 71 66 63
-2874.2209 5371.1465 576.3005 -0.018 -0.997 -0.071 70 66 63
-2865.0579 5371.6348 568.4932 -0.011 -0.996 -0.091 70 66 65
-2849.9939 5361.6860 559.3782 0.673 -0.624 0.397 75 71 68
-2833.3884 5382.3237 538.3953 0.053 -0.984 -0.167 82 77 74
-2799.3096 5388.6416 507.8011 -0.104 -0.971 -0.216 86 80 77
-2754.9370 5375.9648 475.1986 -0.130 -0.936 0.328 161 145 145
-2777.7141 5434.9717 473.7693 0.075 -0.964 0.254 168 152 152
-2767.5903 5433.6602 465.7839 0.075 -0.964 0.254 161 146 146
-2712.4534 5348.9883 449.1179 0.042 -0.786 0.617 103 87 87
-2530.6462 5672.6313 185.5851 0.996 -0.078 -0.051 169 118 101
-2397.2261 5526.0928 125.0677 0.392 -0.899 0.196 161 114 98
-2389.8403 5529.8521 117.6103 0.157 -0.987 0.031 157 110 94
-2382.3940 5533.4863 110.1456 -0.044 -0.937 0.347 155 108 92
-2371.7612 5530.1348 102.4418 -0.044 -0.937 0.347 161 114 98
-2356.6169 5516.7974 94.4321 0.065 -0.998 -0.012 147 100 84
-2340.7217 5501.6748 86.4142 0.167 -0.986 0.025 114 68 52
-2323.5293 5483.5342 78.3593 0.139 -0.876 0.461 96 55 37
-2289.1863 5466.8364 55.5083 0.376 -0.921 0.105 128 90 71
-2289.7253 5488.1680 48.5772 0.442 -0.802 -0.402 152 114 95
-2251.7861 5462.7930 25.7308 0.422 -0.762 -0.491 150 113 94
-2257.2192 5495.5698 18.9190 0.377 -0.626 0.682 154 123 111
-2160.7212 5456.3110 -47.9382 0.090 -0.831 0.549 208 179 183
-1926.8073 5174.4429 -145.4038 0.507 -0.766 0.396 235 216 222
-1912.7443 5159.5337 -151.9681 0.433 -0.778 0.455 242 231 237
-1846.6702 5156.2397 -205.9077 0.928 -0.372 -0.034 244 239 243
-1778.2084 5210.4272 -281.7260 -0.205 -0.924 0.324 252 247 251
-1770.9783 5396.5801 -352.1608 0.295 -0.811 0.505 247 238 243
-1684.2400 5193.5889 -354.2318 -0.027 -0.627 0.778 237 226 232
-1704.8433 5347.7720 -390.4036 -0.112 -0.690 0.715 253 242 248
-1652.8462 5313.6040 -421.9262 -0.336 -0.942 -0.009 255 240 248
-1393.5848 5981.0581 -868.9813 -0.244 -0.856 0.455 238 198 209
-920.5208 5969.5547 -1259.3466 0.734 -0.177 0.656 222 127 124
-876.8099 5797.9028 -1236.3933 0.057 -0.933 -0.357 229 116 124
-864.8057 5873.0596 -1272.4039 0.973 -0.016 -0.230 240 83 108
-586.7180 4592.7578 -1061.2405 0.578 -0.136 -0.805 247 34 81
-512.9341 4735.7822 -1172.2321 0.403 -0.848 0.345 255 159 165
-495.0347 4632.9141 -1151.5613 0.121 -0.825 -0.552 255 153 167
-153.5011 3907.5364 -1185.2866 0.463 -0.767 -0.445 240 45 82
-150.2189 3944.3438 -1200.7578 0.369 -0.800 -0.474 240 39 75
-4235.8877 4790.4458 1897.7654 -0.700 -0.692 -0.176 84 75 66
-3804.6072 4539.6440 1626.0135 -0.235 -0.799 -0.554 188 177 181
-3692.7117 4467.5337 1557.9606 0.630 -0.718 -0.295 169 152 146
-4181.6089 5026.9736 1770.1525 -0.009 -1.000 -0.023 169 148 139
-3579.7588 4475.8057 1461.0195 0.559 -0.800 -0.218 146 121 99
-3570.1133 4485.9302 1449.4597 0.604 -0.767 -0.218 145 122 99
-3564.5352 4490.1309 1443.3510 0.602 -0.765 -0.228 154 133 112
-3564.5527 4500.8862 1439.6182 0.605 -0.762 -0.231 155 137 115
-3559.9546 4506.2705 1433.9128 0.605 -0.762 -0.231 155 137 117
-3288.9670 4406.7573 1242.9277 0.865 -0.308 0.396 173 145 136
-3285.2690 4413.0317 1237.6621 0.887 -0.463 -0.007 178 141 137
-3279.8157 4417.1396 1231.6896 0.793 -0.599 -0.107 188 149 148
-3277.0071 4424.5605 1226.7650 0.799 -0.593 -0.098 196 158 157
-3284.5173 4444.9341 1225.9203 0.823 -0.554 -0.124 203 166 165
-3317.6838 4497.6274 1235.1788 0.920 -0.350 0.177 203 166 164
-3004.6772 5195.4312 731.3930 0.855 -0.416 0.310 189 164 160
-3103.6030 5419.0854 735.8430 0.316 -0.799 0.512 198 165 159
-3151.9338 5547.5479 731.3290 0.878 -0.211 -0.430 194 162 154
-2942.2783 5358.7700 622.5193 0.340 -0.880 0.333 138 123 112
-2933.1094 5359.3477 614.6828 0.340 -0.880 0.333 143 132 127
-2921.0032 5354.8564 606.1665 0.820 -0.566 0.087 143 134 132
-2907.2327 5380.2788 585.8413 -0.038 -0.988 -0.147 144 138 135
-2898.2078 5381.0957 578.0414 -0.038 -0.988 -0.147 146 139 136
-2889.1897 5381.9116 570.2477 -0.038 -0.988 -0.147 145 139 137
-2880.1790 5382.7266 562.4602 -0.038 -0.988 -0.147 146 140 138
-2866.9766 5376.1479 553.7584 0.021 -0.993 -0.114 142 137 134
-2859.6975 5379.9712 546.3647 0.063 -0.907 -0.416 139 133 131
-2852.4529 5383.8628 538.9761 0.063 -0.907 -0.416 140 133 131
-2844.2212 5386.0059 531.3746 0.063 -0.983 -0.173 141 134 132
-2817.3108 5388.4292 508.1212 -0.325 -0.943 -0.075 150 143 141
-2828.5183 5425.5762 504.5107 -0.151 -0.924 -0.352 151 143 141
-2819.9033 5427.1079 496.8030 -0.151 -0.924 -0.352 169 156 155
-2799.6934 5407.5928 486.7735 -0.108 -0.903 -0.416 180 163 163
-2721.3079 5349.5513 441.7231 -0.007 -0.790 0.614 102 83 84
-2697.6523 5801.1465 264.6747 -0.108 -0.846 0.521 182 130 116
-2349.1704 5502.3652 78.5889 0.171 -0.985 0.019 174 128 112
-2329.3145 5478.4268 70.3952 0.139 -0.876 0.461 155 117 96
-2295.6370 5463.3052 47.6200 0.376 -0.921 0.105 110 74 55
-2301.0481 5495.5234 40.9000 0.445 -0.823 -0.353 103 67 47
-2272.6316 5451.6680 32.5174 0.438 -0.749 -0.496 107 71 51
-2264.3889 5453.1313 25.1437 0.422 -0.764 -0.489 115 79 59
-2260.1531 5463.6934 17.9361 0.434 -0.753 -0.495 121 85 66
-2260.5171 5484.8174 10.8790 0.377 -0.626 0.682 137 104 90
-2105.9834 5308.2441 -56.2816 -0.446 -0.895 0.022 208 179 183
-1987.3082 5104.7178 -84.1909 -0.452 -0.886 0.102 232 203 208
-1835.5360 5236.6821 -256.5563 -0.268 -0.936 0.226 252 247 251
-1779.5483 5151.0659 -273.3474 -0.363 -0.870 0.335 252 247 251
-1793.7410 5211.5107 -282.5895 -0.271 -0.899 0.343 252 247 251
-1700.0433 5219.1992 -363.2932 0.001 -0.708 0.706 236 226 232
-1686.6379 5203.5220 -368.9938 -0.312 -0.778 0.544 234 222 228
-1673.3225 5187.9331 -374.6502 -0.322 -0.773 0.547 252 243 248
-1655.8333 5301.5869 -428.8145 -0.341 -0.940 -0.006 255 239 247
-1631.9495 5277.9077 -440.4527 -0.263 -0.965 -0.002 240 201 214
-1601.8684 5210.4868 -442.0105 -0.091 -0.738 0.669 242 200 214
-1421.2318 6028.1387 -877.3271 0.729 -0.455 -0.512 243 203 214
-890.1692 5743.5562 -1220.4001 0.052 -0.924 -0.380 221 127 124
-884.7707 5758.6401 -1230.1514 0.047 -0.927 -0.372 223 127 127
-863.2466 5722.1538 -1235.3619 0.168 -0.894 -0.416 229 107 118
-511.2635 4679.2241 -1165.0786 0.108 -0.987 -0.122 255 159 166
-499.4412 4629.5269 -1157.6072 0.206 -0.776 -0.596 255 152 169
-456.7379 4356.5356 -1098.0487 0.465 0.029 0.885 251 124 148
-153.8198 3941.9592 -1205.8455 0.365 -0.810 -0.459 243 38 75
-75.6159 3117.8591 -983.8256 0.680 -0.227 -0.697 188 0 17
-75.5544 4094.5542 -1324.1881 0.671 -0.345 -0.656 209 44 60
-67.5865 4212.3809 -1371.8777 0.574 -0.324 -0.752 233 68 85
-30.6582 2993.6438 -977.9825 -0.452 -0.794 0.407 249 97 110
-3803.5635 4434.8828 1648.3395 -0.193 -0.580 0.792 179 170 171
-3895.1196 4607.4214 1663.9622 0.889 -0.246 0.386 189 177 177
-3821.8054 4547.9717 1623.8344 -0.205 -0.773 -0.600 189 177 179
-3817.7839 4596.7622 1603.3699 -0.032 -0.759 -0.650 171 153 145
-3585.8696 4461.6255 1457.8663 0.518 -0.854 0.041 146 122 98
-3581.1416 4466.7593 1452.1320 0.515 -0.826 -0.228 146 122 98
-3577.7805 4473.4888 1446.9747 0.509 -0.819 -0.265 147 121 98
-3565.3318 4469.6924 1437.9514 0.666 -0.476 -0.574 146 122 100
-3563.3318 4478.0225 1433.3649 0.666 -0.476 -0.574 154 133 112
-3562.4622 4487.7017 1429.2452 0.658 -0.481 -0.579 155 137 117
-3566.4795 4503.1348 1427.1720 0.605 -0.762 -0.231 155 137 117
-3585.4841 4536.2119 1431.3754 0.286 -0.898 -0.335 156 138 118
-3283.1038 4378.0244 1235.3419 0.832 -0.396 0.389 177 136 127
-3279.8933 4384.8228 1230.2860 0.830 -0.390 0.397 183 132 128
-3284.8933 4401.8198 1228.4814 0.814 -0.409 0.413 190 119 124
-3280.1094 4406.7368 1222.7766 0.805 -0.420 0.420 198 131 138
-3298.4656 4462.5410 1218.4664 0.809 -0.324 0.490 208 165 162
-3018.1418 5187.7012 730.8397 0.182 -0.982 -0.055 192 170 167
-2984.5796 5178.8589 706.0231 0.868 -0.423 -0.259 197 170 166
-3056.1426 5310.7393 719.2803 0.786 -0.580 -0.215 201 172 169
-3098.3298 5395.3936 724.6711 0.861 -0.489 -0.139 201 172 169
-3137.1208 5491.2412 723.3095 0.949 -0.158 -0.272 201 171 169
-3143.4575 5518.0352 719.1796 0.943 -0.167 -0.287 200 170 169
-2961.2761 5392.2979 611.7484 0.580 -0.809 -0.099 193 174 172
-2944.8682 5380.5718 602.2137 0.589 -0.807 0.040 192 174 172
-2920.4890 5387.8657 579.3746 0.635 -0.772 -0.029 191 173 172
-2914.0889 5393.2925 572.1465 0.651 -0.748 -0.130 191 173 172
-2908.2109 5399.6465 565.0273 0.651 -0.748 -0.130 190 172 172
-2899.2759 5400.6758 557.2336 0.655 -0.742 -0.143 190 172 172
-2875.7854 5376.1421 546.3011 0.057 -0.930 -0.362 184 168 166
-2865.1118 5374.0005 538.1736 0.063 -0.932 -0.358 179 163 162
-2869.2925 5398.0747 533.2044 0.054 -0.933 -0.356 180 163 163
-2862.2822 5402.4492 525.8380 0.012 -0.961 -0.275 180 163 163
-2853.4146 5403.5308 518.0820 -0.189 -0.980 -0.068 185 167 167
-2846.5010 5425.0366 504.7851 -0.141 -0.975 -0.171 188 171 171
-2862.2124 5470.3086 501.9700 -0.094 -0.958 -0.271 189 171 171
-2853.1499 5471.2051 494.1167 -0.085 -0.959 -0.270 192 169 170
-2822.4841 5433.0122 482.0081 -0.062 -0.964 -0.259 183 158 159
-2818.6863 5443.3057 475.2372 -0.111 -0.965 -0.238 183 158 158
-2715.8367 5323.7256 431.6382 -0.018 -0.777 0.629 185 160 160
-2716.6631 5342.2612 425.8220 0.036 -0.982 0.186 194 167 168
-2357.7363 5405.4717 105.0681 0.716 -0.512 0.474 176 127 110
-2368.1074 5526.0483 71.3884 -0.360 -0.564 0.743 176 128 110
-2302.0913 5459.7715 39.7272 0.376 -0.921 0.105 165 126 107
-2293.4919 5460.5225 32.3102 0.566 -0.769 -0.296 154 117 98
-2280.7981 5452.0547 24.7219 0.438 -0.749 -0.496 142 104 85
-2272.5801 5453.5991 17.3439 0.422 -0.764 -0.489 126 87 70
-2268.3298 5464.1226 10.1158 0.434 -0.753 -0.495 113 75 59
-2263.8076 5474.0894 2.8570 0.377 -0.626 0.682 114 81 70
-1799.8556 5165.3057 -274.7411 -0.294 -0.929 0.224 227 222 226
-1791.4125 5164.1851 -281.3712 -0.290 -0.930 0.225 234 229 233
-1777.1318 5168.9492 -294.9222 -0.293 -0.911 0.290 254 249 253
-1649.0964 5236.6602 -425.1871 -0.324 -0.905 0.275 252 235 245
-1638.0039 5227.2842 -431.1248 -0.306 -0.947 0.100 252 233 243
-991.2082 5742.3999 -1149.9048 0.726 -0.680 0.100 237 162 165
-975.5263 5743.5381 -1163.3491 0.719 -0.670 -0.187 235 156 161
-875.1524 5756.9258 -1251.5431 0.929 -0.364 0.064 235 103 119
-451.8782 3250.7285 -724.2940 0.022 -0.427 0.904 254 43 88
-682.1277 5472.8242 -1312.4288 0.014 -0.872 -0.489 248 159 159
-538.5156 4763.5020 -1183.0127 0.328 -0.890 0.316 255 160 161
-530.2322 4746.3369 -1183.8806 0.363 -0.849 0.384 255 161 160
-518.5612 4699.9116 -1177.2999 0.154 -0.939 0.307 255 156 166
-72.3112 3337.3411 -1070.4288 0.551 -0.292 0.782 201 30 44
-64.3321 3333.1179 -1075.5846 0.680 -0.323 0.659 210 43 60
-50.8833 3228.3247 -1050.0031 0.546 -0.491 0.678 238 75 91
-4251.3423 4817.2212 1872.0310 -0.686 -0.689 -0.233 111 106 100
-3791.3442 4411.4287 1633.1520 -0.161 -0.561 0.812 187 181 181
-3606.2583 4453.3452 1464.5388 -0.307 -0.951 -0.033 145 121 97
-3567.0356 4418.9326 1444.1039 -0.304 -0.951 0.064 146 122 98
-3591.7131 4457.7456 1450.8975 0.518 -0.854 0.041 155 131 107
-3577.1189 4451.5098 1440.9731 0.516 -0.856 0.036 160 136 112
-3574.8442 4459.4561 1436.2755 0.514 -0.857 0.031 159 135 111
-3562.0947 4455.3022 1427.1482 0.663 -0.473 -0.580 158 134 112
-3573.0085 4499.9961 1420.4265 0.605 -0.762 -0.231 161 144 124
-3568.4097 4505.3872 1414.7002 0.605 -0.762 -0.231 162 145 125
-3265.9753 4411.0347 1196.7184 0.768 -0.291 0.570 205 167 159
-3229.8635 5418.0889 810.9045 -0.256 -0.449 0.856 182 158 156
-3096.9761 5362.3970 720.1539 0.892 -0.414 -0.181 200 175 175
-3111.3425 5401.6265 718.2319 0.846 -0.495 -0.197 200 174 175
-3113.5210 5437.2051 707.4719 0.845 -0.492 -0.211 201 174 176
-3099.3271 5429.9810 698.2296 0.854 -0.470 -0.224 201 175 176
-3085.7629 5423.7314 689.1658 0.850 -0.514 -0.117 202 175 176
-2979.4084 5279.4082 651.7784 0.534 -0.779 0.328 200 177 175
-2967.0400 5290.3418 637.6375 0.798 -0.521 0.302 201 177 175
-2992.6655 5463.6489 597.7001 0.795 -0.606 0.024 197 175 175
-2982.9563 5463.6357 589.6366 0.787 -0.613 0.070 197 175 174
-2968.2563 5454.9834 580.4781 0.486 -0.813 0.320 194 172 172
-2960.4602 5458.2192 572.8564 0.484 -0.804 0.345 190 169 168
-2838.1611 5445.4146 475.7519 -0.111 -0.965 -0.238 187 159 158
-2829.1448 5446.3018 467.9461 -0.111 -0.965 -0.238 182 153 152
-2826.5198 5458.7783 461.3566 -0.339 -0.925 0.171 116 87 87
-2724.9629 5341.7866 418.2993 0.092 -0.975 0.204 195 165 165
-2700.9766 5331.6104 401.9622 0.033 -0.979 0.203 198 164 162
-2733.6411 5778.3740 271.2585 -0.128 -0.307 0.943 198 149 144
-2377.7986 5411.9590 105.0187 -0.442 -0.686 0.578 179 128 111
-2395.1328 5507.5552 85.6477 0.524 -0.851 -0.018 179 128 111
-2308.5491 5456.2354 31.8300 0.376 -0.921 0.105 170 129 111
-2300.5571 5458.3545 24.4401 0.566 -0.769 -0.296 177 136 118
-2287.3284 5448.7388 16.8446 0.434 -0.753 -0.495 168 130 111
-2281.9316 5456.6377 9.5692 0.434 -0.753 -0.495 156 117 100
-2276.5242 5464.5532 2.2791 0.434 -0.753 -0.495 148 110 93
-2267.0911 5463.3853 -5.1470 0.377 -0.626 0.682 153 119 110
-1834.3403 5260.7856 -293.1745 -0.242 -0.945 0.219 234 229 233
-1829.6362 5270.2114 -300.4139 -0.318 -0.940 0.120 245 240 244
-1813.3069 5248.1226 -306.1790 -0.038 -0.853 -0.521 254 249 253
-1808.5480 5257.3804 -313.4044 -0.051 -0.860 -0.508 255 251 255
-1799.7648 5255.6685 -320.0983 -0.332 -0.943 0.021 255 251 255
-1794.0011 5262.2314 -327.2066 -0.363 -0.931 0.026 255 251 255
-1776.2891 5235.7817 -332.5799 -0.346 -0.938 0.018 255 251 255
-980.1648 5733.2671 -1169.9141 0.715 -0.676 -0.180 238 159 164
-674.0831 4400.6978 -953.4485 0.141 -0.555 0.820 228 131 133
-564.9516 4252.7300 -991.8561 0.132 -0.763 0.633 253 32 86
-613.8625 4638.0688 -1087.3572 -0.107 -0.927 -0.359 249 34 83
-535.1798 4746.2686 -1190.9696 0.038 -0.981 0.193 255 160 159
-386.7858 3794.5330 -978.0219 -0.166 -0.949 -0.268 253 77 124
-147.9953 3193.0173 -963.9294 0.799 -0.177 -0.574 238 82 104
-71.4884 3342.6506 -1080.3728 0.270 -0.804 0.530 212 44 61
-67.3348 3333.1870 -1080.4807 0.649 -0.344 0.679 227 60 78
-4321.2246 4879.5703 1893.2007 -0.686 -0.689 -0.233 161 156 150
-4106.7065 4696.4292 1780.2812 -0.214 -0.821 0.529 143 139 130
-3943.0544 4670.6064 1653.6185 0.897 -0.262 0.356 175 161 161
-3941.8247 4691.0483 1645.3254 0.908 -0.245 0.339 167 155 155
-3710.3894 4508.1265 1518.2843 0.809 -0.086 0.582 151 128 111
-3629.5906 4437.9404 1476.1816 -0.031 -0.938 0.346 153 127 111
-3641.0493 4461.3828 1477.3539 0.243 -0.893 0.380 151 126 106
-3779.6453 4640.4741 1528.6908 0.713 -0.182 0.677 150 126 102
-3740.7446 4607.0142 1508.3025 0.930 -0.223 0.294 150 126 102
-3745.7119 4623.6401 1506.5112 0.927 -0.220 0.304 160 136 112
-3577.3220 4451.7075 1427.8953 -0.072 -0.995 -0.070 164 140 116
-3569.6008 4453.3696 1420.8945 0.660 -0.466 -0.589 162 140 117
-3569.4551 4474.4365 1413.2789 0.696 -0.478 -0.535 166 148 128
-3449.4683 4376.6909 1348.4504 -0.109 -0.949 0.296 168 150 130
-3101.2559 5156.7510 781.8835 0.518 -0.842 0.147 198 174 174
-3031.4424 5062.4956 757.4627 0.660 -0.683 -0.312 195 171 171
-3219.1584 5386.4722 798.0307 -0.282 -0.466 0.839 184 160 160
-2947.1912 5195.8247 640.0920 0.217 -0.971 0.099 201 176 179
-2923.1328 5171.4131 628.8058 0.071 -0.971 0.230 201 175 177
-2952.9961 5236.4468 630.4592 0.506 -0.742 0.439 202 176 177
-2966.2627 5274.2070 628.0385 0.296 -0.944 -0.147 202 176 177
-2980.9270 5314.5288 625.8668 -0.271 -0.725 0.633 202 176 177
-2950.6772 5295.6006 607.4900 0.593 -0.571 0.568 200 174 175
-2949.1387 5308.9634 601.4590 0.658 -0.562 0.501 201 175 176
-2973.7412 5448.8521 572.1152 0.449 -0.800 0.399 195 170 168
-2886.1653 5481.2900 487.8775 0.483 -0.837 0.255 199 169 171
-2869.3232 5468.3325 478.5066 0.474 -0.834 0.282 195 165 165
-2848.4719 5448.0615 468.4091 -0.060 -0.965 0.256 200 169 169
-2736.6001 5330.4277 417.3925 -0.007 -0.787 0.617 211 179 180
-2587.6099 5122.8125 367.5749 -0.316 -0.906 0.281 199 164 162
-2695.4692 5665.5093 264.0416 0.167 -0.214 0.963 197 150 144
-2703.8010 5739.9648 244.4697 -0.132 -0.343 0.930 194 144 134
-2673.7246 5718.5415 227.1244 0.020 -0.356 0.934 195 143 130
-2691.8103 5774.7236 222.1504 -0.038 -0.352 0.935 195 143 130
-2675.5444 5761.5127 213.3476 0.020 -0.196 0.980 193 141 128
-2299.3184 5477.6255 2.0338 0.517 -0.666 -0.538 173 131 115
-2277.1926 5448.0156 -5.7990 0.382 -0.575 0.724 168 128 112
-2002.2693 5011.8398 -78.8428 0.628 -0.732 0.265 203 177 180
-2043.0298 5126.5742 -85.8247 0.413 -0.505 0.758 203 176 181
-2003.0042 5051.5737 -92.3684 0.301 -0.907 -0.295 203 176 181
-1987.0236 5032.9165 -98.9966 0.312 -0.899 -0.307 224 197 202
-1900.0988 5241.7275 -245.4398 0.565 -0.477 -0.674 250 244 248
-1898.5720 5259.1772 -252.9151 0.146 -0.824 0.548 243 237 241
-1894.9841 5271.3755 -260.2331 0.137 -0.833 0.536 239 233 237
-1850.0490 5283.6084 -301.8861 -0.152 -0.976 -0.158 244 239 243
-1844.8475 5291.7915 -309.1151 -0.179 -0.975 -0.135 248 243 247
-1810.0588 5242.0347 -320.2921 -0.049 -0.840 -0.541 255 251 255
-1799.9635 5236.7095 -326.7778 -0.133 -0.990 -0.055 255 251 255
-1746.5076 5134.1963 -334.6823 -0.310 -0.939 0.147 255 251 255
-1694.4783 5378.4409 -464.7644 -0.429 -0.876 -0.219 252 216 231
-1666.1473 5342.4487 -475.4776 -0.385 -0.869 -0.311 246 202 219
-901.1672 5838.2837 -1286.8922 -0.095 -0.966 -0.242 250 95 119
-601.6530 4560.1206 -1080.8058 0.479 -0.573 0.665 231 53 86
-547.9008 4758.6978 -1196.0713 0.168 -0.941 0.295 255 159 160
-527.1381 4689.7056 -1188.7621 0.118 -0.963 0.243 255 151 164
-59.8542 3196.7896 -1045.5430 -0.227 -0.862 0.454 235 74 90
-36.0952 3084.6873 -1025.3843 0.613 -0.300 -0.731 232 124 122
-4384.5996 4890.0454 1927.1145 -0.299 -0.845 -0.442 162 153 144
-4222.4575 4786.2974 1829.8237 -0.453 -0.806 -0.382 167 162 156
-4201.5361 4775.1128 1816.4812 -0.281 -0.836 -0.470 162 157 151
-4019.3884 4613.9546 1723.1654 -0.333 -0.720 0.609 185 181 177
-3911.5781 4509.3789 1671.2249 -0.323 -0.677 0.662 191 187 186
-3738.0637 4333.9238 1590.1891 -0.161 -0.561 0.812 187 183 184
-3742.9221 4598.5474 1499.4286 0.891 -0.223 0.395 157 133 107
-3586.1072 4451.2222 1422.1646 -0.069 -0.987 -0.147 171 147 123
-3584.7070 4460.1777 1417.7957 0.728 -0.483 -0.487 169 147 124
-3578.8904 4474.6958 1407.7717 0.880 -0.389 -0.273 173 156 136
-3445.7319 4361.8711 1337.7665 0.032 -0.996 0.082 167 150 130
-3432.7144 4357.0415 1328.7017 0.143 -0.984 0.108 166 151 130
-3419.3572 4351.7754 1319.5118 0.325 -0.843 -0.428 166 151 132
-3220.0110 4258.6694 1187.5579 0.204 -0.978 -0.044 215 94 104
-3058.6343 5091.1191 755.5515 0.648 -0.705 -0.288 195 171 171
-3161.8616 5297.2290 767.3216 -0.282 -0.467 0.838 164 143 142
-2872.8064 5475.7905 463.6653 -0.373 -0.917 -0.140 148 116 117
-2861.3252 5472.3945 455.3612 -0.373 -0.917 -0.140 128 96 97
-2850.0254 5469.2837 447.1053 -0.377 -0.916 -0.140 188 154 155
-2834.6450 5458.7461 438.1259 -0.372 -0.917 -0.143 202 168 169
-2802.2617 5417.2368 426.1414 0.067 -0.950 0.305 199 165 166
-2750.1995 5339.5640 410.7923 0.078 -0.781 0.619 199 165 166
-2772.7759 5415.0454 402.4756 -0.099 -0.814 0.572 201 167 166
-2711.7356 5718.6357 243.1114 -0.168 -0.338 0.926 198 149 143
-2718.2026 5750.9355 236.9044 0.007 -0.270 0.963 195 145 135
-2457.2026 5507.1499 107.7988 0.652 -0.363 0.666 184 129 114
-2445.4155 5501.6226 100.0046 0.682 -0.337 0.649 180 128 112
-2264.1174 5361.3955 -0.1045 0.063 -0.742 0.668 168 127 109
-2253.5098 5357.3208 -7.4411 0.441 -0.514 0.735 169 127 111
-2260.4980 5392.6372 -14.2966 0.296 -0.396 0.869 169 128 113
-2070.7810 5193.9028 -100.4294 0.043 -0.959 0.280 203 176 181
-1993.2965 5088.5410 -126.9411 0.423 -0.880 0.216 225 198 203
-1919.3402 5272.5815 -254.1924 0.334 -0.483 -0.810 246 237 242
-1897.3486 5258.5479 -267.4018 0.192 -0.793 0.578 233 227 231
-1869.5039 5250.4136 -287.5779 0.068 -0.801 0.595 232 226 230
-1869.1080 5271.1309 -295.3271 0.741 -0.346 -0.576 249 244 248
-1847.7749 5236.3364 -300.5539 0.454 -0.434 0.778 251 248 251
-1827.6359 5226.1807 -313.6159 0.490 -0.490 0.721 251 246 250
-1818.5646 5223.6895 -320.2458 0.293 -0.626 0.723 250 245 249
-1802.5603 5202.3848 -325.8858 -0.043 -0.795 0.605 255 251 255
-1792.2006 5196.2134 -332.2658 -0.156 -0.784 0.600 255 251 255
-1781.5881 5189.2725 -338.5797 -0.156 -0.784 0.600 255 251 255
