ply
format ascii 1.0
element vertex 794
property float x
property float y
property float z
property float nx
property float ny
property float nz
property uchar diffuse_red
property uchar diffuse_green
property uchar diffuse_blue
end_header
-3067.5342 2830.2922 345.7036 -0.040 -0.676 0.736 93 56 39
-3051.4243 2829.2463 335.3888 -0.047 -0.661 0.749 89 56 36
-3065.4512 2846.6086 332.8064 0.557 -0.396 0.730 87 57 40
-3047.4756 2838.0361 326.5023 0.534 -0.404 0.743 84 58 45
-3008.3391 2812.1736 317.8362 0.328 -0.496 0.804 68 49 39
-2941.7373 2775.4727 297.9496 0.264 -0.611 0.747 56 50 56
-2910.1968 2761.2671 286.3004 -0.166 -0.655 0.737 18 47 60
-2933.3357 2883.5308 216.2345 0.531 -0.774 -0.346 5 44 45
-2910.0083 2869.6919 209.9610 -0.445 -0.716 0.538 14 41 40
-2784.6741 2773.6848 191.4743 -0.493 -0.729 0.475 44 43 40
-2663.9199 2775.6013 107.3002 -0.310 -0.939 -0.151 105 60 41
-2681.5977 2797.7439 103.8619 -0.355 -0.895 -0.271 108 63 44
-2664.4614 2788.3298 98.7250 -0.345 -0.902 -0.258 108 62 46
-2630.2598 2769.3967 88.5733 -0.456 -0.880 -0.134 120 74 58
-2575.5369 3068.5789 -159.2522 0.352 -0.596 -0.721 179 143 147
-2472.8279 2982.0564 -168.8866 -0.112 -0.965 0.236 175 139 143
-2469.3042 2992.4817 -178.6312 0.678 -0.624 0.388 141 105 109
-2480.7222 3011.7454 -184.3396 0.485 -0.664 0.569 133 99 100
-2586.6467 3139.4402 -201.4390 0.815 -0.262 0.516 152 118 119
-2589.3066 3172.6274 -222.9414 0.379 -0.801 0.464 182 148 149
-2534.1333 3158.4104 -250.7927 0.772 -0.127 0.623 33 17 17
-2527.9463 3159.2722 -255.6423 0.632 -0.332 0.700 26 9 9
-2498.6323 3157.5691 -274.5519 0.371 -0.359 0.857 160 128 133
-2490.5454 3156.2625 -279.1805 0.325 -0.385 0.864 190 154 161
-2471.9712 3150.8984 -288.1505 0.379 -0.361 0.852 197 160 167
-2241.5032 3172.5791 -461.4708 0.936 -0.351 -0.033 210 159 155
-2156.2126 3171.8533 -519.4627 0.588 -0.378 0.715 107 57 50
-1508.5134 2543.8252 -522.2983 0.762 -0.648 -0.006 124 55 24
-1505.6666 2546.6362 -526.2268 0.775 -0.630 -0.047 122 52 26
-1506.0253 2567.9990 -540.9965 0.890 -0.392 -0.234 122 52 26
-1495.2775 2587.6345 -562.1699 0.593 -0.802 0.070 107 35 10
-1483.4430 2591.6062 -573.0790 0.378 -0.895 0.238 106 34 9
-1476.1072 2587.8787 -575.4907 0.143 -0.887 0.439 113 41 16
-1474.9110 2593.2883 -580.1136 0.274 -0.922 0.273 113 41 16
-1472.0066 2596.1633 -584.1265 0.110 -0.933 0.344 115 41 16
-1465.6519 2593.8604 -586.8665 0.133 -0.925 0.355 116 41 16
-1461.4823 2594.8281 -590.4067 0.434 -0.873 -0.223 132 54 28
-1456.9142 2595.1895 -593.7941 0.431 -0.867 -0.250 133 53 28
-1454.6979 2599.1130 -598.0720 0.414 -0.887 -0.203 133 53 28
-1431.2577 2599.9031 -614.7053 0.544 -0.798 0.261 158 77 51
-1458.3657 2649.2380 -630.7883 0.404 -0.898 0.173 165 78 51
-1347.9823 2572.4080 -652.4993 -0.306 -0.774 0.555 171 81 54
-1373.8770 2652.8472 -691.2773 0.817 -0.328 -0.474 156 77 58
-1373.4448 2659.9846 -696.5904 0.668 -0.525 -0.527 145 76 60
-1369.2572 2660.9504 -700.1416 0.619 -0.595 -0.513 124 68 54
-1369.0852 2668.5745 -705.6184 0.614 -0.637 -0.466 105 60 49
-1368.1632 2674.9915 -710.7612 0.628 -0.620 -0.469 82 47 39
-1360.5055 2670.1904 -712.6393 0.341 -0.770 -0.540 67 37 31
-1338.4124 2641.1519 -707.3826 0.965 -0.262 0.023 59 34 39
-1319.6973 2633.3179 -714.7131 0.749 -0.262 0.609 54 35 45
-1217.4509 2590.7180 -754.9025 0.714 -0.121 0.689 122 82 71
-1212.0605 2589.0801 -757.4485 0.712 -0.128 0.690 126 81 66
-1206.5271 2587.1609 -759.8950 0.738 -0.130 0.662 131 83 66
-1122.8728 2554.0952 -794.0334 0.598 -0.569 0.564 138 84 63
-1130.9054 2664.0354 -865.7990 0.813 -0.121 -0.570 91 46 48
-1135.5713 2682.2927 -875.4313 0.810 -0.120 -0.575 77 36 40
-1132.0573 2693.3101 -885.5856 0.906 0.031 0.423 45 17 17
-1132.7166 2703.7529 -892.4735 0.922 -0.001 0.388 33 10 10
-1134.7797 2717.1152 -900.4504 0.736 -0.142 0.662 30 12 10
-1131.4315 2719.5388 -904.4506 0.652 -0.165 0.740 27 14 8
-1118.3595 2739.3911 -927.3708 0.965 0.011 0.262 36 20 12
-1115.3145 2742.5212 -931.6594 0.949 -0.010 0.316 38 25 16
-1115.3862 2752.1931 -938.4084 0.949 -0.008 0.315 39 24 15
-1113.3877 2757.5754 -943.5623 0.755 -0.071 0.652 42 24 14
-1110.0615 2760.1848 -947.6780 0.756 -0.073 0.651 52 29 20
-1102.3385 2753.4824 -948.2643 0.573 -0.229 0.787 85 42 37
-1087.9275 2742.0920 -950.1429 0.566 -0.579 0.586 102 54 48
-1079.8745 2734.4919 -950.3246 0.639 -0.467 0.611 108 59 55
-1075.2820 2734.2722 -953.3202 0.675 -0.427 0.602 114 67 62
-1028.3121 2719.0574 -974.8433 0.965 -0.001 0.262 159 83 63
-1027.6467 2727.4504 -981.1990 0.964 -0.001 0.266 158 83 63
-1033.7708 2751.1956 -993.6885 0.811 -0.078 0.579 159 85 65
-1030.4919 2753.8552 -997.8070 0.876 -0.024 0.482 159 90 71
-1028.1959 2758.7573 -1002.8273 0.895 -0.027 0.444 158 90 73
-1025.6000 2763.0032 -1007.5923 0.963 -0.050 0.265 158 90 73
-1022.8228 2766.8572 -1012.2062 0.960 -0.060 0.272 157 88 72
-1020.7314 2772.3083 -1017.4722 0.966 -0.023 0.258 155 85 68
-1017.9530 2776.2058 -1022.1174 0.972 -0.026 0.235 154 85 69
-1016.3758 2782.9097 -1027.9113 0.972 -0.026 0.235 153 85 72
-1014.7919 2789.6421 -1033.7299 0.972 -0.026 0.235 147 81 74
-1015.4541 2801.6738 -1041.7325 0.945 0.165 0.282 133 75 79
-1053.7413 3016.2346 -1166.2821 0.706 -0.334 -0.624 38 32 32
-1049.2582 3017.0676 -1169.9426 0.708 -0.530 -0.467 32 25 25
-1045.9668 3020.8433 -1174.8541 0.720 -0.565 -0.403 27 21 21
-1042.3237 3023.7632 -1179.4054 -0.138 -0.897 0.419 22 14 12
-1030.1759 3017.4419 -1183.2944 -0.104 -0.492 0.864 22 12 10
-3627.2598 2803.2432 738.2145 -0.451 -0.779 -0.435 70 56 47
-3578.9050 2787.2795 716.3610 -0.443 -0.768 -0.463 70 52 42
-3290.3672 2803.3438 507.4189 -0.110 -0.994 0.008 62 34 20
-3276.7598 2798.9775 501.1801 -0.123 -0.988 -0.098 61 34 20
-3268.3936 2798.4946 495.7911 -0.147 -0.979 -0.144 64 36 21
-3260.0769 2798.0369 490.4182 -0.147 -0.979 -0.144 67 38 23
-3132.2190 2758.5889 430.6852 0.288 -0.781 0.554 82 51 34
-3123.9351 2757.9468 425.4648 0.288 -0.781 0.554 85 54 38
-3116.9666 2758.3049 420.4397 0.272 -0.765 0.584 87 56 40
-3117.5417 2764.4746 416.4806 0.479 -0.741 0.470 87 56 39
-3109.8574 2764.2781 411.3566 0.497 -0.782 0.375 88 55 38
-3132.8440 2793.6519 406.3751 0.384 -0.764 0.519 95 60 41
-3100.0278 2803.0312 377.2831 0.640 -0.528 0.559 98 61 43
-2938.3003 2766.9395 291.9860 0.264 -0.673 0.691 58 50 53
-2910.3030 2755.6611 280.7689 -0.142 -0.649 0.748 22 44 56
-2935.8508 2879.6431 210.7923 0.532 -0.764 -0.365 13 41 40
-2901.1155 2856.0361 203.6589 -0.493 -0.748 0.445 20 39 36
-2842.9941 2812.1606 194.8094 -0.476 -0.716 0.511 32 40 37
-2675.7229 2792.6333 94.0291 -0.351 -0.893 -0.282 109 63 47
-2734.9612 2884.4529 69.8172 0.249 -0.157 0.956 200 167 148
-2559.6809 3103.5349 -204.7952 0.521 -0.661 0.540 165 131 130
-2548.0332 3098.5027 -209.2219 0.763 -0.461 0.453 178 144 143
-2597.9802 3174.7400 -228.8031 0.393 -0.832 0.392 187 153 152
-2531.7905 3148.5920 -255.6857 0.772 -0.127 0.623 35 16 16
-2526.8564 3150.8145 -260.6328 0.632 -0.332 0.700 35 15 16
-2518.9216 3149.7307 -265.3024 0.490 -0.332 0.806 35 17 15
-2488.7966 3147.0239 -284.0242 0.373 -0.361 0.855 188 154 158
-2478.9736 3143.7500 -288.4417 0.366 -0.368 0.855 189 153 157
-2471.9495 3143.5825 -293.1341 0.357 -0.416 0.837 194 158 162
-2458.1489 3135.7908 -297.0883 0.381 -0.551 0.742 196 160 164
-2071.1821 3127.8267 -556.4879 0.955 -0.265 0.133 71 45 41
-1482.6255 2583.7788 -575.7239 0.425 -0.755 0.499 109 37 12
-1478.0345 2584.1228 -579.1108 0.425 -0.755 0.499 116 44 19
-1473.6864 2584.8210 -582.5813 0.430 -0.756 0.494 116 44 19
-1473.0715 2591.0920 -587.4267 0.364 -0.902 0.232 118 44 19
-1466.6564 2588.6995 -590.1322 0.381 -0.885 0.269 119 44 19
-1464.9454 2593.3555 -594.5889 0.488 -0.839 -0.239 132 53 28
-1460.7266 2594.2483 -598.1083 0.595 -0.790 -0.146 133 53 28
-1456.4213 2595.0066 -601.5917 0.723 -0.691 0.024 133 53 28
-1365.6436 2571.5508 -647.2131 -0.529 -0.780 0.334 168 77 48
-1377.9780 2652.4009 -695.8082 0.810 -0.326 -0.488 141 67 54
-1371.6752 2657.7241 -703.8804 0.777 -0.476 -0.412 98 49 39
-1368.9324 2661.0730 -708.1216 0.605 -0.654 -0.455 84 46 38
-1362.9056 2658.9846 -710.7756 0.500 -0.753 -0.428 67 39 34
-1359.4286 2661.1172 -714.6615 0.523 -0.735 -0.432 57 35 32
-1337.3182 2632.1206 -709.3461 0.910 -0.312 0.272 52 37 43
-1321.9073 2629.8296 -718.2840 0.747 -0.250 0.616 51 36 49
-1217.8400 2576.0940 -751.6435 0.129 -0.273 0.953 97 62 55
-1212.0392 2573.7019 -753.9284 0.527 -0.289 0.799 122 83 72
-1206.8214 2572.3298 -756.5339 0.704 -0.139 0.696 122 77 63
-1203.1168 2573.6675 -760.0149 0.704 -0.139 0.696 120 73 55
-1185.1381 2589.5088 -783.5044 0.887 -0.035 0.461 104 58 38
-1166.4640 2604.3564 -806.7690 -0.601 -0.674 0.430 110 62 40
-1125.4094 2551.4622 -797.5670 0.592 -0.574 0.566 126 76 55
-1121.8325 2603.3088 -836.5963 0.877 -0.214 -0.431 116 64 46
-1136.3043 2684.6204 -884.0532 0.960 0.093 -0.263 43 12 18
-1131.4956 2711.3359 -906.1953 0.653 -0.161 0.740 24 14 12
-1086.0996 2729.5420 -950.1301 0.541 -0.503 0.674 117 66 59
-1080.2410 2726.6228 -952.0829 0.502 -0.477 0.722 124 71 66
-1072.1715 2718.9233 -952.1771 0.855 -0.507 -0.108 131 79 74
-1068.3981 2720.4067 -955.8081 0.786 -0.160 0.597 132 79 74
-1043.6991 2715.0007 -968.9091 0.530 -0.136 0.837 159 83 60
-1043.0750 2733.2080 -982.1826 0.580 -0.216 0.785 159 83 60
-1038.7388 2733.4482 -985.3217 0.580 -0.216 0.785 158 82 59
-1040.8376 2748.0615 -994.1944 0.548 -0.257 0.796 158 83 60
-1035.7811 2746.7234 -996.7134 0.555 -0.248 0.794 161 85 63
-1028.9850 2751.4827 -1004.7256 0.802 -0.093 0.590 162 88 69
-1025.5490 2753.7871 -1008.7047 0.873 -0.023 0.487 162 89 70
-1023.4261 2759.0950 -1013.9034 0.960 -0.012 0.279 160 85 67
-1021.0488 2763.8513 -1018.8873 0.964 -0.010 0.264 159 83 64
-1019.3195 2770.1265 -1024.4990 0.963 0.004 0.270 158 83 66
-1017.6731 2776.6335 -1030.2174 0.967 -0.011 0.255 157 83 70
-1011.2927 2772.1963 -1031.4565 0.871 -0.024 0.491 157 85 77
-1008.8730 2776.9395 -1036.4601 0.868 -0.023 0.496 150 87 90
-1050.1906 3008.7888 -1171.7408 0.735 -0.547 -0.400 48 38 39
-1046.7675 3012.2039 -1176.4945 0.738 -0.549 -0.393 42 33 31
-1043.2527 3015.4077 -1181.1621 -0.119 -0.891 0.439 35 27 25
-1037.5554 3013.1963 -1183.5038 -0.101 -0.487 0.868 26 18 16
-1031.1318 3009.1360 -1185.0382 -0.101 -0.487 0.868 22 12 11
-1025.9098 3008.0398 -1187.8413 -0.097 -0.489 0.867 23 13 12
-1048.2882 3358.7185 -1419.9307 0.923 -0.339 0.181 70 50 46
-1035.3138 3489.4177 -1521.0291 0.764 -0.533 -0.364 143 16 35
-3571.3435 2760.0332 720.1488 0.002 -0.998 0.064 72 59 50
-3617.5732 2796.7446 725.7625 -0.093 -0.995 0.022 72 56 46
-3611.6443 2798.3352 720.5820 -0.113 -0.992 0.056 73 56 46
-3605.9912 2800.1104 715.4592 -0.092 -0.995 0.050 72 55 45
-3591.6824 2796.0029 708.5834 -0.013 -0.977 -0.215 73 56 44
-3576.0994 2791.0000 701.4706 -0.153 -0.971 -0.184 73 56 44
-3396.3005 2744.4912 611.4594 -0.322 -0.925 -0.201 68 51 38
-3388.8979 2744.8176 606.1663 -0.324 -0.924 -0.205 64 47 33
-3393.0474 2758.8657 599.0552 -0.230 -0.913 -0.336 56 38 24
-4089.0901 3319.6904 677.8476 0.816 -0.488 0.311 56 36 22
-3219.6653 2767.8955 474.1004 -0.270 -0.962 -0.051 61 36 23
-3113.7302 2755.9280 410.1364 0.458 -0.816 0.353 75 48 33
-3106.3408 2755.9492 405.0682 0.535 -0.780 0.325 75 47 33
-3100.9146 2757.4797 400.2738 0.539 -0.764 0.355 78 49 34
-3107.9172 2780.1899 388.9794 0.218 -0.546 0.809 81 49 34
-3087.4805 2793.2742 365.7387 0.692 -0.698 0.182 92 52 40
-3056.5056 2821.7036 324.4243 -0.193 -0.750 0.632 90 55 38
-2940.5269 2877.6096 205.5253 0.920 -0.387 -0.068 34 28 21
-2938.8450 2882.3982 200.9842 0.920 -0.387 -0.068 41 32 25
-2799.0010 2774.4512 181.8039 -0.481 -0.724 0.493 61 42 33
-2637.0906 2757.8027 82.8786 -0.259 -0.886 -0.384 107 62 44
-2633.6511 2760.7466 78.4418 -0.251 -0.887 -0.388 115 70 51
-2731.3350 2868.5796 68.8731 0.283 -0.141 0.949 153 108 88
-2711.8540 2863.4087 59.2138 0.548 -0.159 0.821 208 177 158
-2300.4924 2742.5928 -136.5186 0.920 -0.047 -0.389 178 142 146
-2598.3284 3085.8423 -175.9400 0.242 -0.875 -0.419 168 129 132
-2471.9993 2974.8286 -183.7067 -0.137 -0.957 0.255 145 106 109
-2485.8379 3003.5974 -194.6173 0.538 -0.603 0.588 164 129 128
-2558.0740 3094.7903 -209.8032 0.615 -0.640 0.460 176 141 141
-2547.6321 3091.0464 -214.2920 0.763 -0.455 0.459 180 145 144
-2605.9663 3176.0889 -234.6283 0.492 -0.798 0.348 189 155 154
-2542.5366 3130.3513 -245.6113 0.480 -0.390 0.786 178 149 150
-2533.9236 3136.1096 -255.5791 0.772 -0.127 0.623 88 65 65
-2529.4600 3138.8240 -260.5536 0.772 -0.127 0.623 48 25 24
-2526.7141 3143.4255 -265.6899 0.639 -0.336 0.692 36 15 13
-2517.1230 3140.5159 -270.1879 0.490 -0.332 0.806 34 15 13
-2487.8831 3138.7478 -288.9304 0.348 -0.413 0.842 182 151 154
-2479.2534 3136.8020 -293.4532 0.348 -0.413 0.842 190 157 160
-2470.1125 3134.2627 -297.9057 0.401 -0.458 0.793 193 157 161
-2453.2571 3123.0552 -301.4946 0.401 -0.544 0.737 196 160 164
-2490.6753 3172.7517 -311.1019 0.553 -0.228 0.801 198 159 164
-2352.6931 3269.6550 -474.0807 0.637 -0.000 0.771 213 163 163
-2310.6082 3381.7900 -582.2712 0.977 -0.078 -0.201 60 29 28
-2086.8291 3157.5498 -576.4896 0.882 -0.369 -0.294 42 39 34
-2052.8464 3188.6868 -621.7780 0.651 -0.022 0.758 113 63 35
-1502.8744 2557.4990 -550.8560 0.697 -0.702 -0.144 107 37 11
-1375.5885 2573.1331 -648.9669 -0.300 -0.858 0.417 166 75 45
-1338.4147 2536.0352 -648.1145 -0.309 -0.798 0.517 169 80 53
-1378.6906 2646.4146 -698.7425 0.817 -0.324 -0.478 124 61 51
-1350.4077 2646.7583 -718.3260 0.571 -0.190 0.798 48 37 43
-1203.4785 2567.0325 -762.3367 0.712 -0.146 0.686 110 66 47
-1170.9906 2605.2847 -811.6420 -0.601 -0.674 0.430 102 56 34
-1128.0516 2549.0352 -801.1689 0.592 -0.582 0.558 117 71 49
-1136.8997 2713.9861 -911.9343 0.622 -0.159 0.766 26 14 14
-1102.1531 2735.8274 -951.1620 0.408 -0.251 0.878 113 64 54
-1091.2748 2722.3965 -949.0891 0.453 -0.250 0.856 120 66 57
-1086.4010 2721.5854 -951.8474 0.652 -0.326 0.684 124 70 61
-1079.9489 2717.3938 -953.2910 0.798 -0.596 -0.083 131 75 67
-1074.6111 2715.5396 -955.6279 0.855 -0.507 -0.108 138 82 74
-1069.3503 2713.8240 -958.0103 0.800 -0.155 0.580 137 81 71
-1032.5509 2740.4951 -1002.0621 0.637 -0.177 0.750 157 79 60
-1028.6552 2741.7253 -1005.5973 0.640 -0.178 0.747 158 80 61
-1024.2809 2741.8699 -1008.6907 0.867 -0.022 0.499 157 79 61
-1024.9615 2753.4956 -1016.4584 0.877 -0.012 0.480 159 80 62
-1012.4879 2755.4658 -1026.3834 0.825 0.178 0.537 157 80 67
-1010.2462 2760.5386 -1031.5087 0.825 0.178 0.537 157 82 74
-1006.6519 2762.5007 -1035.3561 0.823 0.179 0.539 155 88 88
-1044.0251 3006.7153 -1182.7489 0.073 -0.572 0.817 47 37 36
-1037.6447 3002.7971 -1184.3372 -0.095 -0.505 0.858 41 31 29
-1030.8721 2997.8535 -1185.4674 -0.093 -0.504 0.859 34 24 23
-1008.8056 2978.2571 -1186.6787 -0.007 -0.620 0.785 21 11 10
-1107.1781 3433.8291 -1442.0398 0.786 -0.043 -0.616 32 13 12
-1143.9039 3548.3062 -1497.9973 0.728 -0.100 -0.678 44 25 24
-3576.0393 2791.0024 691.0791 -0.447 -0.826 -0.343 71 57 44
-3447.3276 2747.0120 634.4710 -0.060 -0.967 -0.249 70 55 44
-3416.3667 2758.6604 605.0521 -0.280 -0.942 -0.184 64 49 38
-3409.5527 2759.4353 599.8489 -0.275 -0.935 -0.223 59 43 32
-3309.6316 2760.7495 530.6931 0.396 -0.720 -0.569 54 40 28
-3308.7874 2782.7649 514.4673 0.401 -0.748 -0.529 59 41 29
-3307.9863 2787.8760 510.2872 0.445 -0.894 -0.058 59 41 29
-3309.1582 2794.4543 506.4112 0.432 -0.901 -0.044 58 40 28
-3175.1501 2745.9451 449.3989 -0.325 -0.945 -0.036 58 39 27
-3154.4756 2752.9912 430.2745 0.052 -0.885 -0.463 59 39 25
-3088.5735 2782.6033 364.2302 0.643 -0.714 0.277 79 47 36
-3086.7847 2787.0188 359.8703 0.707 -0.692 0.143 86 48 37
-2932.4695 2750.8086 280.2503 0.097 -0.795 0.599 68 46 40
-2924.7974 2750.3630 275.3289 0.118 -0.808 0.578 36 42 42
-2917.5967 2750.2922 270.4630 0.123 -0.811 0.572 30 43 50
-2940.4922 2859.1948 208.6830 0.677 -0.610 -0.412 50 25 18
-2935.4297 2861.0566 203.9031 0.906 -0.422 0.022 52 24 13
-2941.0110 2878.2104 195.5202 0.920 -0.387 -0.068 56 30 18
-2646.2036 2760.2126 78.1164 -0.248 -0.878 -0.409 107 60 40
-2651.9045 2771.4590 74.0143 -0.209 -0.900 -0.383 114 69 48
-2760.6108 2876.4448 73.6062 0.724 -0.234 0.649 126 79 59
-2731.6099 2856.3762 68.0711 0.566 -0.326 0.757 139 91 71
-2724.3054 2856.0315 63.3291 0.557 -0.334 0.760 148 102 82
-2717.1914 2855.8499 58.6011 0.624 -0.293 0.724 211 168 147
-2701.7314 2847.9897 53.6329 0.531 -0.178 0.828 200 157 138
-2597.1194 3092.2441 -191.4163 0.409 -0.691 -0.596 137 97 98
-2531.2852 3030.4292 -192.4246 -0.280 -0.857 0.433 153 113 114
-2524.3306 3044.7075 -207.3225 0.776 -0.440 0.451 185 148 146
-2559.6809 3089.4897 -215.0196 0.615 -0.640 0.460 184 147 146
-2559.7378 3126.7344 -241.4557 0.028 -0.610 0.792 188 150 149
-2551.4758 3125.3452 -246.1091 0.233 -0.474 0.849 191 150 151
-2537.9651 3118.2595 -250.2969 0.502 -0.407 0.763 190 151 151
-2522.3767 3108.8711 -254.2663 -0.166 -0.653 0.739 166 129 129
-2529.8865 3124.5435 -260.2794 0.776 -0.128 0.618 122 90 89
-2527.1409 3129.1052 -265.3968 0.772 -0.127 0.623 72 45 42
-2525.7070 3135.1155 -270.6480 0.639 -0.336 0.692 36 14 10
-2516.0662 3132.1484 -275.1212 0.405 -0.441 0.801 23 7 1
-2478.2507 3128.4509 -298.3115 0.359 -0.419 0.834 184 160 158
-2487.0161 3161.2988 -315.6765 0.574 -0.193 0.796 199 158 162
-2238.9822 3246.2417 -545.4032 0.477 -0.442 0.760 64 26 22
-2151.1858 3175.3638 -554.9639 0.955 -0.071 -0.287 60 43 48
-2268.7878 3381.8298 -621.4343 0.319 -0.299 0.899 29 41 37
-2143.1445 3294.6655 -645.2582 0.479 -0.666 0.573 119 62 31
-1375.3591 2580.7903 -662.0184 -0.424 -0.905 0.023 152 69 39
-1399.7561 2634.7988 -683.7526 0.660 -0.744 -0.109 154 81 60
-1339.8468 2622.0227 -715.5740 -0.029 -0.968 0.248 44 31 36
-1248.9470 2592.7324 -756.8158 0.217 -0.155 0.964 46 18 21
-1242.0131 2620.6809 -781.4167 -0.035 -0.598 0.801 94 64 43
-1202.6680 2558.3271 -763.9565 -0.017 -0.970 0.242 94 64 39
-1214.9586 2596.4783 -782.6841 0.355 -0.312 0.881 104 67 46
-1130.6329 2604.9705 -846.2945 0.996 0.028 -0.081 107 58 42
-1102.3556 2727.6926 -952.8364 0.432 -0.245 0.868 124 68 55
-1091.7882 2714.9451 -950.9899 0.453 -0.250 0.856 124 67 54
-1085.8180 2711.8022 -952.8320 0.628 -0.354 0.692 124 67 53
-1077.7163 2704.0986 -952.8875 0.586 -0.752 -0.302 127 70 56
-1073.5204 2704.6443 -956.1401 0.623 -0.737 -0.264 131 73 60
-1069.1810 2704.8755 -959.2672 0.736 -0.665 0.125 132 74 61
-1059.6190 2693.8787 -957.9787 0.490 -0.638 0.594 131 73 59
-1054.4714 2692.3013 -960.3720 0.480 -0.641 0.599 132 74 59
-1022.9677 2729.9253 -1008.6259 0.737 -0.002 0.676 145 63 52
-1018.8968 2730.7090 -1011.9623 0.745 -0.004 0.667 148 67 55
-1016.1312 2734.4556 -1016.5138 0.752 0.000 0.659 152 70 60
-1035.8444 2987.8003 -1183.1414 -0.135 -0.532 0.836 54 47 45
-1029.4670 2983.8054 -1184.6558 -0.135 -0.532 0.836 51 40 41
-1152.5032 3558.0435 -1508.8417 0.729 -0.103 -0.677 53 38 38
-3578.4573 2792.6929 681.1682 -0.389 -0.866 -0.315 71 57 44
-3564.8110 2788.9856 674.5105 -0.389 -0.866 -0.315 71 57 44
-3495.8101 2758.4211 649.2800 -0.112 -0.973 -0.204 70 56 43
-3487.9275 2758.5344 643.8257 -0.051 -0.962 -0.269 70 56 43
-3468.3120 2750.5388 636.1585 -0.018 -0.969 -0.247 69 55 44
-3478.6689 2779.9771 622.2149 -0.052 -0.583 -0.811 66 52 41
-3450.7480 2782.8950 601.0994 0.406 -0.900 0.160 64 50 39
-3379.0903 2760.2649 568.3965 -0.431 -0.706 -0.562 64 50 39
-3357.1038 2761.3684 552.6210 -0.397 -0.693 -0.602 62 48 37
-3308.5986 2782.7126 504.3263 0.405 -0.884 -0.235 59 41 29
-3311.6755 2790.6736 500.7436 0.424 -0.905 -0.041 58 40 28
-3302.9167 2789.9480 495.2905 -0.210 -0.966 -0.148 56 38 26
-3295.3364 2790.0793 490.0292 -0.287 -0.954 -0.085 56 38 26
-3280.4563 2784.8025 483.6505 -0.283 -0.954 -0.098 56 38 26
-3091.4028 2779.1387 358.8139 0.634 -0.719 0.285 71 41 30
-3090.2458 2784.0415 354.5269 0.704 -0.688 0.177 78 42 30
-3104.8354 2848.8411 318.2388 -0.209 -0.970 0.123 77 44 32
-3082.2129 2836.6926 311.4848 -0.151 -0.889 0.432 75 46 32
-2930.1335 2743.2539 274.4800 0.388 -0.818 0.425 70 45 39
-2923.7102 2743.8188 269.6980 0.388 -0.818 0.425 39 42 39
-2746.9983 2677.8955 196.2692 0.239 -0.845 0.479 37 25 32
-2937.3325 2856.6929 198.4499 0.906 -0.422 0.022 62 30 16
-2944.8489 2869.2556 194.6105 0.920 -0.387 -0.068 60 31 17
-2943.1741 2874.0283 190.0634 0.920 -0.387 -0.068 63 35 23
-2935.7993 2873.9399 185.0990 0.931 -0.345 -0.122 70 42 28
-2825.0583 2785.2224 172.9060 -0.467 -0.732 0.496 73 42 27
-2684.9060 2783.1946 78.8110 -0.245 -0.942 -0.228 107 60 40
-2677.7886 2789.0154 69.8059 -0.007 -0.878 0.478 110 65 44
-2724.5178 2843.8396 62.5447 0.522 -0.451 0.724 133 85 65
-2704.9324 2838.5491 52.9680 0.754 -0.374 0.541 189 143 124
-2696.9473 2837.5266 48.2543 0.710 -0.402 0.578 180 133 115
-2652.1228 2808.8582 38.1519 0.530 -0.315 0.787 148 94 78
-2711.4983 2869.9280 35.0555 0.451 -0.391 0.803 156 95 82
-2513.4929 3012.0852 -201.3525 -0.247 -0.873 0.421 180 140 141
-2697.7869 3221.0435 -224.8090 0.871 -0.273 0.408 185 147 146
-2535.8831 3094.0144 -244.5448 0.166 -0.653 0.739 189 150 149
-2547.3677 3113.8030 -250.8347 0.258 -0.458 0.850 192 149 150
-2537.0071 3110.1155 -255.2665 0.502 -0.407 0.763 192 150 151
-2524.4177 3103.9858 -259.4753 -0.166 -0.657 0.735 174 135 136
-2523.2007 3125.1997 -275.4407 0.659 -0.317 0.682 46 25 20
-2515.1877 3124.0059 -280.0514 0.405 -0.441 0.801 28 13 5
-2508.1018 3123.8115 -284.7431 0.466 -0.422 0.778 30 18 10
-2311.7981 3212.1650 -481.6029 0.606 0.016 0.795 213 161 151
-2292.7200 3213.4802 -495.5468 0.596 0.007 0.803 191 137 125
-2121.6240 3025.1626 -477.8202 0.877 -0.427 -0.219 199 145 133
-2261.4749 3241.4138 -536.7769 -0.095 -0.480 0.872 167 115 120
-2181.1851 3189.5317 -554.4932 -0.072 -0.474 0.877 62 42 45
-2155.6404 3164.9604 -554.3755 -0.049 -0.554 0.831 60 44 49
-1400.8815 2519.6201 -608.4507 0.763 -0.554 0.333 154 73 44
-1410.4319 2584.7122 -648.3829 0.035 -0.998 -0.061 156 75 48
-1405.3557 2584.1741 -651.4593 0.048 -0.998 -0.045 156 75 48
-1402.1636 2586.5696 -655.3446 -0.049 -0.999 0.023 157 75 47
-1401.4395 2592.8445 -660.3153 -0.189 -0.981 0.041 155 68 33
-1402.8196 2632.6731 -687.7919 0.660 -0.744 -0.109 141 74 55
-1241.4277 2612.2395 -783.2335 -0.159 -0.615 0.773 91 65 44
-1198.9635 2552.3921 -769.4808 -0.032 -0.993 0.116 93 65 37
-1194.8585 2617.9749 -819.0718 -0.674 -0.724 -0.145 86 45 27
-1132.6111 2618.1997 -861.6663 0.998 0.031 -0.046 68 25 9
-1133.4840 2628.5454 -868.4529 0.996 0.040 -0.085 57 16 4
-1101.8000 2708.6367 -947.1961 0.471 -0.247 0.847 121 70 56
-1096.7655 2707.4968 -949.8148 0.474 -0.249 0.845 125 68 52
-1092.0135 2706.9287 -952.6489 0.474 -0.249 0.845 125 68 51
-1090.3909 2712.9358 -958.0411 0.844 -0.040 0.535 125 68 51
-1086.0874 2713.3093 -961.2414 0.854 -0.028 0.520 125 68 51
-1076.3710 2702.1816 -959.9255 0.439 -0.831 0.342 126 69 52
-1072.7828 2704.0161 -963.6805 0.730 -0.673 0.121 126 69 52
-1035.9115 2710.5359 -993.4674 0.881 -0.085 0.465 126 65 47
-1025.0853 2725.7654 -1011.7137 0.853 -0.095 0.513 143 65 55
-1019.9888 2764.6003 -1042.8965 0.924 -0.011 0.383 141 68 59
-1008.0293 2747.3167 -1038.7174 0.910 0.022 0.415 138 73 64
-1005.9745 2752.7942 -1044.0262 0.908 0.024 0.419 145 79 72
-999.4896 2758.3066 -1052.3801 0.791 0.034 0.611 148 85 76
-1031.4755 2978.2798 -1187.5240 -0.011 -0.561 0.828 52 40 42
-1024.7146 2973.2905 -1188.5731 -0.007 -0.556 0.831 45 33 35
-1028.8149 3144.8022 -1308.1498 0.781 -0.083 -0.619 47 36 34
-1055.3354 3228.0063 -1349.4360 0.325 -0.300 -0.897 48 37 35
-1031.0585 3482.4519 -1547.5302 0.087 -0.866 0.492 167 11 44
-3299.6743 2776.2581 492.8203 -0.246 -0.954 -0.173 58 40 28
-3289.8625 2774.7375 487.2309 -0.246 -0.954 -0.173 56 38 26
-4187.9468 3441.6899 620.8733 0.772 -0.614 0.166 56 38 26
-4192.4995 3452.2922 616.3792 0.847 -0.412 0.336 56 38 26
-3242.4304 2756.7649 467.8174 -0.193 -0.958 0.214 56 38 26
-3096.9106 2789.3962 345.4014 0.727 -0.641 -0.246 73 38 24
-3095.7217 2794.3020 341.0787 0.714 -0.662 -0.229 74 37 22
-3107.0830 2832.8127 321.2326 0.619 -0.785 0.005 73 40 27
-3114.2158 2844.4734 317.7367 0.385 -0.887 0.257 72 40 27
-3103.2114 2841.6804 312.2469 0.391 -0.890 0.233 72 40 27
-3082.7830 2831.3120 305.7676 -0.146 -0.891 0.430 72 40 29
-3060.5249 2825.3740 294.8702 -0.144 -0.885 0.443 76 44 33
-2794.5676 2689.3706 211.2459 0.104 -0.579 0.809 24 30 28
-2648.2476 2744.3687 72.2673 -0.371 -0.912 -0.174 107 60 40
-2692.5962 2790.3342 69.5348 -0.060 -0.765 0.641 107 60 40
-2688.0029 2792.3271 64.9813 -0.022 -0.718 0.696 106 61 40
-2713.4995 2827.7888 56.9398 0.439 -0.848 0.296 128 80 60
-2707.9841 2829.0229 52.3018 0.439 -0.848 0.296 137 90 72
-2697.5708 2825.7869 47.5315 0.417 -0.739 0.529 169 120 103
-2648.8323 2799.8442 32.9366 0.544 -0.324 0.774 152 94 82
-2616.1064 3069.0369 -182.1189 0.125 -0.616 -0.778 142 102 103
-2618.7712 3079.0256 -187.4585 0.399 -0.892 -0.211 142 102 103
-2466.7268 2970.3047 -213.0869 0.166 -0.821 0.547 185 147 146
-2520.1765 3070.1704 -248.2251 0.199 -0.699 0.687 189 150 149
-2542.5771 3101.5740 -255.4676 0.247 -0.464 0.851 191 147 148
-2533.2156 3098.9502 -259.9605 0.491 -0.408 0.769 193 150 151
-2534.0002 3107.2512 -265.3712 -0.217 -0.612 0.761 181 142 143
-2511.6331 3090.5339 -268.6232 -0.166 -0.657 0.735 150 113 113
-2497.3818 3082.5212 -272.5851 0.052 -0.528 0.848 102 73 70
-2519.0137 3113.4929 -280.0417 0.678 -0.227 0.699 59 37 32
-2514.3130 3115.8958 -284.9620 0.405 -0.441 0.801 34 19 11
-2505.3625 3113.6523 -289.4475 0.410 -0.446 0.796 31 19 11
-2496.2063 3111.1604 -293.8949 0.463 -0.421 0.780 30 20 11
-2488.8804 3110.6565 -298.5205 0.463 -0.421 0.780 31 18 12
-2483.7271 3112.5354 -303.3734 0.462 -0.413 0.785 74 56 52
-2476.2241 3111.8149 -307.9645 0.463 -0.408 0.787 151 128 126
-2468.0713 3110.3594 -312.4713 0.497 -0.417 0.761 196 164 164
-2377.1433 3024.2014 -312.6593 0.369 -0.539 0.757 201 157 162
-2260.4331 3232.1890 -541.0468 0.047 -0.441 0.896 139 93 96
-1500.2991 2507.4197 -539.3887 0.821 -0.568 0.057 130 59 31
-1408.8691 2582.8669 -655.6512 -0.400 -0.843 -0.359 159 75 47
-1413.3085 2597.1638 -662.8682 -0.144 -0.990 -0.014 159 75 46
-1377.5920 2563.3308 -662.9491 -0.171 -0.942 0.288 149 70 40
-1404.8489 2628.9038 -691.3567 0.614 -0.783 -0.099 128 66 51
-1241.0132 2604.1436 -785.1387 -0.371 -0.701 0.610 91 65 44
-1210.1741 2557.3030 -772.5845 -0.011 -0.975 0.223 91 65 39
-1202.7750 2552.0071 -773.8281 -0.032 -0.993 0.116 91 65 36
-1107.6299 2703.0059 -946.7252 0.800 -0.005 0.600 119 71 57
-1034.8445 2709.1675 -1000.6789 0.903 -0.150 0.404 126 63 48
-1007.0582 2735.9785 -1038.7920 0.922 -0.284 -0.264 131 67 58
-1000.8345 2752.2078 -1054.6506 0.871 -0.027 0.491 148 85 75
-996.2797 2751.8936 -1057.5259 0.800 0.031 0.599 147 82 76
-1042.2928 2914.1655 -1142.4174 0.854 0.182 0.488 67 33 39
-1033.8066 2973.5752 -1190.7394 -0.011 -0.561 0.828 52 40 42
-1020.8335 2964.9277 -1193.3767 0.011 -0.599 0.800 52 40 42
-733.5032 3487.0452 -1762.8584 0.931 -0.025 -0.365 137 6 18
-802.3884 3836.2024 -1966.0189 0.954 -0.026 -0.299 121 29 29
-3424.3066 2786.9009 559.8370 0.162 -0.961 -0.223 72 58 47
-3408.3186 2781.1892 553.0771 0.461 -0.859 -0.224 72 58 47
-3392.3208 2775.4353 546.3412 0.322 -0.922 -0.216 71 57 46
-3388.0652 2778.0354 541.5801 0.322 -0.922 -0.216 71 57 46
-3330.3679 2770.3914 507.8641 0.111 -0.935 -0.338 71 55 42
-3331.9478 2777.1943 504.0479 0.034 -0.823 -0.567 70 54 41
-4199.1528 3435.5923 620.1350 0.778 -0.608 0.160 68 50 38
-4194.8052 3439.6184 614.2865 0.778 -0.608 0.160 68 50 38
-3216.7957 2743.5071 450.0061 -0.096 -0.995 0.042 60 42 30
-3198.9719 2735.8926 443.3667 0.303 -0.940 -0.157 60 42 30
-3191.7563 2736.1357 438.2883 0.306 -0.938 -0.162 59 41 29
-3192.6106 2742.3965 434.3685 0.285 -0.912 -0.295 58 40 28
-3194.4883 2749.4434 430.5792 0.314 -0.934 -0.169 59 39 28
-3199.1606 2758.6106 427.1651 0.080 -0.994 0.074 59 40 26
-3189.5078 2757.0400 421.7341 0.333 -0.895 -0.297 58 39 25
-3172.9583 2750.2549 415.3644 0.452 -0.876 0.170 59 37 24
-3166.9846 2751.4182 410.4685 0.419 -0.892 0.171 59 37 23
-3169.8828 2759.2959 406.7755 0.173 -0.985 -0.012 60 38 25
-3163.8411 2760.4160 401.8645 0.173 -0.985 -0.012 57 35 22
-3082.3606 2819.2056 304.2333 0.618 -0.781 0.092 70 36 24
-3076.2688 2820.2808 299.3205 0.602 -0.793 0.091 70 36 24
-2939.7947 2859.1448 178.6385 0.934 -0.338 -0.118 70 41 27
-2726.3059 2827.1321 56.5646 0.147 -0.924 0.352 112 65 45
-2748.0962 2853.0984 52.7083 0.013 -0.966 -0.259 125 77 57
-2691.2703 2807.8362 46.6246 0.533 -0.401 0.745 138 89 69
-2684.3887 2807.7788 41.9892 0.521 -0.412 0.748 150 94 79
-2677.6775 2807.8669 37.3649 0.521 -0.412 0.748 153 90 77
-2141.3940 2544.4688 -137.7572 0.875 -0.349 0.337 181 142 145
-2490.6233 2967.6631 -204.6168 0.628 -0.427 0.651 185 145 146
-2535.0950 3086.5125 -259.8232 0.224 -0.453 0.863 190 148 149
-2530.7092 3089.2085 -264.7418 0.517 -0.393 0.760 193 151 151
-2526.4175 3092.0098 -269.6718 0.778 -0.122 0.616 189 149 150
-2514.8015 3086.9102 -273.9003 -0.170 -0.660 0.732 164 128 128
-2498.9800 3077.2205 -277.6877 -0.116 -0.627 0.771 123 95 92
-2273.2979 3190.4929 -512.4791 0.957 0.093 0.275 200 147 133
-2268.2075 3225.6855 -541.2349 0.059 -0.434 0.899 168 122 124
-2254.9946 3217.4678 -544.3075 0.061 -0.440 0.896 110 69 71
-2215.7451 3192.9509 -553.3583 0.065 -0.409 0.910 41 22 15
-2208.8396 3192.5234 -557.7439 0.021 -0.444 0.896 47 34 26
-1488.5713 2504.7539 -552.8618 0.767 -0.610 -0.200 133 62 34
-1484.7382 2512.8250 -561.2682 0.697 -0.717 0.023 132 61 33
-1400.5037 2600.0161 -681.1863 -0.415 -0.901 -0.128 140 72 52
-1404.0032 2613.0378 -688.1682 -0.373 -0.784 0.495 129 67 52
-1400.0740 2629.5308 -702.6934 0.579 -0.702 -0.413 79 34 29
-1243.4562 2601.1416 -788.7231 -0.347 -0.696 0.628 89 62 40
-1211.6819 2560.6887 -781.2392 -0.173 -0.935 0.310 92 63 35
-1006.3770 2745.6270 -1053.6959 0.896 -0.394 -0.206 137 73 63
-1006.1678 2755.3784 -1060.8474 0.767 -0.548 -0.333 144 82 72
-1001.4388 2765.0234 -1070.9941 0.949 -0.313 -0.040 139 71 63
-1002.0731 2776.9231 -1079.1166 0.924 -0.354 -0.147 125 64 55
-1010.6563 2818.2964 -1103.0225 0.971 -0.224 -0.087 82 43 50
-1033.6615 2962.8250 -1191.2756 0.053 -0.566 0.823 48 36 38
-1075.6724 3552.2173 -1586.3811 0.112 -0.761 0.638 136 16 36
-1052.2731 3516.3687 -1576.5150 0.103 -0.753 0.650 158 18 46
-1045.0386 3511.2197 -1577.7305 0.186 -0.810 0.556 170 18 48
-912.7172 3398.5994 -1586.7031 -0.686 -0.593 0.423 178 11 37
-896.1760 3446.1313 -1632.1105 -0.226 -0.684 0.694 182 11 38
-889.3807 3440.7949 -1632.8926 -0.292 -0.742 0.603 183 11 37
-3346.5701 2765.2573 512.5084 0.107 -0.936 -0.335 70 56 45
-3338.9895 2771.0620 503.1768 0.111 -0.935 -0.338 72 55 45
-4221.3013 3437.4810 621.0626 0.867 -0.317 -0.386 72 54 42
-4217.5581 3441.9600 615.2914 0.864 -0.314 -0.394 69 51 41
-4217.3726 3449.0554 610.0464 0.864 -0.314 -0.394 69 51 39
-3290.9749 2787.1316 459.0038 -0.356 -0.636 -0.685 64 46 34
-3194.4863 2743.8926 424.7281 0.267 -0.927 -0.264 63 43 32
-3201.6255 2754.8823 421.6436 0.268 -0.944 -0.191 63 44 30
-3185.5967 2748.5337 415.3478 0.263 -0.772 -0.579 62 43 29
-3181.6394 2751.2234 410.7222 0.253 -0.789 -0.560 63 41 28
-3176.3044 2752.8782 405.9084 0.416 -0.897 0.149 63 41 28
-3181.0398 2762.1394 402.4398 0.223 -0.969 -0.104 63 41 28
-3175.7810 2763.8669 397.6253 0.223 -0.969 -0.104 61 39 26
-3131.1313 2769.8933 362.9813 -0.101 -0.953 -0.285 66 38 26
-2731.8757 2826.1479 51.4873 0.398 -0.654 0.644 112 65 45
-2710.4529 2813.0334 46.4128 0.425 -0.658 0.621 126 78 58
-2701.5359 2811.1663 41.7094 0.424 -0.662 0.618 140 88 67
-2694.7258 2811.1926 37.0694 0.424 -0.662 0.618 144 84 68
-2682.7483 2806.5078 32.3221 0.404 -0.651 0.643 151 82 70
-2757.6897 2972.7732 -36.7809 0.669 -0.288 -0.685 156 106 116
-1978.8911 2301.3542 -80.8221 0.916 -0.209 0.343 157 110 120
-1989.2815 2332.0767 -95.9368 0.948 -0.317 -0.019 166 123 130
-2500.0789 2977.8572 -215.2466 0.458 -0.844 0.280 185 145 146
-2534.9697 3079.3711 -264.8099 0.235 -0.447 0.863 189 147 148
-2526.8904 3078.0981 -269.3735 0.535 -0.414 0.737 193 153 153
-2522.4805 3080.7473 -274.2771 0.553 -0.296 0.779 195 157 157
-2517.3838 3082.6609 -279.1158 -0.140 -0.640 0.756 176 143 142
-2500.8225 3072.1978 -282.8048 -0.133 -0.627 0.768 145 118 115
-2402.5996 3038.5525 -325.1787 -0.183 -0.525 0.831 200 157 162
-2268.9346 3218.7517 -545.8812 0.089 -0.409 0.908 143 103 101
-2242.6379 3202.4502 -551.9634 0.063 -0.436 0.898 58 31 26
-2220.8140 3191.5732 -558.9243 0.070 -0.416 0.907 46 34 22
-1511.1542 2503.5410 -544.0667 0.424 -0.902 0.081 116 49 20
-1402.7227 2567.1621 -663.5411 0.485 -0.875 -0.010 146 65 39
-1399.9812 2570.2117 -667.6014 0.483 -0.874 -0.062 142 67 41
-1388.8663 2567.5244 -673.2045 0.469 -0.784 -0.406 139 70 50
-1396.5116 2594.3254 -687.3527 0.985 -0.050 0.166 110 53 42
-1372.6932 2586.4294 -697.8177 0.188 -0.807 -0.560 54 27 29
-1367.6163 2585.8040 -700.8112 0.118 -0.844 -0.523 50 28 30
-1210.0468 2550.5852 -782.3188 -0.254 -0.967 -0.028 91 63 34
-1111.1404 2630.5371 -907.1121 0.773 -0.059 0.632 95 54 42
-1106.6696 2630.4031 -910.0490 0.772 -0.061 0.632 110 65 53
-1056.4735 2653.4287 -960.7207 0.601 -0.564 0.566 117 60 43
-1020.0139 2668.7239 -996.4946 0.911 -0.364 0.194 124 64 46
-1001.0095 2714.1345 -1042.1515 0.846 -0.370 -0.385 123 56 49
-998.7841 2719.0696 -1047.2220 0.853 -0.374 -0.365 128 63 54
-1000.2658 2753.0337 -1070.7203 0.603 -0.602 -0.524 139 71 63
-998.7028 2759.7161 -1076.6019 0.603 -0.602 -0.524 128 66 57
-1017.3105 2970.4573 -1216.0167 0.018 -0.778 -0.628 40 28 30
-1064.7587 3522.5627 -1582.1422 0.069 -0.800 0.596 130 11 33
-1058.6876 3520.9082 -1585.0679 0.069 -0.800 0.596 143 13 38
-1052.6301 3519.2571 -1587.9871 0.069 -0.800 0.596 156 14 41
-1053.4913 3537.8428 -1600.8113 0.198 -0.714 0.671 165 15 42
-1018.2762 3482.1721 -1584.5421 0.493 -0.677 0.547 167 15 38
-990.8703 3464.3296 -1590.2653 -0.067 -0.814 0.577 168 17 40
-985.1656 3463.2046 -1593.3245 -0.489 -0.852 0.189 168 17 40
-3351.7600 2774.7102 499.1178 0.108 -0.938 -0.329 72 55 45
-3349.0342 2778.4006 494.5989 0.116 -0.936 -0.333 72 56 43
-3467.7556 2870.0916 508.6353 0.157 -0.883 0.442 73 55 43
-3122.3809 2769.0193 347.8396 -0.207 -0.976 -0.069 64 37 26
-2716.8342 2806.6333 45.8537 0.386 -0.632 0.672 112 65 45
-2692.0786 2796.6550 36.3078 0.041 -0.800 0.598 139 87 69
-2684.3914 2795.8616 31.6745 0.044 -0.797 0.602 146 83 68
-2677.7998 2796.0491 27.0729 0.041 -0.856 0.515 155 82 71
-2668.4331 2793.7031 22.4261 0.041 -0.856 0.515 162 88 79
-2753.8513 2969.4092 -46.9366 0.809 -0.241 -0.536 154 105 118
-1947.9541 2261.3740 -80.2146 0.903 -0.409 0.133 164 117 127
-2525.3801 3069.4968 -274.1959 0.499 -0.409 0.764 194 154 154
-2520.5898 3071.7207 -279.0515 0.553 -0.296 0.779 196 157 158
-2517.4890 3075.7603 -284.0773 -0.134 -0.628 0.767 177 143 142
-2403.8245 3032.9287 -330.0676 -0.155 -0.518 0.841 200 158 162
-2267.7937 3152.1345 -508.5443 -0.032 -0.446 0.894 200 143 132
-2264.1562 3155.7639 -513.6365 0.670 -0.729 -0.143 197 141 130
-2278.5251 3214.5593 -546.4767 0.093 -0.413 0.906 156 119 112
-2266.1670 3207.4814 -549.7239 0.098 -0.404 0.909 106 74 69
-2246.7009 3199.7568 -557.3182 0.867 -0.131 0.480 49 28 22
-1705.5460 2578.9131 -474.3758 -0.149 -0.947 0.286 17 40 34
-1811.9719 2751.5010 -527.2482 -0.272 -0.800 0.535 74 59 38
-1542.0031 2500.2776 -528.2313 0.280 -0.635 0.720 120 53 24
-1550.6252 2518.7568 -535.7712 0.694 -0.677 0.245 120 53 24
-1545.9462 2518.9824 -539.1044 0.680 -0.683 0.266 120 53 24
-1541.1163 2518.9915 -542.3831 0.677 -0.680 0.281 121 54 25
-1537.6584 2520.8967 -546.1053 0.677 -0.680 0.281 121 54 25
-1533.3218 2521.5803 -549.5383 0.342 -0.936 0.088 121 54 25
-1526.4043 2518.6531 -552.1052 0.271 -0.955 0.119 121 54 25
-1522.1478 2519.4282 -555.5500 0.271 -0.955 0.119 131 60 32
-1516.1211 2517.7102 -558.3890 0.260 -0.965 0.023 131 60 32
-1214.8892 2551.9990 -787.2961 -0.254 -0.967 -0.028 91 63 34
-1206.6902 2545.3193 -788.0139 -0.241 -0.969 0.060 89 56 34
-1198.5706 2538.7231 -788.7384 -0.328 -0.938 0.115 90 55 35
-1192.9143 2536.4766 -790.9434 -0.328 -0.938 0.115 90 55 35
-1022.5426 2665.7039 -999.9421 0.909 -0.332 0.251 115 62 41
-1016.0792 2670.5942 -1007.8620 0.896 -0.354 0.268 115 62 42
-998.5034 2699.4727 -1040.6807 0.890 -0.343 -0.301 117 51 44
-1009.4803 2744.7007 -1065.9943 0.655 -0.681 -0.327 129 66 58
-1006.9636 2749.1038 -1070.8877 0.607 -0.604 -0.516 138 73 68
-976.8242 2952.3757 -1238.4989 0.933 0.089 0.349 27 17 15
-1067.0066 3515.0173 -1584.8199 0.128 -0.816 0.563 130 13 35
-999.1687 3475.1599 -1601.9174 -0.482 -0.852 0.204 149 16 35
-992.4328 3470.9836 -1603.4567 -0.482 -0.852 0.204 147 18 35
-862.9229 3323.0308 -1584.0616 -0.731 -0.623 0.277 167 16 35
-828.2620 3905.3965 -2029.2441 0.917 -0.034 -0.396 151 74 69
-3509.1099 2691.4697 655.9529 0.839 -0.544 -0.034 80 66 57
-3530.3982 2721.8416 648.2794 0.927 -0.311 0.209 78 64 53
-3319.5183 2843.3225 417.3464 -0.453 -0.743 -0.493 73 54 40
-3311.1575 2842.9353 411.9723 -0.447 -0.745 -0.495 73 54 40
-3288.5479 2831.8215 404.7559 -0.416 -0.756 -0.505 73 54 40
-3279.8872 2831.1606 399.3780 -0.417 -0.756 -0.505 72 52 41
-3264.6011 2825.4812 393.1658 -0.474 -0.765 -0.436 70 50 39
-3066.1052 2754.2087 310.6980 0.023 -0.884 -0.467 57 42 23
-2735.3369 2804.9351 50.0929 -0.040 -0.748 0.662 105 58 38
-2690.9119 2783.5481 35.5862 -0.039 -0.935 0.353 126 77 60
-2677.4297 2783.6392 26.4006 -0.079 -0.870 0.487 146 84 71
-2665.7134 2779.1655 21.7267 -0.053 -0.874 0.484 154 80 73
-2664.3965 2784.1011 17.2490 0.466 -0.678 0.568 161 88 81
-2751.5220 2960.7791 -52.2229 0.873 -0.156 -0.463 154 105 118
-2649.4558 3075.7471 -204.8184 0.042 -0.899 -0.436 169 129 130
-2520.5376 3057.3765 -278.6701 0.573 -0.335 0.748 194 152 153
-2426.8618 3043.9995 -332.3124 -0.149 -0.521 0.840 198 159 162
-2474.0583 3285.3665 -475.8072 0.728 -0.336 0.598 194 144 143
-2260.0894 3135.1729 -511.3835 -0.322 -0.678 0.661 188 134 122
-2264.4265 3164.7109 -529.9172 0.922 0.079 0.379 182 132 121
-2277.4993 3205.4978 -550.7173 0.093 -0.413 0.906 125 95 88
-2225.7126 3173.9380 -562.8101 0.857 -0.332 0.393 46 40 29
-1783.5321 2693.7253 -512.9034 0.028 -0.602 0.798 51 54 47
-1547.9257 2495.6724 -528.3326 0.381 -0.601 0.703 121 54 25
-1542.7941 2495.2349 -531.4858 0.381 -0.601 0.703 120 53 24
-1539.2070 2503.5127 -539.9283 0.755 -0.603 0.257 120 53 24
-1536.0713 2505.8232 -543.7286 0.755 -0.603 0.257 127 60 31
-1530.7805 2505.1548 -546.8216 0.736 -0.613 0.287 127 60 31
-1513.2556 2514.1672 -565.2260 0.320 -0.943 -0.096 131 60 32
-1387.0138 2602.9724 -715.1599 0.367 -0.492 -0.789 49 29 31
-1220.1725 2554.1699 -792.5464 -0.367 -0.924 0.107 90 63 38
-1202.7231 2538.9658 -793.2996 -0.318 -0.939 0.129 90 55 35
-1197.0719 2536.7471 -795.5096 -0.318 -0.939 0.129 90 55 35
-1067.5848 2605.9102 -933.3634 0.235 -0.527 0.817 118 61 47
-1054.0518 2668.7422 -988.1823 0.329 -0.061 0.942 100 45 26
-1025.6213 2654.4231 -997.0065 0.666 -0.522 -0.533 109 56 39
-1028.0339 2669.1750 -1006.0959 0.730 -0.408 -0.549 104 57 37
-1017.1205 2664.2844 -1009.9236 0.904 -0.352 0.242 102 57 38
-1025.2483 2771.7161 -1082.5044 -0.295 -0.833 -0.467 119 60 51
-1012.2603 2752.1499 -1077.0696 0.603 -0.597 -0.529 127 66 61
-1006.4047 2748.8770 -1078.6517 0.969 -0.217 0.121 136 72 64
-1038.8701 3260.1013 -1428.2368 0.741 -0.104 -0.663 24 5 2
-1077.6693 3531.5933 -1599.3057 0.187 -0.798 0.573 147 35 57
-955.8698 3442.0981 -1616.6506 0.467 -0.846 0.255 124 23 33
-948.1223 3434.3181 -1616.2369 0.352 -0.809 0.472 124 22 30
-3367.2573 2581.7207 630.1594 0.665 -0.692 -0.281 84 71 63
-3531.9316 2722.9028 638.3912 0.536 -0.844 0.022 79 66 57
-3591.6685 2768.4717 645.4957 0.555 -0.735 -0.390 79 66 57
-3389.7307 2872.1216 433.5083 0.128 -0.978 -0.166 77 59 49
-3378.8464 2869.9688 427.7278 0.047 -0.976 -0.213 77 59 47
-3365.1223 2865.6802 421.5872 0.536 -0.844 -0.026 77 58 47
-3345.7903 2863.0894 410.4208 0.419 -0.883 0.212 77 58 47
-3280.4573 2855.2949 371.9829 -0.493 -0.692 -0.528 74 56 42
-3061.7041 2745.1648 304.5777 0.010 -0.893 -0.449 59 46 28
-3053.3782 2744.3928 299.5179 0.054 -0.865 -0.498 61 45 29
-2953.0701 2733.7893 239.5080 -0.394 -0.835 -0.385 55 39 24
-2937.1995 2749.8770 217.0547 -0.517 -0.772 -0.370 56 38 26
-2738.4619 2807.9319 40.4871 -0.417 -0.906 0.073 106 61 42
-2646.9402 2750.2625 20.7427 -0.436 -0.876 0.204 148 88 78
-2618.4805 2736.6069 11.4832 -0.178 -0.984 -0.023 160 90 86
-2597.2585 3001.6665 -196.1935 0.062 -0.781 0.622 178 139 140
-2658.1042 3070.4922 -205.3044 0.050 -0.916 -0.398 185 146 147
-2640.5732 3059.8311 -209.3676 0.136 -0.685 0.715 179 139 140
-2411.3025 3027.2637 -340.4529 -0.145 -0.517 0.843 206 160 163
-2472.9319 3276.2507 -480.4510 0.727 -0.335 0.599 199 150 146
-2341.4536 3185.7385 -503.2237 -0.212 -0.530 0.821 208 154 144
-2277.9636 3141.3738 -513.7413 -0.322 -0.678 0.661 192 140 125
-2263.4604 3131.7615 -516.5245 -0.322 -0.678 0.661 180 129 115
-2263.2808 3163.8040 -540.0189 0.913 0.082 0.399 173 128 121
-2257.5269 3173.0247 -550.6308 0.909 0.078 0.409 92 70 65
-2242.1301 3170.3040 -559.0447 0.843 -0.309 0.439 35 22 18
-1545.3661 2479.5813 -525.7758 0.555 -0.412 0.722 123 59 27
-1540.8170 2479.9087 -529.0869 0.555 -0.412 0.722 123 56 27
-1529.6488 2524.1519 -568.9021 0.908 -0.347 0.233 129 61 32
-1548.9128 2564.7998 -585.5420 0.239 -0.508 0.827 126 58 29
-1095.0890 2600.9768 -918.4270 0.655 -0.003 0.756 110 62 52
-1089.9285 2599.3479 -920.7241 0.667 0.011 0.745 110 62 52
-1081.8627 2600.5798 -927.0701 0.992 0.057 0.117 111 64 52
-1063.8339 2607.9509 -944.6228 0.602 -0.010 0.799 120 62 49
-1067.0150 2623.4761 -953.7988 0.942 0.144 0.303 120 62 49
-1071.5822 2641.9919 -964.2205 0.985 0.168 0.036 120 62 49
-1063.0325 2651.5581 -976.9727 0.663 -0.281 0.694 114 58 44
-1040.8861 2707.9568 -1033.0686 0.435 -0.521 0.735 93 53 36
-1084.7242 3386.1257 -1498.1429 0.924 0.073 -0.375 38 9 6
-980.8325 3472.0566 -1630.9889 0.087 -0.810 0.580 92 32 32
-814.1306 3807.3835 -1988.1729 0.915 -0.033 -0.402 149 83 73
-3303.5288 2843.2954 386.0797 -0.044 -0.965 -0.258 73 58 45
-3278.5012 2877.8037 343.9400 -0.497 -0.667 -0.554 73 56 44
-3110.8098 2766.1873 312.5789 -0.199 -0.962 -0.186 65 49 36
-3078.5979 2746.9768 304.9222 0.053 -0.954 -0.296 65 49 35
-2957.0171 2731.3472 234.3819 -0.342 -0.939 -0.043 58 42 31
-2624.5874 2736.3293 6.5751 -0.239 -0.954 -0.179 150 94 92
-2630.8555 3050.2600 -219.0263 0.105 -0.633 0.767 184 144 145
-2620.0205 3046.3467 -223.4674 0.035 -0.666 0.745 184 144 145
-2517.3687 3040.1882 -288.1777 0.784 -0.196 0.589 187 146 146
-2516.9756 3047.0259 -293.4485 0.738 -0.268 0.619 187 145 146
-2435.5254 3046.9194 -348.2929 0.081 -0.644 0.760 207 161 163
-2452.3413 3072.8208 -355.9161 0.497 -0.529 0.688 205 160 162
-2286.0012 3143.5837 -519.8858 -0.271 -0.693 0.668 182 130 112
-2260.1504 3152.3435 -543.7302 0.912 0.078 0.403 151 121 119
-1973.8741 2910.9182 -560.0210 0.878 0.104 -0.467 49 51 40
-1527.2394 2455.4502 -527.7423 0.096 -0.993 -0.063 137 67 37
-1524.1437 2464.1431 -536.1937 -0.062 -0.993 -0.103 139 68 38
-1517.4803 2461.5151 -538.7629 -0.068 -0.996 -0.056 140 67 38
-1514.2316 2463.5493 -542.4429 -0.021 -0.991 0.135 146 73 44
-1509.1224 2463.0259 -545.5048 -0.021 -0.991 0.135 146 74 44
-1504.0227 2462.5032 -548.5609 -0.021 -0.991 0.135 145 74 44
-1533.0170 2515.8809 -568.0876 0.908 -0.347 0.233 132 67 35
-1530.6564 2519.3064 -572.1871 0.908 -0.347 0.233 127 62 30
-1532.1512 2534.9102 -582.6027 0.936 -0.292 0.198 115 51 18
-1415.9009 2560.7109 -679.8797 0.532 -0.835 -0.141 127 75 59
-1140.2990 2546.2461 -855.1299 -0.002 -0.996 0.086 68 33 20
-1135.8256 2545.9905 -857.9592 -0.002 -0.996 0.086 70 35 22
-1080.8170 2590.5732 -927.6909 0.991 0.056 0.119 111 61 53
-1079.6375 2605.7083 -939.5666 0.990 0.059 0.124 109 56 50
-1066.3704 2623.0212 -961.1876 0.986 0.035 -0.166 120 65 54
-1063.0814 2643.3896 -978.3170 0.702 -0.244 0.669 103 54 41
-1034.0784 2693.9714 -1034.9047 0.732 -0.601 -0.323 91 56 43
-1026.2709 3465.4060 -1604.9351 0.287 -0.819 0.497 83 23 25
-983.0974 3464.5630 -1633.4299 0.068 -0.810 0.583 76 38 33
-903.0393 3360.9099 -1611.5295 -0.678 -0.603 0.419 82 30 27
-895.4587 3352.9084 -1610.7833 -0.678 -0.603 0.419 84 29 26
-864.2615 3316.9341 -1605.4829 -0.019 -0.906 0.423 108 16 24
-836.1202 3306.0320 -1616.4773 0.133 -0.990 0.050 187 11 43
-826.1501 3288.9097 -1610.6650 0.409 -0.899 -0.155 190 5 37
-2335.3516 2041.8966 312.8509 0.850 -0.382 0.363 78 60 50
-3407.8088 2958.6084 361.3162 -0.464 -0.658 -0.593 72 56 43
-3394.5430 2954.6616 355.2848 -0.464 -0.659 -0.592 72 56 43
-3344.0327 2928.2625 340.6760 -0.492 -0.667 -0.560 72 56 43
-3129.8816 2775.2734 308.9097 -0.142 -0.977 -0.161 72 56 43
-3160.9487 2805.0945 307.9144 0.229 -0.910 -0.345 72 56 43
-3079.5027 2747.7964 295.1812 0.076 -0.940 -0.334 72 56 43
-2951.6775 2727.2036 224.2541 0.086 -0.991 0.099 65 48 38
-2960.1660 2739.7690 220.7363 0.031 -0.993 0.116 65 48 38
-3092.5789 2858.2646 222.8170 -0.452 -0.774 -0.444 65 48 38
-2515.8940 3038.9827 -298.2194 0.738 -0.268 0.619 187 145 146
-2460.4263 3023.1787 -323.9509 0.263 -0.749 0.608 180 136 137
-2446.6411 3015.5532 -327.6287 0.444 -0.602 0.664 185 141 142
-2439.9268 3015.5344 -332.1354 0.444 -0.602 0.664 191 145 147
-2435.7000 3018.2065 -336.9445 0.434 -0.619 0.654 199 153 155
-2431.7708 3021.2068 -341.7944 0.441 -0.612 0.657 201 155 157
-2425.0789 3021.1963 -346.2918 0.441 -0.612 0.657 201 155 157
-2427.3845 3031.0266 -351.9624 0.416 -0.583 0.698 201 155 157
-2364.2698 3079.9114 -430.3730 0.586 -0.799 -0.136 211 161 162
-2485.1631 3250.4666 -474.2992 0.838 -0.401 -0.371 196 145 141
-2272.7383 3136.0054 -533.2121 0.846 -0.302 0.439 176 133 119
-2245.7512 3151.3323 -562.6425 0.911 0.080 0.404 26 34 31
-1968.0820 2851.9338 -529.5965 0.221 -0.715 0.664 25 41 39
-1544.0916 2459.3887 -526.6201 0.591 -0.772 -0.232 126 65 34
-1539.7113 2459.9082 -529.9509 0.169 -0.981 -0.090 127 65 34
-1535.2502 2460.3127 -533.2516 0.092 -0.994 -0.062 136 69 37
-1537.2039 2469.4121 -538.6221 -0.045 -0.984 0.172 137 68 37
-1532.1285 2468.9946 -541.7323 0.219 -0.964 0.148 138 67 37
-1526.0685 2467.2219 -544.5097 0.220 -0.947 0.235 138 67 37
-1521.0807 2466.8972 -547.6292 0.210 -0.948 0.239 140 69 39
-1515.5781 2465.8550 -550.5679 0.220 -0.949 0.224 140 69 39
-1509.8788 2464.5264 -553.4288 0.226 -0.950 0.214 140 69 39
-1519.5806 2491.0537 -566.3884 -0.096 -0.759 0.644 132 66 34
-1139.2601 2545.0444 -862.1087 0.003 -0.995 0.098 67 33 21
-1137.3719 2549.6562 -866.7684 -0.047 -0.993 0.105 68 34 22
-1105.1652 2562.6074 -897.9677 0.768 -0.018 0.640 87 40 35
-1079.9648 2589.6938 -934.8357 0.991 0.058 0.119 96 48 43
-1079.7045 2597.9048 -941.0441 0.991 0.058 0.119 96 47 42
-1060.7280 2630.2500 -977.5859 0.684 -0.275 0.675 96 48 38
-1060.7911 2639.4907 -984.3332 0.600 -0.445 0.665 94 53 41
-1052.9017 2641.2212 -990.9161 0.587 -0.462 0.665 93 53 41
-1047.2502 2638.4585 -992.6911 0.698 -0.341 0.629 92 52 40
-1042.7466 2638.1067 -995.4647 -0.114 -0.988 0.103 90 50 38
-1046.8047 2782.9221 -1099.1373 -0.359 -0.928 -0.102 92 52 42
-1042.8484 2784.2078 -1102.7455 -0.210 -0.919 -0.333 104 61 52
-1014.3290 2780.7732 -1119.4226 0.912 -0.400 0.095 68 38 40
-923.0714 2796.2639 -1192.2437 0.972 0.065 0.226 46 36 34
-908.4979 3363.9871 -1619.1960 -0.671 -0.602 0.432 78 31 27
-888.8547 3333.5588 -1610.0634 -0.484 -0.689 0.540 78 27 24
-866.7421 3310.6406 -1608.1113 -0.011 -0.910 0.415 92 16 20
-862.0756 3311.7180 -1612.0446 0.098 -0.991 0.090 109 12 23
-856.1691 3308.6731 -1613.7837 0.493 -0.868 0.051 134 11 31
-849.3651 3302.5789 -1613.8867 0.481 -0.873 0.083 153 11 38
-845.7719 3307.1714 -1619.6802 -0.110 -0.993 -0.034 166 14 43
-841.1591 3308.3550 -1623.6554 -0.423 -0.827 0.370 175 12 41
-845.9130 3762.2324 -1953.9464 0.701 -0.251 -0.668 132 2 14
-902.1625 4026.0698 -2109.9341 0.703 -0.271 -0.658 116 6 11
-3470.4036 2644.7693 624.1600 0.842 -0.500 0.205 98 85 79
-3460.7290 2643.6104 618.5115 0.844 -0.265 0.466 98 85 79
-3341.1123 2605.3923 566.2892 -0.181 -0.974 0.138 84 71 63
-3153.5474 2488.8760 526.1323 0.401 -0.733 0.550 81 67 58
-3180.3428 2526.9250 516.0856 0.065 -0.890 0.452 80 66 57
-3083.4927 2745.2881 289.9576 0.087 -0.935 -0.344 77 61 48
-3094.8730 2759.8345 286.8804 0.158 -0.916 -0.367 77 61 48
-3074.6082 2749.8416 280.6276 -0.043 -0.928 -0.371 77 61 48
-3128.2788 2887.2419 215.3818 -0.462 -0.787 -0.409 70 53 43
-2743.3169 2800.5847 20.5179 0.023 -0.954 -0.298 91 44 26
-2734.5088 2798.8872 15.8490 0.036 -0.966 -0.257 93 44 27
-2723.9719 2795.6289 11.1690 0.095 -0.911 -0.402 109 60 45
