ply
format ascii 1.0
element vertex 801
property float x
property float y
property float z
property float nx
property float ny
property float nz
property uchar diffuse_red
property uchar diffuse_green
property uchar diffuse_blue
end_header
-2561.1304 3015.9373 327.2072 0.640 -0.634 -0.433 109 77 62
-2598.9058 3461.0112 225.5384 0.960 -0.158 0.230 8 6 2
-2363.3354 3656.3135 82.8552 -0.109 -0.701 -0.705 119 101 107
-2350.6970 3649.9199 79.6111 -0.146 -0.882 -0.449 199 175 184
-2342.5164 3649.9692 76.4165 -0.140 -0.866 -0.481 204 174 179
-2358.4998 5100.8340 -296.6848 0.858 0.331 -0.392 193 158 154
-2308.6077 1147.2881 712.5036 -0.309 -0.328 -0.893 11 12 7
-3247.8901 2364.9851 756.3923 -0.103 -0.908 -0.406 85 58 41
-3422.3760 2766.0681 718.6035 -0.465 -0.854 -0.231 85 44 23
-3258.4868 2879.4316 625.3466 0.686 -0.392 -0.614 33 10 2
-3248.1775 2880.7302 621.0126 0.498 0.103 -0.861 40 17 9
-3255.6040 2896.6562 619.7050 0.479 0.107 -0.871 44 22 11
-3245.2024 2897.8633 615.3593 0.433 0.151 -0.889 92 70 59
-3250.8311 2912.3835 613.7247 0.414 0.119 -0.903 100 78 67
-3264.5564 2933.7322 613.4321 0.401 0.110 -0.909 106 84 73
-3277.2786 2954.3506 612.9429 0.315 0.093 -0.944 112 87 77
-3339.8752 3017.0566 620.7134 1.000 0.002 0.010 105 76 68
-3216.2644 2962.5791 587.1501 0.745 -0.452 0.492 104 71 64
-3238.3845 2991.6055 588.0918 0.738 -0.461 0.493 98 65 58
-3202.2424 3155.2842 531.0939 0.566 -0.520 0.640 52 37 30
-3229.3740 3266.2932 512.4389 0.592 -0.806 0.027 52 31 23
-3222.2778 3281.3569 505.7332 0.367 -0.854 0.368 62 41 32
-2391.7234 2709.2178 334.3614 0.903 -0.380 -0.199 70 27 11
-2390.5620 2716.8162 331.9154 0.904 -0.379 -0.196 88 45 29
-2390.7292 2725.8313 329.6118 0.908 -0.374 -0.188 110 67 51
-2392.1953 2736.2466 327.4434 0.898 -0.374 -0.230 117 74 58
-2408.5320 2762.4541 326.8857 0.876 -0.469 -0.116 117 74 58
-2428.9365 2793.1350 326.7283 0.798 -0.560 -0.223 117 74 58
-2697.8298 3330.2522 289.7664 0.541 -0.727 0.423 85 63 52
-2695.3220 3338.2424 286.6960 0.519 -0.749 0.412 85 63 52
-2650.2998 3372.9807 260.1326 0.112 -0.978 -0.173 51 18 9
-2603.7891 3461.3015 218.9161 0.964 -0.147 0.222 8 6 2
-2204.4534 3245.2131 121.0196 -0.091 -0.979 -0.181 29 33 34
-2231.2925 4794.1421 -275.5035 0.822 0.312 -0.476 202 167 163
-2398.5728 5190.3267 -314.7963 0.878 0.330 -0.347 199 164 160
-3115.5164 2064.7012 776.5091 0.111 -0.728 0.677 83 73 64
-3496.5474 2572.4895 789.4194 0.569 0.119 -0.814 87 60 43
-3762.1592 2841.7976 820.7684 0.167 -0.364 -0.916 69 47 33
-3264.1772 2879.9990 618.6261 0.686 -0.392 -0.614 34 9 2
-3262.1543 2888.1230 615.7014 0.686 -0.392 -0.614 40 18 7
-3241.7009 2881.0498 609.6802 0.436 0.155 -0.887 45 23 12
-3290.1177 2960.8657 607.2839 0.400 0.118 -0.909 115 90 78
-3331.8257 3026.3611 606.0805 0.611 -0.747 0.264 107 74 67
-3314.2595 3021.6843 600.5403 0.864 -0.364 0.347 107 74 67
-3320.8000 3037.4839 598.8920 0.925 -0.266 0.270 103 70 63
-3192.3577 3120.6130 527.4114 0.886 -0.263 0.382 49 25 18
-3199.8462 3137.9092 525.7338 0.458 -0.709 -0.536 44 28 21
-3196.7961 3230.5918 500.0916 0.812 -0.484 -0.327 54 30 25
-3194.2744 3238.9663 496.9085 0.165 -0.984 -0.061 61 37 32
-3189.7344 3245.4343 493.4501 0.199 -0.976 -0.091 64 40 35
-3098.9424 3201.1868 470.1143 0.083 -0.911 -0.404 64 38 32
-3069.2944 3193.6462 460.6704 0.805 -0.178 -0.566 74 43 26
-2443.9060 2741.5986 338.8039 0.029 -0.908 -0.418 72 29 13
-2398.8320 2721.2969 326.7792 0.875 -0.445 -0.189 88 45 29
-2396.2649 2727.4502 324.1649 0.875 -0.445 -0.189 109 66 50
-2419.2383 2760.5310 324.2926 0.827 -0.416 -0.378 116 74 58
-2412.7102 2762.6064 321.2270 0.813 -0.481 -0.329 117 74 58
-2605.2224 3457.2961 212.0937 0.976 -0.217 0.012 8 6 2
-2413.8806 3492.2043 129.0836 0.697 -0.516 0.498 11 15 16
-2371.3181 3666.7617 66.5898 -0.221 -0.935 0.276 187 163 172
-2359.0347 3660.9092 63.3973 -0.229 -0.933 0.277 190 161 166
-2092.6953 4439.0215 -244.7240 0.847 0.346 -0.403 207 172 166
-2078.5100 4441.2227 -250.7758 0.783 0.301 -0.545 202 167 161
-2028.9058 4447.8760 -271.6633 0.555 -0.712 0.431 208 173 169
-3651.5991 2829.1636 772.1345 -0.359 -0.792 -0.495 56 33 19
-3302.8789 2829.4958 638.1229 0.626 0.020 -0.780 56 23 14
-3229.0786 2847.1897 605.0874 0.778 0.261 -0.571 34 9 2
-3239.9519 2865.7827 604.3317 0.775 0.251 -0.580 40 16 6
-3250.1111 2883.8792 603.4333 0.767 0.294 -0.570 45 21 9
-3274.7976 2923.9634 602.2822 0.559 0.172 -0.811 86 62 50
-3302.8069 2967.2344 601.5620 0.403 0.109 -0.908 98 73 61
-3330.4043 3000.4458 603.3516 0.999 0.036 0.027 105 76 65
-3337.7473 3016.7947 601.8353 0.855 -0.515 0.059 107 74 65
-3328.1719 3018.9170 597.5951 0.630 -0.725 0.276 107 74 65
-3319.9304 3032.3611 590.8641 0.925 -0.266 0.270 97 64 55
-3272.9238 3063.6890 564.5022 0.215 -0.815 -0.538 80 50 42
-3200.0647 3112.6165 523.5438 0.710 -0.203 0.674 53 30 22
-3177.9619 3229.3704 484.0880 0.397 -0.911 -0.110 61 41 36
-3108.9255 3205.9863 463.7774 0.072 -0.913 -0.403 60 40 34
-3118.4224 3225.8152 462.1652 0.505 -0.754 0.420 63 40 32
-2427.1665 2720.0957 330.8287 -0.027 -0.992 -0.122 71 30 12
-2400.6272 2701.4070 325.5935 0.896 -0.409 -0.175 71 30 12
-2403.3000 2712.9712 323.5527 0.840 -0.543 -0.015 71 28 11
-2428.5488 2748.1724 323.9128 0.406 -0.876 -0.260 89 46 29
-2423.8909 2761.1743 318.6752 0.352 -0.877 -0.326 116 74 58
-2420.3108 2766.3708 315.9220 0.831 -0.413 -0.372 116 74 58
-2680.3335 3310.1284 271.5574 0.625 -0.629 0.462 85 65 54
-2705.7092 3350.3608 270.6317 0.487 -0.618 0.617 86 66 55
-2703.8679 3370.1431 264.6775 0.797 -0.439 0.415 74 52 41
-2652.7788 3353.9377 249.3554 0.273 -0.961 0.042 49 21 10
-2645.2368 3355.9290 245.9308 0.273 -0.961 0.042 49 20 9
-2478.0247 3240.4290 212.3490 0.598 -0.415 -0.686 50 25 13
-2371.7949 3660.8674 60.0365 -0.193 -0.944 0.267 182 159 163
-2357.8328 3652.5740 56.8742 0.103 -0.982 -0.160 189 162 161
-2329.1626 5024.8394 -318.1115 0.826 0.252 -0.503 208 175 170
-3709.4121 2866.8127 774.8954 -0.284 -0.957 -0.066 64 41 25
-3437.0295 2982.4282 639.9208 0.535 0.334 -0.776 43 10 3
-3221.9417 3045.2778 540.9187 0.863 0.358 -0.357 95 65 57
-3206.3057 3092.9626 522.2314 0.711 -0.204 0.673 63 40 32
-3071.1677 3031.2605 486.9960 0.752 -0.395 0.528 42 27 26
-3113.7786 3195.2288 459.5939 0.114 -0.893 -0.435 44 41 33
-3107.6863 3199.9668 456.0015 0.112 -0.890 -0.442 44 41 34
-3099.4299 3202.6050 452.1411 0.037 -0.891 -0.452 37 40 34
-2433.9802 2722.9775 325.4823 -0.086 -0.923 -0.376 70 29 11
-2407.4136 2704.3101 320.2977 0.869 -0.451 -0.205 72 31 13
-2437.4990 2744.3718 321.1264 0.376 -0.878 -0.296 71 30 12
-2434.4788 2750.1436 318.4333 0.384 -0.861 -0.333 90 49 31
-2433.7285 2758.2974 315.9734 0.445 -0.834 -0.327 110 69 51
-2431.7527 2765.1860 313.3820 0.251 -0.856 -0.451 116 74 58
-2422.8635 2764.8008 310.0853 0.420 -0.829 -0.370 116 74 58
-2669.7668 3314.1187 258.1132 0.239 -0.786 0.569 78 58 49
-2681.8979 3339.0701 256.1028 0.664 -0.399 -0.633 77 57 48
-2703.8406 3375.6292 254.7511 0.712 -0.320 0.625 76 56 46
-2486.5742 3245.5068 206.3423 0.522 -0.422 -0.741 50 25 13
-2647.2917 3497.9365 200.5313 0.626 -0.656 -0.422 7 5 1
-2349.5486 3404.2278 111.6429 -0.211 -0.422 -0.882 11 12 14
-2375.5840 3659.7896 53.4927 -0.193 -0.944 0.267 187 167 166
-2357.4868 3645.5125 50.3769 0.107 -0.986 -0.125 190 163 158
-2008.0436 4265.3608 -248.4437 0.772 0.301 -0.559 185 150 144
-2089.9783 4445.2363 -265.0468 0.777 0.300 -0.554 190 155 149
-2266.9878 4852.3208 -305.8427 -0.220 -0.832 -0.510 210 175 171
-3300.5510 3058.2224 558.5128 0.912 -0.344 0.223 96 65 60
-3285.4675 3076.0227 548.0031 0.668 -0.635 -0.388 97 66 63
-3176.3845 3031.0210 518.5147 0.654 -0.325 0.684 87 67 56
-3181.6003 3066.2239 511.0751 0.777 -0.244 0.581 60 40 28
-3047.3660 2994.9756 479.0371 0.287 -0.824 0.488 48 28 37
-3028.6743 2997.7129 471.1866 0.889 -0.253 0.381 40 31 38
-3129.1633 3152.4819 468.0114 0.754 -0.470 0.459 22 34 25
-3126.3140 3160.2651 464.8424 0.754 -0.473 0.455 22 34 25
-3120.8591 3165.5916 461.3391 0.754 -0.473 0.455 24 34 26
-3111.3799 3167.0862 457.3293 0.104 -0.664 -0.741 29 41 33
-2453.9670 2748.3323 319.1167 0.317 -0.707 -0.633 72 34 13
-2443.8728 2746.7898 315.6859 0.379 -0.878 -0.292 71 33 12
-2442.0876 2753.8560 313.1141 0.277 -0.901 -0.334 88 50 31
-2444.3223 2765.1382 310.9442 0.278 -0.818 -0.504 109 71 52
-2438.2756 2767.7793 307.9344 0.242 -0.860 -0.449 114 75 58
-2427.3723 2765.2932 304.4482 0.117 -0.877 -0.466 114 75 60
-2681.7764 3322.6868 252.0773 0.668 -0.697 -0.261 79 59 50
-2700.6614 3355.4941 250.4842 0.628 -0.400 -0.667 79 59 50
-2695.0361 3359.8733 247.1696 0.770 -0.628 -0.114 79 59 50
-2689.3962 3364.2261 243.8565 0.251 -0.693 0.676 85 61 51
-2610.6304 3325.5754 224.2121 0.393 -0.827 0.402 46 22 12
-2658.8169 3506.3765 194.1506 0.560 -0.625 -0.544 7 5 1
-2367.7793 3434.1746 102.6587 -0.205 -0.397 -0.895 14 15 17
-2390.2935 3662.4841 50.1006 -0.151 -0.930 0.335 133 122 116
-2380.0410 3659.6802 46.9473 -0.151 -0.930 0.335 186 167 160
-3256.7327 2867.3254 584.2485 0.867 0.227 -0.444 38 10 0
-3292.2490 3077.4724 541.1830 0.913 -0.357 0.199 97 66 61
-3277.7029 3075.0791 536.3113 0.877 -0.378 0.296 97 66 61
-3217.8540 3073.6682 513.9982 -0.124 -0.976 0.178 80 60 49
-3187.9673 3057.2297 507.0882 0.843 -0.384 0.377 75 55 44
-3007.5386 2964.0112 463.7524 0.968 -0.100 0.228 47 38 44
-3103.4778 3154.8489 448.7917 0.024 -0.601 -0.799 19 36 31
-3093.6760 3155.9692 444.7737 -0.022 -0.607 -0.795 19 36 31
-3124.7971 3206.7773 442.9058 0.122 -0.889 -0.442 17 37 34
-2461.6948 2752.1194 313.7875 0.028 -0.889 -0.457 72 34 13
-2448.1399 2755.9368 307.6209 0.043 -0.902 -0.431 89 51 32
-2449.8618 2766.6816 305.3832 0.278 -0.818 -0.504 109 71 52
-2444.8462 2770.4128 302.4778 0.247 -0.864 -0.439 114 75 58
-2434.5410 2768.5776 299.0641 -0.059 -0.785 -0.617 114 75 60
-2663.0903 3295.6951 243.9213 0.747 -0.579 -0.327 78 60 50
-2709.3325 3360.1387 244.1187 0.609 -0.432 -0.665 79 59 50
-2615.1211 3325.4900 217.7176 0.409 -0.821 0.399 46 22 12
-2604.5562 3323.7000 214.1933 0.396 -0.828 0.398 46 22 12
-2618.7183 3428.6216 191.3379 0.686 0.432 -0.585 31 10 3
-2395.5344 3663.4836 43.5327 -0.149 -0.931 0.332 134 123 116
-2383.3140 3657.8616 40.4115 -0.151 -0.930 0.335 186 168 160
-2366.6145 3645.6782 37.3571 -0.131 -0.940 0.314 190 165 156
-2159.4529 4456.7056 -259.3689 0.291 -0.809 -0.511 206 173 166
-2790.3254 2079.9475 612.2812 0.058 -0.683 -0.728 107 80 63
-3624.3997 2863.2512 715.4829 0.063 -0.713 -0.698 54 31 17
-3411.1279 2811.2651 649.0127 0.336 -0.809 -0.482 75 41 23
-3451.7285 2971.4863 621.0388 0.848 -0.131 -0.514 39 11 0
-3482.1104 3016.3071 620.3957 0.763 -0.042 -0.645 39 11 0
-3275.5552 2868.9065 582.2488 0.736 -0.150 -0.660 38 10 0
-3279.5249 3061.9321 531.5789 0.968 -0.249 0.027 97 66 61
-3189.3442 3033.6814 505.1667 0.161 -0.978 0.135 87 67 58
-3067.5823 2984.7275 472.4262 -0.382 -0.901 0.207 44 25 17
-3097.7498 3072.6421 460.0555 0.934 -0.132 0.331 20 37 30
-2453.8181 2757.6211 302.0801 -0.165 -0.939 -0.302 89 51 32
-2455.1072 2767.9128 299.7852 0.102 -0.842 -0.530 108 70 51
-2450.1484 2771.7109 296.8867 0.087 -0.871 -0.484 114 75 58
-2442.5759 2772.7588 293.7444 -0.083 -0.798 -0.596 114 75 60
-2628.1345 3434.4861 184.9582 0.673 0.421 -0.608 31 9 3
-2367.5232 3616.7678 37.2999 0.254 -0.876 -0.409 134 123 116
-2361.5625 3620.0193 34.1706 0.243 -0.875 -0.419 185 167 159
-2350.9148 3616.4836 31.1062 0.324 -0.853 -0.410 189 164 156
-2375.3188 3663.6992 27.5591 0.016 -0.956 -0.293 195 166 155
-2407.7842 4966.1924 -312.2056 0.848 -0.524 0.072 190 155 149
-2775.7451 2074.6013 601.3271 0.161 -0.840 -0.517 110 83 66
-2771.6553 2093.4526 594.6711 -0.286 -0.946 0.151 95 68 49
-2838.1943 2161.1631 601.3004 0.605 -0.792 -0.077 86 59 40
-2861.4548 2184.7520 603.6399 0.690 -0.716 0.109 86 59 40
-3342.0188 2859.9895 600.9579 0.933 -0.356 0.051 48 20 8
-3340.9946 2927.8948 582.1352 -0.075 -0.200 -0.977 44 16 5
-3236.9805 3071.4265 504.0612 0.167 -0.951 -0.259 77 57 46
-3101.9382 2991.4697 475.0046 0.126 -0.963 0.237 50 30 19
-3097.3535 3067.7412 452.5718 0.945 -0.132 0.298 12 37 31
-2468.0381 2759.1992 299.7679 -0.102 -0.909 -0.403 71 33 12
-2463.2888 2772.1924 294.4546 0.081 -0.882 -0.464 109 71 52
-2457.5029 2775.1453 291.4778 0.108 -0.902 -0.419 111 72 55
-2591.5400 3308.0908 197.1608 0.326 -0.698 0.638 46 22 12
-2644.4634 3448.7825 178.8557 0.663 0.422 -0.618 30 8 2
-2387.2981 3614.9922 37.0499 0.320 -0.818 -0.479 31 30 34
-2380.1680 3616.6292 33.9250 0.237 -0.864 -0.445 49 43 41
-2373.0481 3618.2532 30.8074 0.228 -0.878 -0.421 134 123 116
-2366.9587 3621.3306 27.6826 0.228 -0.878 -0.421 184 166 158
-2355.7576 3617.0195 24.6423 0.285 -0.851 -0.440 189 164 155
-2359.4934 3634.2537 21.3673 -0.084 -0.908 -0.411 194 165 154
-2776.7319 2072.5522 595.3718 0.100 -0.842 -0.530 114 87 70
-3305.4026 2826.9331 587.4884 0.334 -0.936 -0.111 51 23 11
-3337.5222 2891.4038 581.9255 0.422 -0.795 -0.436 49 21 9
-3371.9382 2929.0229 584.5466 0.666 0.107 -0.738 42 16 3
-3378.8967 2944.6082 582.9001 0.388 0.127 -0.913 45 19 6
-3387.7449 2961.7996 581.5228 0.388 0.127 -0.913 53 27 14
-3274.1257 2947.7969 542.8127 0.819 -0.151 -0.553 69 37 26
-3103.0464 2988.1016 467.7810 0.134 -0.971 0.197 49 29 18
-2470.2749 2766.2478 291.4396 -0.150 -0.937 -0.316 90 52 33
-2687.5381 3340.3408 216.1686 0.477 -0.660 0.580 81 57 47
-2647.1797 3325.5845 205.0869 0.205 -0.719 0.664 73 49 39
-2591.9478 3303.1873 190.5219 0.423 -0.630 0.652 45 21 11
-2569.7817 3287.3992 186.5314 0.291 -0.955 -0.063 47 25 14
-2573.7375 3302.8110 183.8082 0.256 -0.965 -0.053 49 23 14
-2567.4448 3305.9502 180.5964 0.305 -0.951 -0.052 48 24 14
-2657.2349 3458.6848 172.5447 0.644 0.406 -0.648 29 8 1
-2268.7595 3319.7107 65.0401 -0.057 -0.998 0.019 28 31 38
-2065.9939 4232.5425 -259.8529 0.661 0.153 -0.734 204 171 164
-2722.0710 2026.0547 580.8690 0.467 -0.255 -0.846 120 93 76
-3319.2437 2843.5808 579.4189 0.827 -0.267 0.495 55 27 15
-3319.0222 2872.4690 571.4204 0.428 -0.900 -0.079 55 27 15
-3376.0393 2928.2048 577.3981 0.652 0.110 -0.751 56 28 14
-3403.3953 2970.3315 576.0503 0.388 0.127 -0.913 67 38 24
-3412.4058 2987.7512 574.6353 0.388 0.127 -0.913 71 43 29
-3286.8562 2944.3223 539.7429 0.935 0.023 -0.354 69 37 26
-3305.9604 2990.2644 534.2739 -0.057 -0.995 -0.084 55 21 11
-3233.7883 3049.5024 491.1426 0.668 0.468 -0.579 67 47 36
-3105.8838 2986.2900 460.7935 0.134 -0.971 0.197 56 37 26
-2483.3721 2766.6006 288.9802 -0.070 -0.921 -0.384 72 34 13
-2478.9270 2770.9761 286.1245 -0.146 -0.919 -0.366 90 52 33
-2470.8445 2789.5603 278.0197 -0.103 -0.788 -0.606 109 70 55
-2670.0840 3325.4480 205.4329 0.542 -0.644 0.540 81 57 47
-2650.3113 3323.8779 198.4937 0.262 -0.698 0.667 81 57 47
-2573.4519 3286.4272 180.1101 0.221 -0.974 0.045 47 25 14
-2575.3667 3299.3752 177.2758 0.452 -0.881 0.141 48 24 14
-2637.6323 3417.9985 167.9773 0.640 0.403 -0.654 37 11 3
-2262.6995 3305.7097 59.0076 -0.015 -0.769 -0.639 28 31 38
-2399.9336 3631.9443 20.7605 -0.242 -0.838 -0.489 49 43 41
-2354.7651 3614.4998 8.7061 -0.222 -0.826 -0.519 193 164 153
-2783.9019 2144.5928 564.4693 0.890 -0.276 -0.362 85 59 42
-3071.9858 2419.4919 595.7050 0.964 -0.144 0.222 74 48 33
-3404.0220 2828.7769 606.2589 -0.166 -0.493 -0.854 70 37 18
-3395.7065 2841.6902 599.6185 -0.211 -0.544 -0.812 72 39 21
-3315.4578 2865.5764 563.2635 0.509 -0.843 -0.173 62 33 19
-3380.2666 2927.4897 570.2709 0.597 0.122 -0.793 68 38 23
-3403.0920 2965.8936 568.1700 0.632 0.192 -0.751 80 49 34
-3221.6077 2895.5591 520.1830 0.399 -0.909 0.123 72 36 24
-3292.0886 2964.3567 527.4004 0.191 -0.974 0.126 72 36 24
-3227.5986 2939.7393 510.2449 0.266 -0.942 0.206 57 20 10
-3123.7285 2997.8918 455.6917 -0.416 -0.818 -0.396 62 43 34
-3110.5012 2996.0000 451.3039 -0.415 -0.823 -0.388 67 50 41
-2480.0054 2794.8489 272.7007 -0.103 -0.788 -0.606 108 71 55
-2655.5725 3324.6714 192.0098 0.275 -0.748 0.604 86 64 53
-2577.0122 3285.3269 173.6867 0.221 -0.974 0.045 47 25 14
-2577.5227 3296.5801 170.7786 0.444 -0.884 0.148 48 24 14
-2309.3481 3341.8591 58.7966 -0.171 -0.851 -0.497 15 16 18
-2287.9219 3323.6016 55.8711 -0.298 -0.858 -0.418 15 18 23
-2274.8342 3316.5403 52.9580 -0.010 -0.776 -0.631 26 29 36
-2268.6567 3318.8391 50.0328 -0.010 -0.776 -0.631 28 31 38
-2405.8887 3633.9824 14.2102 -0.203 -0.754 -0.625 49 43 41
-2397.8457 3634.3774 11.1167 -0.203 -0.754 -0.625 131 120 114
-1799.6879 4927.7612 -566.8829 0.660 0.050 -0.750 214 173 177
-2782.1167 2155.2400 553.9140 0.581 -0.111 -0.806 88 65 47
-2799.6870 2175.0093 554.9396 0.571 -0.113 -0.813 86 63 45
-3397.0852 2848.5024 589.4415 -0.186 -0.521 -0.833 61 31 16
-3403.9165 2952.3748 563.2435 0.786 0.184 -0.591 80 46 29
-3347.1709 2926.2812 549.4920 0.561 -0.654 0.508 83 49 32
-3223.1465 2892.7329 512.9430 0.393 -0.903 0.175 81 42 27
-3240.9204 2917.3252 512.7102 0.703 -0.633 0.325 82 42 27
-3244.3022 2929.9661 510.4643 0.889 -0.282 0.360 71 30 17
-3216.0510 2915.9968 503.8885 0.168 -0.959 0.227 67 27 14
-3207.3933 2918.4563 500.0096 0.245 -0.942 0.228 62 22 9
-3151.6301 2909.9158 481.7673 0.333 -0.890 0.311 60 27 17
-3109.4109 2980.7646 446.5772 0.141 -0.961 0.239 67 47 41
-3111.3735 3002.3618 441.3305 -0.415 -0.820 -0.394 63 52 47
-2490.4646 2801.4700 267.4616 -0.037 -0.816 -0.577 108 71 55
-2602.1980 3278.0095 176.9766 0.345 -0.735 0.584 81 58 50
-2573.8784 3286.8684 164.0632 0.414 -0.703 0.578 51 28 18
-2567.7312 3290.1433 160.8863 0.428 -0.688 0.585 47 24 16
-2427.7900 3634.8823 13.8552 -0.230 -0.765 -0.601 26 30 38
-2416.2847 3642.3030 7.5522 -0.203 -0.754 -0.625 42 36 34
-2408.2056 3642.6863 4.4611 -0.203 -0.754 -0.625 111 100 93
-2400.1509 3643.0686 1.3793 -0.203 -0.754 -0.625 185 166 158
-2391.7134 3642.8665 -1.6824 -0.342 -0.808 -0.480 193 168 158
-2727.1741 2121.1140 536.2291 0.981 0.192 -0.014 91 66 46
-3384.6968 2844.5801 577.1736 -0.359 -0.882 -0.306 64 36 16
-3270.5632 2850.3472 533.5840 0.543 -0.832 0.113 84 44 26
-3230.6135 2894.8491 506.5265 0.377 -0.922 0.085 88 44 27
-3240.0518 2912.4580 505.1078 0.707 -0.631 0.320 88 44 27
-3243.6548 2925.2581 502.8779 0.889 -0.283 0.359 78 34 18
-3202.8479 2910.4612 491.9757 0.206 -0.948 0.244 67 22 7
-3196.3225 2914.6812 488.4030 0.310 -0.790 -0.528 61 17 3
-3208.7996 2994.4128 470.8472 0.748 0.515 -0.419 61 29 18
-3115.2073 2981.6050 439.9736 0.357 -0.836 0.416 66 45 42
-2498.1033 2805.1389 261.9662 0.161 -0.934 -0.318 108 71 55
-2570.2478 3277.2053 157.3878 0.530 -0.618 0.581 53 33 25
-2563.6313 3279.8914 154.2077 0.530 -0.618 0.581 44 24 17
-2557.0273 3282.5728 151.0334 0.530 -0.618 0.581 42 22 13
-2433.6323 3648.5437 3.9880 -0.212 -0.757 -0.618 31 28 33
-2425.3889 3648.7646 0.8940 -0.212 -0.757 -0.618 43 36 36
-2417.1711 3648.9846 -2.1902 -0.212 -0.757 -0.618 112 99 94
-2408.9795 3649.2041 -5.2648 -0.212 -0.757 -0.618 185 166 158
-2404.0508 3654.0479 -8.4234 -0.350 -0.797 -0.492 193 167 157
-2373.0657 3621.5352 -10.7917 -0.264 -0.890 -0.371 197 167 157
-2113.9966 5529.1738 -635.9560 0.642 -0.003 -0.766 221 172 175
-1980.8962 5273.5029 -613.9073 0.324 -0.045 -0.945 218 168 171
-2391.0286 1722.6525 517.4651 -0.151 -0.751 0.643 113 96 80
-3237.1191 2896.1587 499.9671 0.413 -0.898 0.150 87 44 27
-3240.2358 2908.4824 497.6704 0.707 -0.631 0.320 87 44 27
-3234.6213 2923.3140 491.4760 0.510 -0.832 0.217 73 30 13
-3227.2327 2926.8828 487.7740 0.510 -0.832 0.217 66 23 7
-3220.6812 2931.1431 484.1857 0.559 -0.820 0.122 61 18 3
-2506.7451 2755.9263 271.5698 -0.051 -0.932 -0.360 72 31 11
-2505.1729 2808.2043 256.4084 0.190 -0.949 -0.250 108 71 55
-2565.5354 3266.2876 150.7144 0.278 -0.792 0.543 59 39 32
-2543.6787 3261.2466 144.1151 0.259 -0.922 0.288 42 22 13
-2588.8960 3326.1309 142.5748 0.687 0.338 -0.643 40 20 9
-2439.9373 3651.0098 -2.6261 -0.234 -0.848 -0.475 32 29 34
-2433.5283 3653.8394 -5.7630 -0.231 -0.862 -0.450 44 36 35
-2424.5647 3653.0317 -8.8209 -0.231 -0.862 -0.450 113 100 94
-2415.6345 3652.2271 -11.8674 -0.231 -0.862 -0.450 184 166 158
-2408.0183 3653.2520 -14.9429 -0.226 -0.858 -0.461 192 166 159
-2021.1327 5362.3716 -633.4905 0.339 -0.041 -0.940 219 167 171
-3459.5332 2984.6470 547.7041 0.990 -0.143 -0.008 86 43 27
-3221.5200 2888.7756 487.7719 0.955 -0.032 0.296 87 44 27
-3237.6060 2931.4570 481.6772 0.897 -0.273 0.347 66 23 7
-3238.7402 2942.2314 479.0715 0.963 -0.165 0.214 61 18 3
-2485.5161 2774.6313 251.3527 -0.113 -0.966 -0.234 108 71 53
-2487.3574 2785.4956 248.9797 -0.100 -0.991 -0.091 109 72 56
-2543.3518 3245.0928 140.6040 0.177 -0.913 0.367 43 23 14
-2543.4221 3255.6487 137.6715 0.192 -0.927 0.323 41 21 12
-2408.7583 3531.5476 11.2453 -0.138 -0.290 -0.947 31 31 39
-2447.7114 3655.5278 -9.2929 -0.070 -0.980 -0.188 32 30 33
-2441.6731 3658.9016 -12.4404 -0.052 -0.990 -0.132 43 35 34
-2433.2378 3658.8711 -15.5081 -0.052 -0.990 -0.132 110 97 91
-2424.8303 3658.8413 -18.5658 -0.052 -0.990 -0.132 183 165 158
-2416.4500 3658.8113 -21.6135 -0.052 -0.990 -0.132 193 166 162
-2396.6694 3642.4607 -24.2451 0.153 -0.916 -0.370 196 165 161
-2949.4285 4594.8589 -89.5607 0.489 -0.783 0.384 200 163 157
-1627.4987 4185.2251 -456.8491 0.339 -0.073 -0.938 220 178 179
-1896.9298 4962.3989 -576.3848 0.578 0.039 -0.815 214 162 166
-1890.3871 4982.4102 -584.3787 0.146 -0.859 -0.490 215 163 167
-1842.0603 4879.1274 -573.0591 0.093 -0.212 -0.973 216 165 169
-3240.7632 2929.9502 474.6410 0.991 -0.106 0.084 78 35 19
-3233.5461 2933.6680 470.9742 0.992 -0.093 0.090 77 34 19
-3103.5500 2842.8667 449.3329 -0.360 -0.861 -0.360 62 28 16
-3339.7324 3188.8674 437.6968 0.916 0.398 0.057 35 31 30
-2532.9712 2774.1943 261.4945 -0.037 -0.998 0.046 71 30 10
-2575.1426 3256.6182 141.0166 0.230 -0.900 0.370 102 82 73
-2560.2280 3249.4417 137.6215 0.247 -0.896 0.369 91 71 62
-2545.4976 3252.8523 131.3130 0.199 -0.924 0.328 45 25 16
-2452.3062 3655.5725 -15.8782 0.004 -0.993 -0.120 32 29 32
-2445.3115 3657.6074 -18.9906 -0.004 -0.991 -0.133 42 35 31
-2437.1604 3657.9854 -22.0565 -0.004 -0.991 -0.133 101 88 81
-2430.4702 3660.3955 -25.1640 0.038 -0.983 -0.177 174 155 146
-2424.6150 3663.9692 -28.2959 0.068 -0.983 -0.171 193 167 159
-2411.9326 3657.7974 -31.1634 0.165 -0.933 -0.320 193 162 156
-2770.3530 4237.3945 -64.1681 0.558 -0.359 -0.748 193 158 152
-2696.0664 4253.1025 -95.5617 -0.246 -0.910 0.333 199 165 156
-1826.7179 4793.6313 -563.3524 0.176 -0.182 -0.967 210 160 163
-1842.2085 4849.8599 -573.5547 0.036 -0.288 -0.957 209 159 162
-1962.8403 5227.5195 -636.0565 0.071 -0.145 -0.987 205 155 158
-3199.8879 2786.9458 491.6971 0.728 -0.669 0.150 77 34 17
-3222.1440 2890.7883 470.3852 0.999 -0.020 -0.049 82 39 22
-3227.8750 2914.9790 465.6180 0.999 -0.014 -0.047 82 39 23
-3221.7686 2919.5833 462.1089 1.000 -0.021 -0.017 82 39 24
-3113.8970 2847.6099 443.4620 -0.343 -0.855 -0.388 65 33 20
-3100.2061 2845.4402 439.1264 -0.325 -0.860 -0.393 65 31 19
-3119.3767 2871.2917 438.7479 -0.162 -0.979 -0.124 66 32 20
-2506.2275 2778.5811 243.3113 0.159 -0.972 0.171 118 80 61
-2498.8311 2779.9392 240.2537 0.153 -0.973 0.172 115 77 58
-2494.5225 2784.4583 237.4185 0.217 -0.903 0.370 115 76 59
-2571.4382 3236.5708 137.4065 0.512 -0.787 0.343 93 73 64
-2565.2100 3239.6562 134.2828 0.512 -0.784 0.350 103 83 74
-2556.7241 3240.0540 131.1029 0.415 -0.846 0.334 92 72 63
-2547.9043 3250.4595 124.9729 0.205 -0.922 0.329 45 25 16
-2612.8931 3338.6467 123.5342 0.688 0.360 -0.630 40 20 9
-2461.5547 3662.1250 -22.6230 -0.039 -0.938 -0.345 32 29 32
-2454.4023 3663.9688 -25.7298 -0.047 -0.938 -0.345 43 36 32
-2446.4778 3664.6987 -28.8008 -0.047 -0.938 -0.345 101 89 80
-2439.9092 3667.3108 -31.9138 -0.062 -0.930 -0.363 173 155 144
-2432.3965 3668.5635 -34.9836 -0.054 -0.931 -0.360 193 168 157
-2410.1128 3648.7690 -37.4429 0.187 -0.862 -0.471 192 162 153
-2464.6055 3738.4146 -43.0879 -0.007 -0.822 -0.570 194 161 154
-2562.9587 3904.1501 -54.3891 0.788 -0.119 -0.603 193 160 153
-2704.0334 4133.8330 -68.3256 0.835 -0.155 -0.528 193 158 152
-2692.9822 4158.3730 -79.2582 0.357 -0.643 -0.677 198 165 156
-2691.7373 4170.1567 -83.0395 -0.041 -0.999 0.010 199 165 156
-2607.6897 4154.0503 -108.8683 -0.113 -0.989 0.094 201 163 156
-2518.6362 4046.1318 -110.5508 -0.174 -0.582 -0.795 199 163 155
-1938.5900 5134.4268 -627.9016 0.179 -0.127 -0.976 199 153 155
-3237.1489 2813.0811 489.3447 -0.436 -0.869 -0.233 79 33 17
-3129.1638 2856.5054 438.1511 -0.271 -0.866 -0.419 73 38 26
-3112.9646 2852.2480 433.5299 -0.256 -0.868 -0.425 72 38 25
-3143.2588 2926.1899 423.4375 0.801 0.553 -0.228 102 71 59
-3054.0562 2906.0847 397.0424 0.736 -0.366 -0.569 44 25 21
-2549.3691 2782.4224 250.5202 0.021 -0.961 0.277 70 29 9
-2510.0935 2778.3484 237.5419 0.160 -0.972 0.172 118 80 61
-2498.0210 2783.8542 231.6336 0.219 -0.901 0.374 114 77 61
-2561.2991 3188.5767 139.4894 0.706 -0.382 0.596 82 62 53
-2571.2593 3231.1646 130.9816 0.420 -0.837 0.350 93 73 64
-2563.2256 3232.1108 127.8215 0.425 -0.838 0.341 103 83 74
-2555.5178 3233.4116 124.6782 0.433 -0.836 0.338 92 72 63
-2550.6931 3248.5281 118.6496 0.216 -0.914 0.342 46 26 17
-2619.8782 3341.5774 117.1284 0.691 0.360 -0.627 40 20 11
-2808.0874 3600.9961 111.2044 0.656 0.423 -0.625 16 4 0
-2461.2122 3643.4541 -25.6905 -0.118 -0.828 -0.547 25 27 36
-2465.8350 3661.7156 -29.2119 0.023 -0.949 -0.313 31 28 33
-2460.9551 3666.7500 -32.3977 -0.047 -0.938 -0.345 43 35 34
-2453.0142 3667.4768 -35.4620 -0.047 -0.938 -0.345 101 89 82
-2446.6248 3670.3582 -38.5796 -0.062 -0.930 -0.363 173 155 145
-2439.0378 3671.5254 -41.6416 -0.054 -0.931 -0.360 193 168 157
-2421.5608 3658.6160 -44.2660 0.121 -0.900 -0.419 193 163 154
-2471.3376 3741.4202 -49.8631 -0.071 -0.884 -0.463 194 161 154
-2465.2996 3744.9407 -53.0357 0.196 -0.348 -0.917 194 161 154
-2570.3159 3907.7886 -61.4801 0.792 -0.125 -0.597 194 159 153
-2688.9102 4131.4766 -82.3129 0.983 0.101 -0.154 190 159 151
-2632.2468 4115.6445 -98.2105 -0.187 -0.933 0.306 188 152 144
-2598.4023 4105.5903 -107.5362 -0.080 -0.954 0.288 193 157 149
-2566.4761 4097.8379 -116.8251 0.540 -0.784 0.307 198 164 156
-2552.4839 4130.4058 -131.1083 0.156 -0.756 -0.635 198 164 155
-1866.5140 4869.0923 -587.7308 -0.209 -0.263 -0.942 199 148 151
-1911.4031 5035.0635 -618.7017 0.208 -0.122 -0.970 195 145 146
-1927.9965 5095.2373 -629.8157 0.208 -0.122 -0.970 195 145 147
-3206.2896 2907.9937 442.8007 0.944 -0.202 0.261 80 43 27
-3141.8865 2863.2209 432.4926 -0.271 -0.866 -0.419 80 43 28
-3125.2908 2858.6675 427.8448 -0.256 -0.868 -0.425 80 43 27
-3129.0654 2880.9412 422.8454 0.948 -0.070 0.310 113 76 61
-3131.6028 2902.3035 417.6626 0.990 0.053 0.134 99 64 49
-3081.6904 2935.9734 390.1768 0.920 -0.384 0.076 46 24 19
-2503.0281 2775.8618 228.4978 0.087 -0.939 0.332 112 77 63
-2501.9099 2783.6526 225.8754 0.236 -0.895 0.378 111 77 65
-2690.6509 3026.2610 224.3170 0.077 -0.193 -0.978 103 69 59
-2559.5034 3253.7537 112.4511 0.694 -0.519 0.498 46 26 17
-2485.6401 3755.1819 -57.0089 0.003 -0.830 -0.558 192 159 153
-2477.9885 3756.4514 -60.1126 0.196 -0.348 -0.917 190 157 150
-2569.8140 3900.1570 -68.1919 0.611 -0.360 -0.705 189 154 148
-2674.5469 4116.6426 -92.4014 0.983 0.075 0.169 159 132 123
-2635.3633 4086.1038 -97.7323 0.682 -0.256 0.685 151 125 116
-2545.3101 4098.4609 -133.5230 0.080 -0.824 -0.561 195 168 161
-2542.2075 4107.1436 -137.1107 -0.066 -0.792 -0.607 196 169 161
-2538.2375 4128.0005 -144.4810 -0.009 -0.852 -0.523 194 164 155
-1957.8589 5083.1050 -624.8055 0.012 -0.221 -0.975 196 138 140
-1942.9371 5064.6108 -624.8780 -0.212 -0.347 -0.914 195 137 138
-1847.8870 4846.4028 -596.7079 0.051 -0.176 -0.983 197 137 137
-1820.7467 4796.2339 -592.1257 0.039 -0.169 -0.985 197 137 138
-3151.1709 2867.0112 426.4014 -0.256 -0.868 -0.425 83 43 25
-3164.6362 2946.0339 408.5724 0.813 0.541 -0.215 68 34 24
-3093.6768 2942.3521 384.3142 0.937 -0.312 0.157 63 30 25
-2537.0059 2788.4575 229.8147 -0.166 -0.946 -0.277 101 63 44
-2659.7537 3378.2234 104.6902 0.742 0.456 -0.491 34 14 5
-2809.5896 3591.0725 97.1790 0.771 0.490 -0.406 14 2 1
-2449.0610 3613.9680 -37.9860 -0.006 -0.656 -0.755 26 29 32
-2480.6506 3705.3579 -52.8918 0.453 -0.874 -0.175 149 128 132
-2476.0977 3710.9424 -56.1152 0.371 -0.905 -0.208 189 161 164
-2489.6426 3742.1333 -60.2167 0.941 -0.303 -0.149 189 158 159
-2480.4766 3741.2532 -63.2343 0.931 -0.355 -0.088 187 154 148
-2627.0481 4066.6162 -104.1345 0.710 -0.228 0.666 105 89 80
-2609.1782 4066.8547 -110.5774 -0.136 -0.927 0.349 109 93 84
-2599.6497 4066.0337 -113.7413 -0.112 -0.912 0.395 121 105 96
-2562.7136 4090.6411 -133.9647 0.624 -0.340 0.704 179 161 154
-2555.8240 4174.6772 -160.4906 0.499 -0.765 0.407 197 167 157
-3111.4890 2829.4983 414.7748 0.996 0.046 0.071 84 42 21
-3120.0093 2846.1130 413.0217 0.823 -0.467 0.324 84 42 21
-3126.4829 2880.0996 405.5450 0.970 -0.025 0.241 96 54 34
-3164.9255 2942.0813 401.3695 0.819 0.537 -0.202 71 35 19
-2778.6072 3098.7617 219.1083 -0.276 -0.513 -0.813 107 75 73
-2727.3440 3075.0876 207.7123 0.935 -0.299 0.191 110 73 70
-2560.5391 3213.4478 108.6774 0.771 -0.263 0.580 100 77 71
-2666.1877 3380.4133 98.1724 0.753 0.446 -0.483 35 13 7
-2633.0498 3989.5637 -88.8067 0.767 -0.203 0.609 172 139 132
-2615.4902 4042.4614 -110.2577 0.722 -0.232 0.651 90 77 68
-2605.5039 4054.1592 -117.1689 -0.094 -0.950 0.296 86 73 64
-2595.4546 4052.5405 -120.2722 -0.090 -0.950 0.299 92 79 70
-2573.9722 4047.0864 -126.3325 0.720 -0.549 0.425 105 91 82
-2573.9497 4060.2551 -130.1283 0.712 -0.571 0.410 110 95 88
-2568.0781 4064.7185 -133.4972 0.706 -0.577 0.410 118 101 93
-2560.8323 4080.3872 -140.5773 0.624 -0.340 0.704 139 122 115
-2544.1006 4095.0522 -150.7375 0.525 -0.526 0.669 182 163 158
-2537.1545 4097.8325 -154.0040 0.525 -0.526 0.669 191 168 161
-1988.4871 4917.1035 -584.5028 0.553 0.037 -0.833 218 167 169
-1938.3186 5028.8286 -634.4550 0.875 -0.333 0.351 193 125 123
-1713.7786 4539.8408 -573.5488 -0.341 -0.309 -0.888 190 121 115
-2219.3535 1956.6151 343.2943 0.269 -0.166 -0.949 53 31 18
-3104.1755 2923.8223 376.7405 0.839 -0.216 -0.500 79 44 28
-3103.2202 2932.6428 373.8548 0.826 -0.259 -0.500 81 43 30
-2557.5442 2774.0208 226.7489 -0.271 -0.963 0.000 73 35 14
-2500.5986 2734.4275 218.0525 0.013 -0.976 0.215 80 39 19
-2739.1841 3092.7603 198.8979 0.852 -0.447 0.272 108 73 69
-2579.7976 3189.6721 114.5528 0.550 -0.535 0.642 84 61 53
-2574.8015 3194.1299 111.4987 0.686 -0.378 0.622 91 68 60
-2558.5623 3206.0020 102.3280 0.769 -0.265 0.582 91 71 64
-2693.3718 3407.1958 91.8739 0.743 0.482 -0.463 33 13 6
-2762.9312 3523.5264 82.8639 0.781 -0.552 0.291 14 2 0
-2501.0251 3769.3872 -80.7523 0.469 -0.552 -0.689 184 147 141
-2618.7029 3962.0198 -94.7903 0.862 -0.014 0.508 169 134 128
-2615.8689 3970.8262 -98.3361 0.863 -0.016 0.505 152 115 109
-2614.3345 3981.5210 -101.9678 0.863 -0.021 0.505 110 74 68
-2607.5110 4023.6147 -116.5394 0.733 -0.211 0.646 77 63 54
-2601.7634 4028.2988 -119.9244 -0.060 -0.977 0.204 79 65 56
-2591.9858 4027.0542 -123.0218 -0.060 -0.977 0.204 80 66 57
-2570.8330 4022.0515 -129.0554 0.488 -0.647 0.586 82 68 59
-2573.9543 4039.7839 -133.0740 0.713 -0.691 0.117 88 71 64
-2573.3513 4052.0518 -136.8308 0.733 -0.666 0.139 94 77 70
-2567.9873 4057.2498 -140.2287 0.733 -0.666 0.139 95 78 71
-2546.7830 4078.3589 -153.8231 0.481 -0.497 0.722 129 113 109
-2541.0061 4082.8984 -157.1769 0.524 -0.526 0.670 150 132 125
-2529.8118 4132.7778 -175.5426 0.796 -0.513 0.321 195 168 157
-1774.9916 4468.0234 -539.2491 0.345 -0.081 -0.935 213 160 162
-1985.0823 5094.8848 -646.0445 0.995 0.098 -0.029 200 136 136
-1963.0471 5077.6387 -648.8534 0.915 -0.000 0.404 189 121 119
-1933.4889 5023.0249 -643.5281 0.830 -0.484 0.277 186 117 113
-1758.3760 4623.5698 -590.0543 -0.233 -0.269 -0.935 186 117 110
-3086.5188 2885.1221 373.4583 0.964 -0.165 0.207 87 45 33
-3084.5439 2892.9338 370.4971 0.964 -0.165 0.207 85 46 33
-3089.2854 2906.6309 368.1927 0.952 -0.169 0.254 84 48 32
-3096.8862 2922.8923 366.1509 0.966 -0.143 0.216 85 47 34
-3105.6926 2949.9897 361.3901 0.519 -0.534 -0.667 68 50 42
-3090.5012 2965.6965 351.4869 0.228 -0.578 -0.783 3 41 50
-2821.0481 3113.1494 213.8735 -0.041 -0.101 -0.994 114 87 81
-2645.3250 2989.4429 187.9087 0.760 -0.649 0.045 108 73 71
-2562.4395 3164.6201 107.9198 0.360 -0.419 -0.834 84 61 53
-2579.0229 3193.9360 105.2526 0.855 -0.321 -0.407 91 68 60
-2609.5459 3249.9824 99.7379 0.512 0.152 -0.846 97 77 70
-2621.5125 3274.3896 96.8698 0.512 0.152 -0.846 86 66 59
-2637.9541 3304.1685 94.0185 0.476 0.155 -0.865 59 40 33
-2637.5598 3314.3206 90.9347 0.563 0.137 -0.815 37 18 11
-2648.0725 3337.3699 87.9488 0.508 -0.089 -0.857 35 15 8
-2708.7336 3419.8933 85.3613 0.643 0.353 -0.680 34 14 7
-2762.6589 3506.1990 79.3059 0.631 0.277 -0.725 19 3 1
-2808.7356 3572.5884 76.2652 0.518 0.242 -0.821 14 2 0
-2447.1846 3592.6746 -56.8173 0.894 0.195 0.404 25 30 30
-2448.0969 3605.5217 -60.2229 0.893 0.193 0.406 28 28 30
-2449.3662 3618.9136 -63.6608 0.891 0.187 0.414 40 32 39
-2447.2881 3627.6958 -66.9398 0.890 0.185 0.416 86 72 82
-2513.8198 3780.9126 -87.9678 0.420 -0.640 -0.644 183 146 140
-2606.5107 3937.6497 -100.8097 0.844 -0.005 0.536 166 133 126
-2602.6721 3944.9316 -104.2731 0.844 -0.011 0.537 144 109 103
-2601.2522 3955.6958 -107.8953 0.846 -0.011 0.534 98 62 56
-2620.6252 3996.4556 -112.9002 0.818 -0.114 0.564 57 29 23
-2561.2139 4026.7322 -142.5940 0.836 -0.504 0.218 91 74 67
-2561.0979 4039.6714 -146.3883 0.826 -0.509 0.241 90 73 66
-1673.0325 4245.5444 -518.6827 0.953 0.291 -0.080 207 145 145
-1961.1473 5060.8047 -653.7658 0.884 -0.133 0.448 187 119 116
-1955.4850 5065.1899 -657.0309 0.885 -0.131 0.446 181 112 108
-1915.5479 4984.7471 -647.7526 -0.164 -0.350 -0.922 181 112 107
-1813.3506 4766.2358 -620.3372 -0.090 -0.199 -0.976 179 110 104
-3028.4114 2849.3601 355.3095 0.945 -0.017 0.327 97 61 45
-3026.6917 2857.2424 352.4109 0.942 -0.053 0.331 96 57 44
-3092.2361 2943.5627 350.2319 0.987 -0.145 -0.073 10 37 42
-3097.6443 2958.0605 347.9037 0.358 -0.470 -0.807 3 39 48
-2883.2468 3192.9026 204.3697 -0.200 -0.569 -0.798 126 97 94
-2849.5715 3168.2769 199.7435 0.753 -0.529 0.391 120 89 87
-2860.8806 3190.2976 197.2915 0.781 -0.524 0.340 115 83 81
-2660.1599 3049.0234 168.1136 0.946 -0.304 0.111 104 69 63
-2578.4580 3178.0310 101.9054 0.458 -0.326 -0.827 92 72 63
-2592.2395 3204.1208 99.1343 0.630 -0.368 -0.683 93 73 64
-2597.8206 3220.8574 96.2144 0.479 0.259 -0.839 92 72 65
-2624.9448 3262.6978 93.5304 0.473 0.137 -0.870 88 68 61
-2635.8442 3285.8735 90.5984 0.431 0.098 -0.897 70 50 43
-2656.8694 3321.0122 87.7294 0.453 0.162 -0.876 48 28 21
-2661.2803 3347.5723 81.5379 0.499 -0.108 -0.860 42 22 15
-2713.2769 3419.7632 78.7279 0.628 0.347 -0.697 35 15 8
-2740.6670 3463.2334 75.6622 0.637 0.373 -0.675 28 9 3
-2443.6514 3581.6238 -62.8981 0.895 0.117 0.431 26 31 30
-2443.5261 3592.9885 -66.2525 0.895 0.117 0.431 30 29 32
-2443.7461 3604.8706 -69.6367 0.896 0.119 0.428 46 38 45
-2441.9817 3614.0369 -72.9251 0.897 0.120 0.426 134 120 130
-2444.4756 3629.1680 -76.4590 0.896 0.120 0.428 177 155 164
-2596.1719 3916.0071 -106.8625 0.854 -0.011 0.521 164 131 124
-2594.3450 3926.0884 -110.4394 0.859 -0.017 0.512 143 110 103
-2526.7336 4046.4890 -169.2032 0.537 -0.551 0.639 92 73 66
-2519.3486 4048.4600 -172.3649 0.549 -0.538 0.639 134 111 101
-2475.7097 4073.9976 -195.0950 0.361 -0.672 0.647 193 163 153
-1660.7510 4191.4053 -514.8535 0.937 0.326 -0.128 203 144 146
-2258.1787 5693.4102 -743.0568 0.943 0.279 -0.180 197 133 133
-2300.5908 5816.7539 -764.1262 0.906 0.237 -0.349 190 126 126
-1945.2703 5027.9336 -658.8428 0.891 -0.137 0.433 177 107 105
-1955.4126 1503.9821 366.5231 -0.023 -0.754 0.657 120 99 82
-2896.8540 2633.7017 364.4470 -0.157 -0.868 0.470 84 41 22
-2534.2107 2738.3752 207.3304 0.966 -0.240 -0.095 79 38 18
-2935.8079 3211.0503 209.1469 -0.152 -0.223 -0.963 86 57 54
-2866.8752 3171.1462 196.7748 -0.124 -0.909 -0.397 126 97 94
-2843.6455 3167.5186 189.7329 0.483 -0.861 0.157 118 90 86
-2577.7153 3172.1541 95.6152 0.565 -0.257 -0.784 92 72 63
-2652.0627 3299.5125 84.2937 0.431 0.098 -0.897 61 40 33
-2670.2363 3331.3198 81.3287 0.458 0.158 -0.875 44 24 17
-2680.4275 3353.9531 78.2628 0.439 0.115 -0.891 46 26 19
-2717.7061 3419.4978 72.0929 0.621 0.348 -0.702 37 15 8
-2749.9136 3468.6057 68.9623 0.613 0.373 -0.696 29 9 3
-2450.1553 3584.4006 -69.4720 0.891 -0.181 0.416 25 31 28
-2438.8264 3580.3218 -72.2306 0.895 0.069 0.441 30 28 29
-2437.9858 3590.6841 -75.5550 0.895 0.069 0.441 47 39 44
-2437.1433 3601.0762 -78.8888 0.895 0.069 0.441 136 121 131
-2436.8081 3612.2075 -82.2618 0.894 0.116 0.433 177 155 166
-2603.5125 3919.5679 -114.0223 0.843 -0.059 0.535 157 125 118
-2590.7871 3926.7903 -120.5738 0.865 -0.011 0.502 103 69 63
-2579.7732 3961.9758 -134.7083 0.910 -0.216 0.353 66 53 44
-2485.4485 4094.9722 -206.5151 0.875 -0.239 0.422 197 165 156
-2495.9290 4124.7329 -211.5650 0.390 -0.713 0.582 200 167 158
-1638.9609 4129.9795 -512.0272 0.937 0.326 -0.128 203 145 146
-1916.8977 4964.1978 -659.1057 0.429 -0.892 0.139 177 108 103
-2847.7412 2911.7485 258.1429 -0.071 -0.960 0.272 62 37 26
-2841.2559 3129.8179 191.8349 0.498 -0.592 0.634 123 93 89
-2843.2893 3152.1624 185.9775 0.818 -0.328 0.473 130 99 95
-2850.9319 3170.2708 183.3121 0.514 -0.846 0.142 128 97 93
-2839.3311 3168.4175 179.8282 0.520 -0.843 0.137 124 90 86
-2819.0349 3281.6865 139.5086 0.414 -0.889 0.197 92 64 54
-2819.8027 3293.0911 136.4252 0.031 -0.906 0.421 92 64 54
-2848.1621 3334.7886 134.0246 0.028 -0.946 -0.324 90 63 53
-2697.3848 3368.4309 71.7854 0.513 0.113 -0.851 46 26 19
-2718.8555 3404.4390 68.6640 0.736 0.309 -0.602 43 23 16
-2757.0522 3471.4680 62.2384 0.626 0.384 -0.678 28 9 3
-2448.6650 3576.2041 -75.6133 0.322 -0.924 0.209 26 30 29
-2443.7751 3580.9756 -78.7130 0.417 -0.875 0.245 31 29 28
-2436.7969 3582.8586 -81.6893 0.362 -0.907 0.218 47 38 42
-2430.8362 3586.1265 -84.7190 0.366 -0.907 0.210 137 122 128
-2597.9084 3904.7520 -120.2972 0.832 -0.089 0.547 170 138 131
-2603.9062 3951.3762 -131.9100 0.824 0.023 0.567 91 61 56
-2484.8496 4046.8186 -201.2875 0.846 -0.235 0.478 190 165 154
-2480.9194 4053.9363 -204.7430 0.846 -0.235 0.478 190 165 154
-2487.3318 4117.1343 -221.0802 0.559 -0.544 0.625 198 168 159
-1832.6051 4694.4541 -618.0151 -0.167 -0.702 -0.693 191 126 124
-2546.1196 2742.1152 196.0887 0.781 -0.553 -0.289 77 39 18
-2841.5496 3125.3916 185.1616 0.491 -0.589 0.642 109 91 87
-2832.6367 3126.2998 181.8127 0.713 -0.383 0.588 120 98 95
-2837.8733 3141.7922 179.0533 0.820 -0.336 0.463 132 104 103
-2852.9595 3167.5620 176.6673 0.522 -0.841 0.144 133 102 101
-2848.0549 3172.6775 173.4630 0.522 -0.840 0.149 127 95 94
-2807.1887 3140.2576 168.8990 0.432 -0.658 0.617 126 95 93
-2821.5742 3289.9175 129.7283 0.031 -0.906 0.421 93 64 58
-2850.2859 3331.9321 127.2608 0.022 -0.954 -0.297 89 62 56
-2586.4639 3162.0496 86.1718 0.982 -0.146 -0.120 92 68 58
-2589.8506 3176.0403 83.2159 0.846 0.036 -0.532 94 70 60
-2679.9553 3321.3794 71.4940 0.507 0.114 -0.855 39 20 13
-2725.8645 3407.2102 62.0472 0.746 0.343 -0.571 42 24 17
-2448.1343 3580.8157 -85.1641 0.134 -0.784 -0.606 31 29 30
-2439.7456 3580.7625 -88.0481 0.161 -0.779 -0.606 56 46 47
-2433.9929 3584.3164 -91.0849 0.161 -0.779 -0.606 142 125 128
-2482.9207 3687.3508 -104.5625 0.657 -0.722 -0.218 189 155 151
-2593.2546 3891.3340 -126.5892 0.830 -0.153 0.536 181 144 141
-2594.3433 3905.4558 -130.3781 0.827 0.033 0.561 175 135 133
-2592.3030 3915.1719 -133.9493 0.827 0.033 0.561 156 115 113
-2472.3054 4020.1780 -206.4021 0.896 -0.083 0.436 167 147 138
-2466.9375 4024.9875 -209.6763 0.909 -0.095 0.405 178 157 148
-2467.1975 4051.6482 -217.4502 0.852 -0.228 0.471 191 166 159
-1809.3467 4594.0786 -604.8482 0.028 -0.228 -0.973 189 126 119
-1818.1016 4648.2295 -617.7941 0.028 -0.228 -0.973 186 122 115
-1938.9757 4976.6914 -672.8931 0.013 -0.930 -0.367 176 108 99
-2550.0547 2741.9695 190.3517 0.651 -0.389 -0.652 78 43 21
-2830.6941 3119.5818 175.0838 0.713 -0.383 0.588 108 105 103
-2840.2510 3139.4922 172.4755 0.827 -0.394 0.401 130 116 117
-2845.8455 3155.4001 169.6891 0.713 -0.596 0.370 127 105 108
-2826.8374 3145.8308 165.9824 0.827 -0.432 0.359 123 95 95
-2598.4771 3170.7561 80.0194 0.980 -0.152 -0.131 93 65 56
-2639.3679 3227.6006 77.2545 0.125 -0.427 -0.896 98 70 62
-2639.2769 3237.8254 74.1948 0.219 -0.288 -0.932 100 72 64
-2649.9775 3260.4932 71.1635 0.348 -0.201 -0.916 85 58 51
-2694.6626 3333.1372 65.0249 0.502 0.113 -0.857 38 22 14
-2691.5281 3350.8765 58.6924 0.936 0.144 -0.322 36 23 14
-2713.1357 3386.8850 55.4630 0.713 0.294 -0.637 33 19 10
-2446.8960 3550.1582 -84.5096 0.360 -0.742 -0.565 23 28 41
-2447.8591 3585.7776 -94.7276 0.184 -0.793 -0.581 71 60 60
-2441.1223 3587.9949 -97.7025 0.161 -0.779 -0.606 148 132 131
-2433.6541 3589.1763 -100.6223 0.259 -0.761 -0.595 190 166 165
-2481.3450 3678.7751 -110.7482 0.713 -0.626 -0.317 187 151 145
-2503.8452 3734.0767 -119.3844 0.880 0.212 -0.426 191 149 147
-2599.7046 3893.6575 -133.6619 0.755 -0.560 0.341 177 137 135
-2581.4429 3918.0520 -147.1709 0.845 -0.131 0.519 127 96 93
-2576.0483 3973.9631 -165.5865 0.867 -0.220 0.448 70 40 34
-2470.5242 3984.2087 -204.9328 0.725 -0.563 0.396 93 75 68
-2473.5271 4001.7390 -209.0914 0.890 -0.382 0.249 106 88 81
-2480.7900 4091.8230 -233.2726 0.845 -0.074 0.529 188 164 160
-2549.4685 4254.0508 -257.6871 0.350 -0.863 0.363 192 167 163
-1967.9893 4807.6309 -621.7347 0.064 -0.860 0.506 205 150 145
-1663.0251 4128.8901 -525.6511 0.802 -0.535 -0.265 201 146 142
-1784.6648 4508.0366 -596.0867 0.329 -0.075 -0.941 196 134 123
-1903.2982 4878.0132 -664.8408 -0.046 -0.959 -0.281 175 107 94
-1834.4233 4727.2256 -643.8821 -0.144 -0.985 -0.096 174 107 92
-2798.5498 2843.3252 238.2011 0.006 -0.747 0.664 52 46 33
-2563.9561 2751.7056 185.0888 0.680 -0.357 -0.640 77 45 24
-2821.2415 3105.1775 168.1029 0.703 -0.385 0.598 84 91 88
-2832.5701 3126.8413 165.5410 0.719 -0.555 0.418 114 106 109
-2835.7246 3140.1697 162.6579 0.554 -0.634 0.539 128 106 110
-2828.9937 3143.3022 159.4207 0.554 -0.634 0.539 125 100 102
-2820.3743 3144.4531 156.1259 0.601 -0.631 0.490 125 101 101
-2809.9514 3143.6914 152.7822 0.585 -0.646 0.490 124 100 100
-2662.9773 3280.7339 61.6826 0.362 -0.264 -0.894 48 27 18
-2695.0930 3328.3516 58.5228 0.695 0.041 -0.718 36 23 14
-2695.7295 3339.7458 55.3524 0.667 0.235 -0.707 35 24 14
-2693.2568 3347.5610 52.1813 0.936 0.144 -0.322 34 24 14
-2719.6436 3389.0889 48.8701 0.707 0.296 -0.642 31 20 8
-2742.6917 3426.9485 45.5062 0.729 0.284 -0.622 27 15 3
-2458.6821 3594.4939 -101.6050 0.066 -0.683 -0.727 70 60 58
-2448.0513 3591.3826 -104.3213 0.056 -0.605 -0.794 149 134 127
-2442.9761 3595.8928 -107.4011 0.056 -0.605 -0.794 189 167 160
-2562.4597 3822.0112 -133.7169 0.733 -0.615 -0.291 189 148 144
-2566.3103 3839.7600 -137.6762 0.852 -0.083 0.517 184 143 139
-2580.5081 3872.2363 -142.4709 0.844 -0.137 0.518 180 136 133
-2562.3928 3959.8328 -174.7260 0.306 -0.649 0.697 71 41 35
-2489.6587 3967.3633 -201.8801 0.155 -0.860 0.487 105 86 80
-2474.3115 3995.6873 -215.5603 0.890 -0.382 0.249 93 74 68
-2462.7012 3990.8918 -218.1113 0.727 -0.584 0.363 98 80 73
-2475.1301 4115.4731 -250.9024 0.920 -0.049 0.389 186 162 160
-2485.3767 4296.6646 -301.2762 0.947 0.249 0.201 199 171 160
-2487.1096 4313.6128 -305.7229 0.944 0.237 0.229 200 170 162
-2491.1824 4334.4951 -310.5378 0.944 0.237 0.229 200 170 162
-2567.1084 4489.1436 -330.5200 0.655 -0.517 0.551 198 170 159
-2492.1995 4379.0786 -323.4480 0.530 -0.575 0.624 198 170 159
-2407.6484 4266.0703 -318.8033 0.192 -0.723 0.664 201 171 163
-2400.5093 4268.0854 -321.8481 0.233 -0.732 0.640 201 171 163
-2412.8308 4302.9556 -327.9973 0.318 -0.754 0.574 204 171 164
-1855.0969 4519.3281 -583.3914 0.700 -0.658 0.278 209 153 148
-1850.0104 4523.4834 -586.3694 0.700 -0.658 0.278 205 150 145
-1783.2101 4384.2388 -567.8422 0.702 -0.710 0.048 202 146 143
-1768.1270 4364.5308 -567.1479 0.618 -0.785 0.049 202 145 142
-1856.6144 4619.6270 -612.6990 0.955 0.286 -0.075 200 140 129
-1814.1575 4535.5498 -602.2390 0.190 -0.159 -0.969 201 140 127
-1820.3007 4582.4927 -614.0949 0.321 -0.079 -0.944 197 135 124
-1836.6841 4638.0186 -624.9955 0.344 -0.083 -0.935 187 125 112
-1845.0282 4674.6050 -633.0175 0.130 -0.191 -0.973 182 120 107
-1855.6935 4717.0161 -641.9766 0.138 -0.194 -0.971 176 112 100
-2753.4858 2769.8589 237.1424 0.262 -0.591 0.762 0 42 50
-2777.5881 2801.3267 235.9647 0.254 -0.573 0.779 8 39 42
-2789.3108 2821.3777 233.9747 0.075 -0.703 0.707 24 38 35
-2782.3413 2823.9573 230.8280 0.071 -0.703 0.707 53 45 34
-2502.5200 2678.2517 178.9215 0.795 -0.056 -0.605 81 44 18
-2814.0251 3093.1096 161.2637 0.699 -0.388 0.600 53 69 63
-2827.1299 3116.5332 158.7380 0.729 -0.533 0.429 93 94 94
-2832.9578 3132.5728 155.9358 0.550 -0.634 0.544 124 110 112
-2826.2041 3135.6611 152.7108 0.550 -0.634 0.544 130 108 110
-2808.6028 3127.4656 149.1562 0.449 -0.757 0.474 132 107 110
-2794.9814 3123.3237 145.7483 0.424 -0.776 0.467 131 106 109
-2751.2163 3229.1528 99.2251 0.974 -0.113 -0.197 105 78 71
-2755.4377 3244.1465 96.1875 0.977 -0.067 -0.203 105 78 71
-2762.5791 3262.4287 93.1636 0.984 -0.053 -0.169 99 72 65
-2773.2952 3284.7573 90.1503 0.995 0.069 -0.072 94 67 60
-2784.4563 3307.6943 87.1071 0.994 0.090 -0.066 95 67 60
-2674.8889 3289.2522 55.2535 0.340 -0.272 -0.900 41 22 9
-2681.8049 3307.7510 52.0880 0.328 -0.231 -0.916 38 22 13
-2696.0017 3345.4360 45.6763 0.852 0.245 -0.462 36 23 14
-2724.6704 3389.5576 42.2772 0.676 0.285 -0.680 33 19 10
-2492.8123 3635.1235 -110.1069 0.408 0.017 -0.913 71 61 60
-2502.5723 3660.2100 -114.2697 0.401 0.015 -0.916 148 133 129
-2567.9910 3786.4688 -129.6636 0.137 -0.137 -0.981 189 151 150
-2599.0491 3866.7288 -143.0387 0.738 -0.299 -0.605 192 148 147
-2575.9993 3859.1194 -148.6261 0.841 -0.145 0.521 188 142 142
-2564.7795 3855.6482 -151.4154 0.820 -0.116 0.560 179 136 134
-2561.5356 3863.4595 -154.8539 0.828 -0.110 0.549 174 133 131
-2530.4146 3956.9827 -193.3912 0.436 -0.616 0.656 51 34 27
-2503.8379 3955.8777 -202.1234 0.566 -0.460 0.684 82 65 58
-2499.1189 3961.6194 -205.4470 0.498 -0.537 0.681 101 84 77
-2492.4800 3964.4766 -208.5639 0.497 -0.563 0.660 100 83 76
-2463.4658 3946.3359 -213.0404 0.675 -0.572 0.467 90 75 68
-2461.5525 3956.2185 -216.6437 0.701 -0.562 0.440 93 76 69
-2475.0933 3989.6533 -222.0101 0.890 -0.382 0.249 87 70 63
-2460.0330 3979.5894 -224.1403 0.723 -0.593 0.354 87 70 63
-2431.3821 4013.1011 -243.9161 0.905 -0.104 0.412 170 146 144
-2470.1619 4100.1108 -256.6737 0.880 -0.094 0.465 180 154 155
-2465.6553 4106.3657 -260.0781 0.458 -0.562 0.689 181 155 156
-2466.9438 4148.7021 -272.2802 0.943 -0.175 -0.283 196 167 159
-2467.4680 4163.0757 -276.3934 0.923 -0.141 -0.359 195 168 159
-2451.1758 4150.5674 -278.2137 0.849 -0.016 -0.528 195 168 159
-2448.2622 4159.4370 -281.8556 0.607 -0.338 -0.719 198 171 162
-2448.6504 4173.6514 -285.9677 0.623 -0.342 -0.704 198 171 162
-2480.0854 4265.9604 -302.8121 0.913 0.067 0.403 200 170 162
-2485.2825 4288.4326 -307.7502 0.943 0.202 0.263 200 170 162
-2484.8472 4301.7759 -311.8828 0.944 0.235 0.232 199 169 164
-2318.7385 4218.3940 -343.6250 -0.041 -0.986 0.160 206 174 169
-2321.1274 4250.4121 -352.3709 -0.015 -0.992 0.127 195 163 156
-1852.3340 4518.5156 -592.2751 0.700 -0.658 0.278 208 149 143
-1792.6740 4427.1982 -585.3511 0.969 0.245 -0.019 206 145 140
-1855.0029 4605.1548 -617.2352 0.952 0.301 -0.055 202 139 127
-1856.3467 4641.0679 -627.5005 0.113 -0.207 -0.972 201 141 127
-1859.6985 4665.5337 -633.6631 0.278 -0.954 0.112 195 136 122
-1908.1558 4849.3999 -672.0418 0.955 0.289 -0.064 172 109 93
-2768.4856 2797.8110 226.3948 -0.076 -0.760 0.645 25 38 35
-2775.2517 2813.2085 224.0751 0.074 -0.700 0.710 52 45 35
-2542.0322 2713.2424 174.8862 0.657 -0.501 -0.564 80 44 20
-2809.0608 3073.4998 157.5139 0.704 -0.390 0.594 21 50 40
-2812.0469 3086.4368 154.6489 0.699 -0.388 0.600 33 53 46
-2823.6377 3108.2563 152.0414 0.696 -0.555 0.456 82 83 83
-2826.5107 3121.2090 149.1333 0.545 -0.623 0.561 122 107 110
-2820.9084 3125.4534 145.9593 0.562 -0.612 0.556 133 113 115
-2808.9888 3123.1382 142.6076 0.449 -0.757 0.474 135 113 116
-2796.4834 3120.1594 139.2561 0.444 -0.761 0.474 134 112 114
-2739.1511 3231.5413 86.4035 0.986 -0.074 -0.149 100 75 70
-2755.2944 3259.7422 83.4281 0.987 -0.094 -0.132 94 69 64
-2747.1572 3261.1479 80.2447 -0.148 -0.879 -0.454 95 68 62
-2740.3323 3263.9866 77.0771 -0.175 -0.869 -0.463 96 68 62
-2693.9641 3264.0288 61.3262 -0.257 -0.966 0.019 100 68 58
-2686.1082 3265.5347 58.2082 0.102 -0.372 -0.923 98 66 56
