ply
format ascii 1.0
element vertex 794
property float x
property float y
property float z
property float nx
property float ny
property float nz
property uchar diffuse_red
property uchar diffuse_green
property uchar diffuse_blue
end_header
-2280.3623 2907.1125 601.7686 0.966 -0.152 0.211 163 102 59
-2378.5413 3154.1726 599.7644 -0.053 -0.996 -0.078 135 104 80
-2332.8240 3103.7461 588.2553 -0.323 -0.882 -0.344 135 103 78
-2307.9221 3081.0669 581.0645 0.469 0.050 -0.882 131 96 71
-2308.5713 3092.8555 579.0959 0.453 0.049 -0.890 129 91 66
-2310.1553 3105.9617 577.3074 0.457 0.061 -0.888 130 92 65
-2287.5879 3141.1516 560.0571 -0.133 -0.855 -0.501 160 112 78
-2279.9119 3141.5649 556.4149 -0.131 -0.862 -0.489 152 98 59
-2279.3726 3151.9365 554.1674 0.826 -0.557 0.081 142 84 46
-2266.1135 3435.6125 493.3906 0.951 -0.004 -0.310 20 19 15
-2913.2346 5145.4805 464.4998 -0.413 -0.604 -0.681 184 147 141
-2334.4917 4904.1567 242.3535 -0.203 -0.312 -0.928 161 116 97
-2316.8533 4884.8750 237.8796 0.196 -0.089 -0.977 157 110 90
-2580.7476 6054.5239 135.1416 0.175 -0.632 -0.755 92 57 37
-2303.6062 5810.1094 53.5737 -0.643 -0.483 -0.594 47 34 25
-2239.9448 5737.2100 38.0634 -0.650 -0.496 -0.575 106 93 84
-2257.7371 5898.4526 15.2735 -0.556 -0.310 -0.771 154 134 125
-2071.9155 5429.4141 19.3425 -0.605 -0.362 -0.709 155 132 124
-2024.4415 5388.5830 5.1704 0.166 -0.850 0.501 180 157 149
-2013.5120 5380.5669 1.6412 0.065 -0.909 0.412 212 192 185
-1907.4574 5238.8867 -20.3013 -0.039 -0.927 0.373 213 196 196
-1856.3491 5158.9341 -28.6271 -0.077 -0.967 0.243 223 209 212
-4487.6216 2639.7507 1666.6074 0.486 -0.725 0.489 28 25 19
-4475.6577 2643.5481 1660.3390 0.486 -0.725 0.489 34 31 25
-4397.5220 2694.6023 1614.3109 0.373 -0.926 0.051 109 96 79
-4335.1411 2787.8882 1567.3817 0.916 -0.043 0.398 133 118 98
-4303.2275 2789.3840 1552.3344 0.926 -0.242 0.288 126 111 96
-4308.2080 2815.0061 1549.6709 0.096 -0.985 -0.144 63 59 53
-4212.4326 2818.1013 1504.7826 0.326 -0.912 0.248 110 156 198
-4277.7812 2896.3086 1519.8406 0.330 -0.940 0.090 106 152 197
-3895.7410 2697.9280 1381.6340 0.045 -0.957 0.285 96 151 197
-3609.3081 2687.9011 1251.1261 0.468 0.380 -0.798 78 43 21
-3451.4082 2608.5862 1193.4855 -0.233 -0.686 -0.689 79 39 18
-3505.1736 2659.7856 1208.4227 0.483 0.176 -0.858 74 40 24
-3525.3193 2685.4363 1212.7660 -0.296 -0.774 -0.560 66 42 34
-3805.6772 2956.8420 1289.7975 0.718 -0.393 0.575 86 115 143
-3777.1099 2990.2976 1270.1022 0.707 -0.691 0.149 15 29 42
-3772.8735 2998.1665 1266.6178 0.883 -0.292 -0.367 57 66 76
-3779.4282 3014.7349 1266.4371 0.811 -0.180 -0.557 132 132 138
-3781.4670 3027.7231 1264.8622 0.868 -0.189 -0.459 172 152 141
-2988.8076 2609.6145 979.3716 0.186 -0.842 0.506 99 72 59
-2982.3420 2613.5046 975.6276 0.187 -0.846 0.499 93 68 56
-2964.7495 2607.4778 968.6609 0.078 -0.867 0.492 86 61 50
-2946.0942 2600.4150 961.4034 -0.123 -0.874 0.471 81 57 46
-2901.5928 2695.1702 922.4572 0.822 -0.525 0.219 71 40 20
-2899.2710 2702.8042 919.9038 0.830 -0.515 0.215 88 58 37
-2897.9209 2711.3718 917.6187 0.831 -0.516 0.209 100 70 49
-2884.1238 2717.9858 909.9565 0.871 -0.287 -0.398 97 66 49
-2879.4031 2723.3508 906.7336 0.835 -0.294 -0.466 86 55 40
-2874.0029 2728.0603 903.3236 0.862 -0.507 0.015 76 47 33
-2879.1338 2792.9966 893.1085 0.602 -0.486 0.634 52 32 25
-2680.9873 2792.3196 801.6134 -0.062 -0.296 -0.953 175 92 40
-2650.8464 2820.4028 782.2319 0.989 0.075 0.124 178 92 43
-2397.5396 3162.5181 598.7808 -0.371 -0.907 -0.198 136 103 81
-2387.4810 3160.2224 594.5744 0.004 -1.000 0.019 136 103 80
-2338.8457 3105.9980 582.5959 -0.213 -0.909 -0.357 138 103 80
-2318.7656 3089.8857 576.4337 0.474 0.048 -0.879 129 92 69
-2345.1196 3136.5020 579.5839 0.985 0.152 -0.082 126 83 60
-2262.6985 3133.6257 542.0286 -0.056 -0.923 -0.381 145 83 41
-2290.6433 3184.0488 545.1763 0.969 -0.210 0.127 155 86 46
-2300.4719 3220.5588 542.6440 0.803 -0.581 0.136 163 82 46
-2244.1704 3407.1379 480.4415 0.118 -0.835 0.537 21 18 17
-2337.7910 4917.4727 230.9605 0.265 -0.118 -0.957 156 111 92
-2386.1548 5453.0718 149.5009 0.445 -0.823 -0.353 127 83 60
-2251.0667 5594.8979 59.5414 0.555 -0.018 -0.831 58 49 35
-2243.9099 5620.5518 51.2590 0.715 -0.186 -0.674 58 48 35
-2257.7578 5744.7627 33.5848 -0.631 -0.530 -0.567 107 92 80
-2043.1770 5402.0879 0.7851 -0.419 -0.908 0.005 160 138 127
-2033.8909 5398.6680 -2.8461 -0.420 -0.907 -0.035 180 157 149
-2030.1593 5410.1367 -6.7947 -0.490 -0.861 -0.139 214 191 185
-2036.9210 5493.7339 -19.8730 0.219 -0.850 0.479 212 193 193
-1955.1473 5334.4106 -26.8024 -0.563 -0.691 -0.453 214 195 194
-1943.2999 5323.0498 -30.0785 -0.565 -0.692 -0.449 215 195 194
-1922.7662 5330.1831 -40.9564 -0.578 -0.611 -0.540 225 209 212
-1937.9324 5438.3555 -54.9122 -0.234 -0.962 0.138 233 217 220
-4374.7129 2698.7153 1591.9978 0.975 0.221 0.002 122 110 94
-4375.6724 2710.2861 1590.1820 0.983 0.180 -0.045 116 104 88
-4395.8594 2733.9661 1594.8615 0.373 -0.918 0.133 111 98 81
-4328.1138 2746.2512 1561.2535 0.331 -0.889 0.316 132 118 101
-4290.3828 2777.1382 1537.8436 0.968 -0.173 0.182 120 110 99
-4308.2847 2799.9854 1541.6327 0.226 -0.961 0.162 93 86 78
-4314.9116 2815.5264 1541.6531 0.096 -0.985 -0.144 52 49 43
-4239.3076 2899.9468 1490.3485 0.077 -0.822 0.565 103 149 192
-3563.6768 2589.4019 1239.6814 0.506 0.390 -0.769 110 166 213
-3529.1174 2664.0757 1209.1882 0.372 0.126 -0.920 80 38 17
-3513.4382 2662.2236 1202.3262 0.462 0.158 -0.872 73 40 26
-3538.4043 2691.5618 1208.1033 -0.257 -0.811 -0.526 65 42 36
-3527.7715 2693.5969 1202.8075 -0.267 -0.806 -0.529 95 85 88
-3511.5610 2691.2769 1195.7919 -0.270 -0.808 -0.523 145 147 160
-3793.9956 2943.3257 1276.7269 0.850 -0.223 -0.477 138 170 200
-3776.7600 2996.8181 1258.3480 0.883 -0.292 -0.367 86 89 95
-3781.0349 3011.5332 1257.4460 0.834 -0.241 -0.496 146 143 144
-3915.7334 3226.6201 1277.5309 0.462 -0.886 -0.044 197 161 142
-2923.7463 2585.9121 945.5439 -0.220 -0.871 0.440 85 58 46
-2906.6123 2685.8071 918.1570 0.737 -0.155 -0.658 56 31 18
-2900.5046 2689.8652 914.5514 0.808 -0.588 0.027 76 50 35
-2896.2139 2695.6221 911.4512 0.808 -0.588 0.027 81 56 37
-2893.4600 2702.8320 908.7756 0.823 -0.567 0.038 72 46 28
-2887.3123 2706.8330 905.1626 0.889 -0.454 0.059 77 51 36
-2885.0891 2724.4219 900.7062 0.850 -0.287 -0.442 66 40 28
-2877.0352 2726.5916 896.5723 0.864 -0.503 0.003 59 36 24
-2766.3660 2856.9944 820.1403 0.028 -0.103 -0.994 155 86 48
-2763.6685 2864.4075 817.4509 -0.111 -0.327 -0.939 174 92 44
-2710.5610 2818.7771 801.8882 -0.114 -0.319 -0.941 177 91 40
-2648.0691 2812.6553 774.2926 0.999 0.035 -0.034 182 96 47
-2329.0603 2980.0322 594.6626 0.780 0.567 -0.266 113 58 25
-2394.8635 3164.1672 589.0470 -0.186 -0.954 -0.234 133 104 83
-2340.4749 3124.3071 571.7682 -0.089 -0.193 -0.977 118 80 54
-2343.2532 3139.1145 570.1587 0.998 0.054 -0.023 118 79 53
-2344.5051 3151.9097 568.2386 0.998 0.052 -0.029 117 80 53
-2316.2761 3135.5283 558.4300 0.544 -0.459 -0.702 148 108 83
-2237.1296 3102.7429 528.3646 0.829 -0.448 -0.336 154 84 46
-2244.4526 3124.0378 527.5828 -0.295 -0.598 -0.745 161 83 45
-2222.5115 3576.6179 429.1597 -0.050 -0.979 0.199 193 153 144
-2400.8926 5134.0405 207.4311 -0.138 -0.170 -0.976 150 105 86
-2257.6582 5706.3667 29.7609 -0.308 -0.951 -0.016 110 92 76
-2235.9456 5673.0547 26.2582 -0.253 -0.967 0.029 127 108 93
-2260.9766 5782.3628 16.4600 0.816 0.060 -0.574 149 129 115
-2053.1172 5413.3569 -7.2952 -0.429 -0.898 -0.098 155 129 120
-2051.8926 5431.5938 -11.4180 -0.467 -0.875 -0.129 171 144 137
-2041.4348 5425.1011 -14.9690 -0.466 -0.876 -0.127 211 183 179
-1957.8896 5369.5088 -42.6105 -0.572 -0.640 -0.513 215 192 194
-1952.1625 5375.1895 -46.3576 -0.572 -0.639 -0.515 224 204 206
-4466.7373 2642.0513 1634.4191 0.885 0.271 -0.378 52 42 25
-4470.2881 2655.0808 1633.4895 0.889 0.267 -0.372 47 37 20
-4389.6216 2693.3721 1588.9430 0.330 -0.907 0.261 125 112 95
-4363.9072 2688.3337 1578.1298 0.987 0.147 0.060 126 114 98
-4381.9272 2710.5139 1582.0441 0.709 -0.302 0.637 118 107 89
-4333.0498 2734.6345 1554.8717 0.664 -0.305 0.683 123 112 99
-4289.2236 2772.5537 1527.3076 0.968 -0.173 0.182 61 56 47
-4308.5684 2796.3069 1531.5211 0.417 -0.872 0.257 52 48 41
-4327.9028 2820.1829 1535.7057 0.084 -0.985 -0.152 37 35 30
-3631.5647 2635.4788 1252.3711 0.542 0.405 -0.736 107 163 210
-3608.5132 2669.2795 1235.1514 0.540 0.376 -0.753 64 45 37
-3627.2915 2693.5994 1238.9935 0.549 0.378 -0.745 74 42 23
-3545.9653 2673.0266 1205.7063 0.744 -0.063 -0.666 82 39 18
-3533.3525 2673.5654 1199.8112 0.744 -0.255 -0.618 74 41 27
-3537.3413 2686.8064 1199.0411 0.676 -0.271 -0.685 65 44 39
-3537.3933 2697.0647 1197.0500 0.693 -0.263 -0.671 100 93 100
-3536.1714 2706.3660 1194.6622 0.693 -0.263 -0.671 136 143 161
-3804.5469 2947.2441 1270.5308 0.277 -0.668 -0.691 126 160 195
-3785.9399 3010.9900 1249.4690 0.834 -0.241 -0.496 157 148 144
-3789.9412 3025.5281 1248.4500 0.831 -0.188 -0.524 173 150 137
-3795.8071 3098.9854 1236.7136 0.684 -0.438 0.583 181 152 136
-3889.7219 3188.2622 1262.2839 0.832 -0.528 0.171 183 152 133
-3863.6621 3178.5095 1252.2383 0.671 -0.436 -0.600 184 149 130
-4013.6389 3315.3706 1294.1938 0.848 -0.071 -0.524 185 149 129
-2880.0496 2552.1726 923.7937 -0.027 -0.901 0.432 93 63 48
-2859.0410 2542.6255 916.0261 0.976 0.105 0.191 99 69 54
-2889.8655 2627.3611 913.5303 0.896 0.347 -0.278 106 68 59
-2894.8152 2690.0225 903.4940 0.834 -0.551 0.043 56 35 24
-2896.0615 2710.8044 899.9839 0.784 -0.062 -0.618 52 31 19
-2899.1416 2723.5815 898.8879 0.676 -0.143 -0.723 53 32 18
-2883.7256 2718.7639 892.7584 0.864 -0.501 -0.045 54 34 21
-2880.1445 2725.2017 889.8503 0.864 -0.501 -0.045 52 34 23
-2763.2542 2670.5969 846.9239 0.689 -0.180 -0.702 35 24 25
-2806.0381 2732.0930 854.4821 0.920 -0.336 0.204 35 25 22
-2800.4412 2846.7368 829.3945 -0.126 -0.099 -0.987 109 44 15
-2770.5464 2866.8364 811.7250 -0.157 -0.241 -0.958 177 91 43
-2649.4294 2829.4727 763.4721 0.993 0.113 0.023 182 95 47
-2650.6965 2840.9438 761.8005 0.993 0.113 0.023 178 91 44
-2413.0667 3171.3501 587.8302 0.152 -0.988 0.012 101 79 59
-2362.3701 3147.9631 569.1547 -0.086 -0.160 -0.983 119 95 65
-2335.8071 3156.3030 555.3242 0.417 -0.642 -0.644 129 103 73
-2294.7490 3111.0745 545.3627 0.089 -0.987 -0.133 131 109 77
-2287.0288 3111.4221 541.7510 0.082 -0.986 -0.147 137 113 79
-2269.7080 3098.4602 536.3469 0.098 -0.990 -0.107 140 105 70
-2248.2161 3101.3730 525.9101 0.816 -0.437 -0.379 123 66 32
-2243.5806 3105.8274 522.9074 0.828 -0.428 -0.363 153 86 51
-2254.0598 3131.5439 522.6660 -0.354 -0.556 -0.752 162 87 49
-2248.8149 3135.2004 519.5404 -0.297 -0.579 -0.760 166 86 44
-2305.8188 3354.7766 502.5748 0.229 -0.973 0.043 48 15 3
-2309.1992 3371.6421 500.8136 0.499 -0.853 0.153 35 3 0
-2315.3494 3392.6948 499.5012 0.398 -0.915 -0.064 27 1 0
-2405.2507 5073.8672 210.5433 0.181 -0.120 -0.976 166 121 102
-2263.7493 5618.1475 38.6855 0.712 -0.083 -0.698 106 80 64
-2107.3647 5412.8667 7.2280 0.360 -0.901 -0.241 155 132 118
-2088.5591 5492.3760 -17.0213 -0.505 -0.862 -0.030 137 108 100
-1929.0774 5295.4854 -51.5483 0.248 -0.839 0.484 207 185 188
-1924.7853 5304.8418 -55.3562 0.236 -0.845 0.480 200 182 186
-4460.0513 2645.3977 1619.6888 0.988 0.102 -0.120 39 25 5
-4463.8989 2658.6038 1618.8375 0.913 0.292 -0.285 47 33 13
-4385.0200 2686.8831 1577.1761 0.422 -0.451 0.786 121 107 91
-4339.1133 2669.2888 1559.6620 0.891 -0.199 0.408 121 107 91
-4369.0811 2698.8257 1567.5264 0.425 -0.450 0.786 117 103 86
-4318.6128 2721.7131 1539.9229 0.661 -0.308 0.684 107 99 89
-4307.7651 2780.8240 1523.2755 0.932 0.353 -0.081 32 30 25
-4326.0000 2815.0405 1524.8492 0.750 -0.527 0.401 31 32 27
-4308.2588 2814.5466 1516.8340 -0.144 -0.977 0.156 25 26 21
-3628.8330 2629.6924 1242.6890 0.516 0.410 -0.752 108 160 207
-3623.5215 2635.9106 1239.0306 0.561 0.409 -0.720 118 162 203
-3619.3064 2673.4766 1229.6760 0.554 0.372 -0.744 57 46 44
-3557.2866 2677.7463 1200.4709 0.766 -0.104 -0.635 83 40 16
-3559.3853 2689.5481 1199.0973 0.137 -0.989 -0.064 75 42 26
-3493.1045 2648.9644 1176.8118 0.350 -0.933 0.084 63 46 42
-3542.4343 2707.2380 1187.8485 0.693 -0.263 -0.671 133 148 171
-3807.7451 2945.4070 1262.0835 0.254 -0.666 -0.702 119 162 201
-3797.7500 2948.7031 1256.8612 0.881 -0.333 -0.336 129 167 201
-3793.2961 2956.3330 1253.3160 0.871 -0.342 -0.351 131 162 187
-3788.4690 3008.5437 1240.7861 0.917 -0.314 -0.247 165 148 136
-3793.5374 3023.9199 1240.0637 0.831 -0.175 -0.527 171 146 130
-3806.2952 3056.9861 1239.3604 0.752 -0.162 -0.639 174 145 127
-3786.8047 3098.4395 1222.2518 0.689 -0.438 0.577 175 145 126
-3859.5774 3182.1428 1238.9810 0.876 0.419 -0.239 168 136 115
-3863.0127 3196.8525 1237.6437 0.872 0.423 -0.246 169 136 115
-3874.8228 3218.6394 1238.7367 0.971 0.003 0.238 169 136 115
-3921.5532 3269.9229 1249.9668 0.971 -0.020 -0.238 176 143 122
-2852.2722 2532.5784 906.7781 0.989 0.142 -0.050 108 70 54
-2936.8123 2764.9885 899.4877 0.571 -0.120 -0.812 43 30 20
-2863.8318 2705.2498 877.9256 0.971 -0.147 -0.187 44 31 22
-2321.1875 3141.4050 543.5497 0.528 -0.497 -0.688 124 109 81
-2292.5828 3113.1484 536.0557 0.107 -0.963 -0.247 132 114 85
-2274.1233 3098.6555 530.4798 0.098 -0.990 -0.107 138 106 77
-2251.6377 3100.2092 519.8903 0.816 -0.437 -0.379 119 65 34
-2248.9885 3107.4409 517.2490 0.816 -0.437 -0.379 149 88 53
-2306.3870 3349.0127 495.7357 0.481 -0.513 -0.711 87 40 14
-2251.9963 3339.0422 472.8348 0.429 -0.796 0.427 15 7 7
-2225.4958 3430.1365 442.7065 0.114 -0.077 -0.990 18 17 15
-2284.7017 5568.6025 46.9869 0.968 0.132 -0.215 110 82 61
-2286.5884 5594.8022 42.6698 0.970 0.179 -0.163 110 82 62
-2284.3735 5610.9668 38.4611 0.970 0.185 -0.154 108 80 60
-2100.4138 5530.2163 -29.6962 -0.369 -0.906 -0.206 140 111 103
-2067.2896 5551.0610 -48.9646 -0.433 -0.885 -0.170 193 163 165
-1963.5681 5332.8594 -53.2548 -0.433 -0.901 0.022 189 159 159
-1959.8712 5408.7349 -69.9465 -0.017 -0.891 0.453 193 176 180
-1949.4287 5401.2607 -73.2441 -0.023 -0.894 0.448 223 203 206
-1948.5913 5420.7065 -77.4716 -0.015 -0.911 0.412 226 209 212
-4457.1729 2629.3052 1610.5968 0.880 -0.064 0.471 74 59 38
-4449.2295 2646.2366 1603.6086 0.884 -0.058 0.463 93 78 57
-4440.3066 2651.7283 1598.4507 0.888 -0.055 0.456 100 85 64
-4330.7920 2660.5166 1546.8088 0.894 -0.194 0.403 111 95 75
-4345.2095 2680.3003 1549.4407 0.422 -0.451 0.786 112 95 75
-4296.4814 2703.9360 1522.5375 0.694 -0.347 0.631 59 52 44
-4328.5156 2801.6462 1517.6882 0.922 0.375 -0.097 31 32 27
-4331.5742 2814.8186 1516.4606 0.985 0.164 -0.046 29 30 25
-4318.0493 2817.1116 1509.8424 0.848 -0.434 0.303 25 26 21
-3625.5891 2674.2991 1222.7878 0.712 0.334 -0.618 56 46 47
-3565.4075 2680.0208 1194.2314 0.913 -0.055 -0.404 84 40 15
-3555.4690 2682.6426 1189.1820 0.905 -0.295 -0.308 75 42 26
-3551.7085 2689.9651 1186.0117 0.906 -0.276 -0.321 62 46 42
-3551.2476 2699.8293 1183.8387 0.904 -0.286 -0.317 88 87 97
-3549.2512 2708.5349 1181.1969 0.897 -0.268 -0.351 132 148 173
-3804.7048 2938.7085 1251.7748 0.273 -0.698 -0.662 124 165 203
-3796.1741 2943.1311 1247.0082 0.790 -0.310 -0.529 126 162 196
-3791.4746 3006.4861 1232.2601 0.917 -0.314 -0.247 159 141 129
-3824.8315 3044.5806 1239.8765 0.606 0.310 -0.733 166 140 124
-3776.9141 3085.6282 1209.8779 0.845 -0.306 0.439 168 140 120
-3759.9158 3083.0488 1202.6471 0.847 -0.341 0.408 163 130 110
-2953.4756 2609.9070 929.3976 -0.590 -0.653 -0.475 105 67 48
-2919.4199 2588.9060 918.0615 -0.592 -0.650 -0.476 111 72 55
-2811.2178 2708.7625 844.9160 0.965 -0.247 0.089 36 23 20
-2804.9365 2712.3926 841.3321 0.784 -0.612 0.105 37 22 18
-2798.1770 2715.5386 837.6265 0.790 -0.605 0.096 38 21 14
-2785.7024 2713.0332 832.4418 0.962 -0.188 0.200 38 17 0
-2779.8586 2717.0293 828.9843 0.974 -0.196 0.109 46 23 0
-2774.5271 2721.5225 825.6613 0.973 -0.210 0.099 54 26 1
-2868.9534 2928.4624 827.5009 -0.191 -0.269 -0.944 164 81 37
-2295.4473 3111.1770 529.8627 -0.004 -0.963 -0.268 134 113 87
-2268.6018 3096.0371 520.6450 0.128 -0.987 -0.099 140 95 70
-2258.7971 3093.3494 516.7130 0.462 -0.882 0.092 112 63 34
-2254.4434 3098.1926 513.7657 0.680 -0.678 -0.280 119 64 31
-2250.3896 3103.4519 510.8724 0.680 -0.678 -0.280 148 89 51
-2255.5203 3121.5842 509.6016 0.706 -0.365 -0.607 156 92 51
-2295.7290 3326.8027 487.0833 0.501 -0.477 -0.722 117 65 30
-2301.6235 3394.7703 476.2437 0.828 0.480 -0.291 22 0 1
-2227.2976 3365.9629 448.1146 0.759 -0.312 -0.571 26 25 23
-2238.6807 3443.7151 437.8285 0.056 -0.110 -0.992 18 17 15
-2231.1626 3444.1702 434.3128 0.020 -0.127 -0.992 20 20 20
-2231.2229 3481.0352 427.0045 0.108 -0.060 -0.992 24 20 17
-2235.7991 3500.6392 425.1883 0.587 -0.706 0.396 31 22 18
-2232.7041 3508.1404 422.2856 0.586 -0.695 0.417 45 30 26
-2271.5127 5500.1675 43.5699 0.973 0.101 -0.208 112 81 61
-2269.6985 5516.9209 39.4095 0.990 0.040 -0.132 110 82 61
-2271.9636 5543.8047 35.0919 0.975 0.112 -0.193 110 82 61
-2105.6465 5528.6006 -37.6539 -0.373 -0.912 -0.172 140 111 103
-2081.0916 5572.6582 -57.6079 -0.447 -0.876 -0.180 181 149 150
-1934.1633 5237.0078 -57.7543 -0.310 -0.287 -0.906 196 165 165
-1940.5076 5317.7944 -70.9399 -0.111 -0.239 -0.965 163 142 145
-1949.6571 5386.2134 -80.3863 -0.235 -0.395 -0.888 215 195 197
-1953.6930 5419.2393 -85.1195 -0.396 -0.827 -0.398 223 204 206
-4426.0806 2650.4382 1581.3152 0.830 -0.143 0.540 127 114 92
-4412.9380 2664.1577 1572.6025 0.437 -0.442 0.783 135 118 98
-4280.8369 2701.1479 1505.2360 0.764 -0.237 0.600 34 30 21
-4280.2217 2722.4829 1500.6840 0.924 0.365 -0.112 38 31 21
-4321.9595 2793.5173 1505.4020 0.924 0.371 -0.088 30 31 26
-4303.3130 2792.4272 1497.1570 0.847 0.410 -0.337 31 32 27
-4302.6523 2814.2371 1492.4893 -0.248 -0.967 0.051 21 22 17
-4359.2090 2862.9011 1508.4132 -0.428 -0.903 -0.030 21 22 17
-4343.0698 2931.9272 1487.2639 -0.225 -0.903 0.366 2 15 22
-3694.2573 2669.9497 1245.2458 0.019 -0.945 -0.327 113 159 202
-3568.8687 2678.7537 1186.5709 0.913 -0.055 -0.404 84 40 14
-3583.1262 2699.8035 1188.8264 0.037 -0.973 0.230 75 42 26
-3571.8081 2701.4116 1183.3673 0.032 -0.978 0.207 64 45 42
-3554.6086 2698.4697 1176.1500 0.903 -0.311 -0.296 88 87 97
-3552.2046 2706.8525 1173.3800 0.901 -0.304 -0.310 132 148 173
-3806.3298 2935.6638 1242.8986 0.510 -0.581 -0.635 128 168 205
-3802.8342 2944.0154 1239.6393 0.605 -0.567 -0.558 124 158 191
-3790.0017 3000.8535 1222.4318 0.911 -0.324 -0.254 152 135 123
-3730.5591 2975.5076 1200.5280 0.277 -0.843 -0.461 161 134 115
-3750.7192 3059.4253 1192.8719 0.841 -0.541 -0.003 162 134 114
-3727.3464 3051.4927 1183.8522 0.981 0.075 -0.178 157 125 105
-3839.6768 3203.1787 1204.4585 0.937 -0.283 0.206 145 113 92
-2783.9836 2677.8879 830.4985 0.997 -0.072 0.008 45 19 10
-2782.8621 2686.4521 828.2743 0.920 -0.342 0.190 46 19 9
-2779.8103 2693.1448 825.5488 0.920 -0.342 0.190 49 19 5
-2774.0383 2697.1682 822.1232 0.947 -0.084 -0.311 60 28 1
-2776.8818 2709.6902 820.9060 0.426 0.026 -0.904 73 37 7
-2726.0745 2727.1433 794.3502 0.658 -0.075 -0.749 158 80 37
-2299.2268 2930.0825 559.9683 0.917 -0.393 0.067 132 76 37
-2293.8818 2933.4761 556.8627 0.910 -0.410 0.056 104 55 18
-2289.4800 2938.0830 553.9422 0.908 -0.419 -0.020 90 56 29
-2272.8884 3096.0701 514.7712 0.128 -0.987 -0.099 139 94 69
-2264.2139 3094.9619 511.0559 0.614 -0.738 -0.282 111 62 33
-2261.7424 3102.4268 508.4392 0.668 -0.261 -0.697 120 65 32
-2261.6494 3113.2227 506.2349 0.664 -0.259 -0.701 148 89 51
-2277.1421 3224.2634 491.0284 -0.316 -0.824 -0.470 168 86 38
-2289.8003 3370.4397 467.4988 0.836 0.467 -0.290 27 3 0
-2218.0371 3333.2913 442.3665 0.805 0.135 -0.577 20 19 17
-2226.3547 3478.5493 417.0507 0.675 -0.619 0.401 26 23 18
-2229.3247 3495.5957 414.9848 0.605 -0.688 0.401 37 30 24
-2253.9995 5463.8091 32.0070 0.067 -0.347 -0.936 107 79 58
-2250.5745 5476.4434 27.9220 0.162 -0.291 -0.943 113 85 64
-2246.3281 5487.0913 23.8623 0.148 -0.307 -0.940 112 84 63
-2280.2156 5657.4688 5.1214 0.952 0.194 -0.238 111 84 65
-2133.2310 5564.2197 -42.9173 -0.206 -0.953 0.221 157 129 118
-1936.6843 5208.1665 -60.8190 -0.106 -0.151 -0.983 174 140 139
-1966.4443 5352.7666 -76.2707 -0.123 -0.232 -0.965 181 154 158
-1964.5145 5390.3867 -84.6809 -0.131 -0.247 -0.960 147 128 132
-1966.1827 5416.6782 -89.1892 -0.233 -0.391 -0.891 183 164 166
-4315.2676 2665.2104 1517.3396 0.434 -0.444 0.784 113 100 83
-4286.4312 2668.6626 1503.6044 0.438 -0.442 0.783 76 68 57
-4254.8926 2735.0662 1475.9596 0.989 0.090 0.114 31 30 26
-4277.9028 2860.9539 1460.9919 0.624 0.444 -0.644 15 22 26
-4311.3252 2906.2395 1466.9775 -0.032 -0.873 0.487 14 22 23
-3685.8293 2670.2078 1231.7095 0.038 -0.951 -0.307 118 158 194
-3681.0364 2676.9363 1228.1862 0.424 -0.642 -0.639 124 158 189
-3677.7644 2684.7878 1225.1241 0.447 -0.597 -0.666 104 126 149
-3673.4009 2691.8406 1221.7295 0.447 -0.597 -0.666 59 66 79
-3636.1946 2674.4805 1208.4043 0.703 0.338 -0.626 55 45 44
-3649.6895 2694.7742 1210.4163 0.697 0.337 -0.633 69 41 28
-3574.6973 2679.2839 1179.6279 0.913 -0.057 -0.404 86 41 15
-3585.8374 2697.9436 1180.9044 0.039 -0.972 0.231 77 44 27
-3557.3420 2696.6331 1168.2834 0.960 -0.197 -0.200 85 85 95
-3814.9067 2938.0359 1236.0958 0.575 -0.562 -0.595 117 158 197
-3809.1506 2944.6294 1232.1642 0.605 -0.567 -0.558 118 155 189
-3804.8301 2997.0095 1219.6532 0.713 -0.069 -0.698 146 133 127
-3838.1191 3057.6152 1222.4911 0.603 0.111 -0.790 159 132 113
-3738.8298 3045.0671 1180.1229 0.432 -0.675 -0.598 157 128 109
-3716.0947 3037.6296 1171.3414 0.515 -0.599 -0.613 150 118 98
-3850.0667 3183.4392 1202.5338 0.969 0.117 0.216 150 118 97
-3673.2024 3126.7808 1133.9778 -0.270 -0.344 -0.899 182 151 130
-3642.5332 3111.8401 1123.1210 -0.157 -0.240 -0.958 180 149 128
-3085.2832 2689.6555 956.2316 0.043 -0.780 0.624 138 100 81
-2818.3938 2536.3103 866.4547 -0.223 -0.575 -0.787 48 21 10
-2784.5986 2514.6538 855.5380 -0.330 -0.633 -0.700 41 21 7
-2775.7578 2675.1992 819.1824 0.989 -0.151 0.001 70 32 10
-2778.6162 2746.1455 806.1757 -0.005 -0.238 -0.971 144 72 43
-2508.5642 2824.2605 668.3181 0.474 -0.880 -0.002 164 86 38
-2288.4854 2931.3872 547.2103 0.059 -0.515 -0.855 78 46 21
-2281.5449 2932.6619 543.8151 0.069 -0.502 -0.862 74 55 35
-2277.9993 3097.2378 509.0415 0.603 -0.760 -0.242 132 90 66
-2271.6750 3099.3938 505.7473 0.668 -0.238 -0.705 108 61 35
-2268.2461 3105.5420 502.9576 0.668 -0.243 -0.704 105 52 22
-2267.2686 3115.1072 500.5877 0.668 -0.243 -0.704 140 79 45
-2239.9109 3109.6350 489.3199 0.207 -0.942 0.264 173 95 53
-2266.0959 3236.1675 475.6578 0.019 -0.984 0.175 163 85 36
-2255.1045 3231.6160 471.6051 0.081 -0.981 0.177 149 75 26
-2228.9287 3331.4170 439.6539 0.878 -0.256 -0.404 12 11 9
-2220.4150 3330.2485 436.0397 0.805 0.128 -0.579 16 15 13
-2232.6235 3360.6152 435.4398 0.823 0.144 -0.550 22 21 19
-2222.1812 3477.1392 407.2325 0.218 -0.965 0.148 22 23 13
-2235.2898 3510.2954 406.4775 0.639 -0.708 0.301 26 22 17
-2286.3923 5486.2559 31.3316 0.269 -0.121 -0.956 77 45 24
-2265.6772 5477.8667 23.6555 0.277 -0.396 -0.876 82 54 33
-2255.0330 5472.8345 19.8564 0.575 -0.537 -0.617 90 62 41
-2246.7664 5473.5610 15.9719 0.605 -0.547 -0.579 109 81 60
-2264.4382 5559.7246 6.5967 0.980 0.127 -0.156 108 80 59
-2265.4988 5583.8535 2.2131 0.933 0.231 -0.277 103 75 54
-2061.0054 5337.8257 -40.6691 0.635 0.111 -0.765 160 131 123
-2077.4121 5401.9604 -46.1765 0.623 0.110 -0.774 166 137 129
-1991.5023 5320.9883 -68.7037 -0.132 -0.185 -0.974 185 153 154
-1993.9641 5391.4995 -81.8021 -0.330 -0.294 -0.897 158 128 130
-1995.0631 5416.0312 -86.2495 -0.218 -0.307 -0.926 153 127 130
-1981.4875 5421.8501 -93.5610 -0.274 -0.360 -0.892 159 140 144
-4366.8115 2618.2776 1539.3778 0.450 -0.454 0.769 139 124 104
-4355.6968 2622.2146 1533.5723 0.436 -0.465 0.770 134 119 100
-3710.1948 2684.2051 1230.2059 -0.139 -0.787 -0.600 114 150 188
-3699.1304 2686.3835 1224.7797 -0.139 -0.787 -0.600 123 155 189
-3694.5339 2693.2932 1221.3076 -0.097 -0.789 -0.607 101 123 149
-3684.2639 2696.0093 1216.1301 -0.097 -0.789 -0.607 56 64 79
-3578.1611 2678.0239 1171.9796 0.913 -0.057 -0.404 86 42 16
-3561.8809 2696.1833 1160.9623 0.959 -0.200 -0.199 84 84 94
-3821.2429 2938.6611 1228.6223 0.784 -0.523 -0.334 109 152 193
-3817.4380 2946.7781 1225.2617 0.725 -0.584 -0.366 104 143 179
-3811.3203 2997.7444 1212.1686 0.745 -0.061 -0.664 143 128 122
-3869.9915 3090.1970 1219.8478 0.735 0.093 -0.672 158 129 111
-3736.0515 3026.9668 1172.3336 0.911 -0.388 -0.138 152 123 105
-3722.0974 3038.0312 1163.8033 0.505 -0.601 -0.619 148 115 95
-3846.9595 3187.8335 1189.6689 0.971 0.116 0.210 152 120 99
-3852.3140 3227.8711 1183.9606 0.617 -0.651 0.442 152 120 99
-2948.9409 2584.3054 907.5298 -0.082 -0.851 0.519 139 101 82
-2835.8521 2548.2354 863.9001 -0.359 -0.492 -0.793 39 17 4
-2795.5967 2520.7654 851.3370 -0.334 -0.645 -0.688 39 24 9
-2785.6519 2520.8313 846.8435 -0.329 -0.645 -0.689 35 27 9
-2765.8474 2511.7910 839.7554 0.990 0.136 0.030 30 29 9
-2784.2273 2650.3887 819.9243 0.902 -0.422 0.093 83 33 5
-2791.9333 2686.6570 816.0397 0.103 -0.123 -0.987 106 56 25
-2797.0784 2711.0789 813.4042 0.210 0.028 -0.977 128 71 35
-2803.1958 2726.8506 812.9611 0.210 0.027 -0.977 131 71 34
-2572.4988 2881.9634 677.5734 0.440 -0.777 -0.450 165 84 37
-2511.0793 2822.2544 662.0149 0.467 -0.884 -0.007 165 84 37
-2505.2107 2825.5298 658.7068 -0.077 -0.901 0.427 162 81 34
-2278.1382 2922.8394 536.6757 -0.118 -0.957 0.266 55 38 21
-2371.8008 3087.5952 545.4534 -0.071 -0.857 0.510 91 74 54
-2279.9402 3115.8296 498.3443 0.616 -0.216 -0.757 100 44 13
-2272.6367 3116.6365 494.8905 0.674 -0.264 -0.690 140 78 44
-2236.9792 3336.9524 434.1417 0.865 -0.050 -0.500 11 10 8
-2227.4961 3334.3462 430.3981 0.803 0.123 -0.583 16 15 13
-2235.5178 3358.3096 429.1515 0.838 0.128 -0.530 22 21 19
-2224.0295 3472.9734 400.7195 0.220 -0.966 0.132 18 25 13
-2240.0964 3510.7522 400.2950 0.864 -0.495 -0.092 21 24 15
-2304.2161 5514.9365 22.6822 0.269 -0.121 -0.956 104 72 49
-2282.0669 5503.3325 15.0577 -0.193 -0.345 -0.919 81 53 32
-2269.2795 5493.1885 11.3545 -0.164 -0.398 -0.902 71 43 22
-2255.0764 5479.4331 7.7461 -0.319 -0.581 -0.749 82 54 33
-2279.0659 5559.6587 2.2814 0.928 0.166 -0.332 94 63 43
-2278.6614 5580.0825 -2.0433 0.847 -0.348 -0.401 99 71 50
-2260.4246 5577.7734 -9.7905 0.903 0.036 -0.428 113 86 67
-2249.9028 5573.0059 -13.5635 0.910 -0.091 -0.405 120 94 77
-2230.2617 5545.2290 -16.7777 0.945 -0.322 -0.054 132 109 91
-2241.0352 5637.4297 -30.6250 0.593 0.143 -0.792 156 130 113
-2103.7180 5413.4126 -47.0490 0.047 -0.131 -0.990 159 130 122
-2054.5576 5306.2168 -47.4533 0.332 0.072 -0.940 161 132 124
-2089.3855 5418.3770 -54.5126 0.614 0.114 -0.781 173 144 136
-2107.5042 5552.4868 -73.5510 -0.225 -0.961 0.163 147 115 116
-2029.5105 5429.8560 -83.8140 -0.094 -0.140 -0.986 161 129 130
-2064.4102 5546.2383 -91.6972 -0.389 -0.242 -0.889 148 116 117
-2029.1764 5472.1904 -92.5509 -0.407 -0.283 -0.868 152 122 124
-2000.2532 5436.3721 -98.3158 -0.094 -0.217 -0.972 147 125 129
-1951.4814 5344.7485 -101.7035 -0.441 -0.647 -0.622 203 184 190
-4302.3931 2628.6799 1497.6356 0.457 -0.411 0.789 63 46 27
-3719.1401 2697.2083 1221.8849 -0.300 -0.883 -0.362 119 155 192
-3704.3398 2696.6516 1215.3562 -0.182 -0.787 -0.589 98 124 152
-3693.1196 2698.6838 1209.9056 -0.182 -0.787 -0.589 53 64 81
-3638.7334 2668.6819 1191.6205 0.898 0.180 -0.402 51 44 46
-3656.8760 2692.3721 1194.9277 0.777 0.365 -0.513 66 42 31
-3577.5681 2673.7031 1163.1447 0.698 0.323 -0.639 85 42 16
-3589.9062 2693.2144 1164.6997 0.179 -0.978 0.106 77 44 28
-3576.3186 2693.0906 1158.6270 0.150 -0.986 0.073 64 48 44
-3564.2644 2694.0884 1153.0133 0.908 -0.326 -0.264 83 84 95
-3566.2393 2705.8040 1151.5085 0.865 -0.348 -0.361 111 131 154
-3817.5161 2998.2434 1204.5955 0.726 -0.075 -0.683 131 116 110
-3858.7949 3053.7314 1211.7965 0.589 -0.019 -0.808 151 125 109
-3859.8220 3065.9768 1209.7582 0.659 -0.750 -0.050 150 123 104
-3856.4314 3074.7036 1206.4553 0.741 -0.570 -0.355 151 122 104
-3816.3826 3169.1851 1169.1980 0.953 -0.268 0.139 152 120 99
-3808.3591 3174.1506 1164.5836 0.952 -0.287 0.103 152 120 99
-3812.5913 3189.4502 1163.3604 0.959 -0.273 0.072 152 120 99
-3663.7812 3120.6492 1110.6165 0.733 -0.154 -0.662 159 128 107
-2921.0916 2565.0103 890.7015 -0.091 -0.853 0.514 150 112 93
-2901.6921 2557.0833 883.6129 -0.085 -0.851 0.517 127 88 71
-2907.1929 2571.3503 883.1698 -0.202 -0.763 -0.614 110 73 56
-2885.2993 2561.0662 875.4429 -0.392 -0.653 -0.648 68 38 27
-2874.3547 2560.5403 870.6383 -0.397 -0.640 -0.657 44 19 8
-2865.2046 2561.5945 866.3166 -0.220 -0.615 -0.757 31 11 0
-2857.2158 2563.6707 862.3074 -0.220 -0.615 -0.757 33 20 4
-2820.8950 2539.8945 850.8593 -0.269 -0.760 -0.592 26 21 4
-2804.5444 2534.1770 844.6881 -0.263 -0.765 -0.589 22 23 5
-2783.2878 2588.6484 824.0306 -0.027 -0.675 -0.738 34 22 9
-2839.1243 2669.9702 832.4925 -0.155 0.029 -0.987 85 36 6
-2515.1868 2822.0645 656.0670 0.429 -0.903 -0.028 164 85 37
-2273.3235 2921.4482 527.2346 0.004 -0.869 0.496 50 32 15
-2279.3215 3109.0693 491.6335 0.669 -0.270 -0.692 96 42 9
-2201.3110 3119.3425 454.5256 0.758 0.102 -0.645 168 86 38
-2240.6082 3335.8000 427.9836 0.865 -0.050 -0.500 11 10 8
-2230.7180 3332.5906 424.2000 0.856 0.087 -0.509 16 15 13
-2250.5859 3483.1543 402.3870 0.390 -0.919 -0.048 14 18 14
-2204.0247 3434.3464 391.4519 0.496 -0.819 0.287 16 26 14
-2233.7847 3493.6035 392.7139 0.487 -0.241 -0.840 20 25 17
-2313.2339 5522.2275 14.3333 0.478 -0.208 -0.854 124 92 69
-2298.1086 5506.7310 10.7079 0.378 -0.284 -0.881 121 90 69
-2300.9028 5534.6108 6.2717 -0.190 -0.347 -0.918 110 82 60
-2285.9553 5519.3623 2.6754 -0.163 -0.395 -0.904 104 76 55
-2268.3196 5497.3560 -0.7481 -0.302 -0.544 -0.783 84 53 32
-2279.4072 5545.7383 -5.6467 0.928 0.166 -0.332 79 48 27
-2287.7429 5587.6445 -10.4585 0.853 -0.375 -0.363 87 59 37
-2271.8267 5591.2100 -18.3294 0.909 -0.049 -0.413 110 83 62
-2253.9822 5568.2456 -21.6511 0.910 -0.091 -0.405 119 94 74
-2386.4312 5921.6914 -34.3454 -0.108 -0.210 -0.972 131 108 90
-2262.5334 5676.6616 -39.9407 0.594 0.138 -0.793 157 131 114
-2062.6829 5292.0371 -51.1328 0.149 -0.013 -0.989 159 130 122
-2141.0911 5516.9980 -61.8572 0.332 0.072 -0.940 164 135 127
-2123.0247 5491.3633 -64.7334 0.437 0.049 -0.898 180 151 145
-2094.3518 5480.4502 -75.3745 -0.188 -0.956 0.227 169 138 135
-2107.3252 5536.4937 -80.9904 -0.151 -0.968 0.201 171 137 136
-2098.3318 5534.3389 -84.5868 -0.151 -0.968 0.201 180 147 147
-2116.2097 5670.8657 -104.4280 -0.399 -0.253 -0.881 160 127 128
-2066.3958 5557.8838 -103.7252 -0.406 -0.287 -0.868 163 132 133
-2060.2786 5563.2700 -107.5699 -0.406 -0.304 -0.862 164 140 142
-2026.4952 5492.7944 -108.3479 -0.094 -0.217 -0.972 151 130 132
-1968.1816 5397.0405 -114.9761 -0.359 -0.446 -0.820 221 203 206
-4315.4863 2601.3828 1498.5034 0.932 0.154 0.329 94 81 64
-4312.4419 2620.7119 1493.1725 0.824 -0.209 0.527 68 55 38
-4305.5107 2627.0720 1488.7673 0.512 -0.700 0.498 51 38 21
-4136.8232 2564.1533 1426.2666 0.427 -0.642 -0.637 32 28 17
-4133.8896 2572.6370 1423.2126 0.772 -0.572 -0.277 30 26 18
-4137.3677 2908.7385 1355.7432 -0.384 -0.902 -0.198 6 28 47
-3717.9941 2702.8276 1210.5233 -0.186 -0.773 -0.606 103 123 143
-3706.0864 2704.3828 1204.8799 -0.186 -0.773 -0.606 58 63 74
-3641.4392 2666.8584 1183.6815 0.898 0.185 -0.398 55 43 42
-3657.1677 2688.7234 1186.2235 0.765 0.382 -0.518 70 41 29
-3578.8206 2670.7869 1154.8772 0.660 0.364 -0.657 85 42 17
-3576.0935 2678.8606 1151.9998 0.701 0.299 -0.647 76 45 28
-3579.6345 2691.7107 1150.9438 0.131 -0.991 0.018 63 48 44
-3567.8074 2692.8843 1145.4148 0.896 -0.318 -0.311 82 84 95
-3840.5398 3023.3501 1199.4899 0.691 -0.057 -0.721 144 127 116
-3854.0579 3045.4485 1200.9957 0.559 -0.752 -0.349 146 121 104
-3837.2988 3043.4109 1193.9210 0.050 -0.818 0.573 145 118 99
-3812.4946 3034.8379 1184.5913 0.051 -0.820 0.570 146 117 99
-3725.2104 3009.1152 1150.8480 0.873 -0.278 0.401 140 111 93
-3577.4761 2997.3918 1087.2017 0.618 -0.300 -0.727 157 126 105
-2890.5334 2552.4836 871.4307 0.130 -0.961 0.244 150 115 98
-2872.9434 2573.9473 859.1581 -0.223 -0.628 -0.746 24 13 0
-2786.0559 2587.1631 817.5955 0.037 -0.748 -0.663 57 40 26
-2814.5955 2700.0574 807.1709 0.227 0.131 -0.965 141 77 35
-2810.7690 2764.8174 792.1605 0.277 -0.554 -0.785 177 79 46
-2518.3157 2820.7654 649.9108 0.429 -0.903 -0.028 162 85 40
-2428.0173 2747.2349 624.6380 0.156 -0.753 0.639 132 56 10
-2244.8425 2889.1721 513.5888 0.527 -0.634 0.566 52 31 12
-2238.1399 2890.5356 510.3120 0.552 -0.614 0.565 53 34 15
-2285.8442 3101.3040 488.3560 0.669 -0.270 -0.692 75 36 10
-2250.5605 3251.5706 441.7203 0.844 0.032 -0.536 162 97 60
-2271.8257 3305.7939 440.0924 0.724 0.267 -0.636 140 89 53
-2243.8311 3502.3721 387.2047 0.152 -0.588 -0.794 19 23 17
-2319.5291 5565.2173 -2.5927 -0.188 -0.343 -0.920 115 87 65
-2292.1199 5562.2261 -14.2334 0.896 0.115 -0.429 101 70 49
-2297.2410 5596.1909 -18.9191 -0.001 -0.437 -0.899 92 61 40
-2274.6602 5561.9141 -21.9758 0.956 0.078 -0.283 83 55 33
-2279.2791 5703.6650 -49.0218 0.508 0.129 -0.851 157 132 112
-2090.1118 5369.3853 -64.9504 0.382 0.096 -0.919 171 143 132
-2101.5862 5462.8623 -79.0173 -0.311 -0.224 -0.924 194 164 156
-2097.8674 5474.4937 -83.0687 -0.308 -0.224 -0.925 193 162 156
-2090.1228 5475.4946 -86.7370 -0.310 -0.227 -0.923 196 163 159
-2051.5188 5501.7974 -109.3991 -0.152 -0.957 0.247 179 147 146
-2049.4104 5517.8818 -113.6451 -0.198 -0.972 0.129 180 152 151
-2025.7271 5475.0571 -115.4394 -0.185 -0.977 -0.110 164 140 141
-1997.5300 5419.4478 -116.6263 -0.235 -0.942 -0.240 163 142 143
-1985.2057 5407.0776 -119.5961 -0.230 -0.942 -0.244 193 172 173
-1969.6907 5385.7256 -122.1481 -0.457 -0.501 -0.735 222 201 202
-4302.5239 2611.1223 1480.1570 0.816 -0.218 0.535 30 24 14
-4277.6167 2606.3801 1470.0426 0.591 -0.652 0.475 35 29 18
-4148.9434 2568.2761 1420.6014 0.437 -0.649 -0.622 31 28 20
-4127.5205 2565.1636 1411.7024 0.766 -0.403 -0.501 30 29 23
-4046.4285 2873.1558 1311.9392 -0.467 -0.756 -0.459 10 20 27
-3734.5273 2711.0984 1206.4965 -0.198 -0.769 -0.608 81 82 91
-3722.3423 2712.4875 1200.7819 -0.198 -0.769 -0.608 70 63 65
-3647.7600 2667.7129 1176.8129 0.863 0.224 -0.453 62 45 38
-3662.0166 2688.4666 1178.8746 0.765 0.382 -0.518 68 39 23
-3586.1047 2672.4229 1148.3766 0.647 0.371 -0.666 85 42 18
-3576.6624 2675.4224 1143.5508 0.582 0.378 -0.720 75 44 29
-3823.9951 2983.3843 1190.0839 0.732 -0.146 -0.666 118 111 112
-3830.8945 3000.0188 1189.7197 0.528 -0.073 -0.846 120 108 104
-3845.3247 3022.7026 1191.4600 0.572 -0.098 -0.814 132 116 106
-3722.7556 3002.6453 1141.0088 0.873 -0.278 0.401 133 105 86
-2821.5942 2597.6250 823.2978 0.048 -0.406 -0.913 60 34 21
-2801.0330 2587.7888 816.1717 -0.175 -0.943 -0.281 83 52 40
-2751.7654 2615.9873 788.3997 0.984 -0.046 -0.173 155 70 29
-2799.3337 2671.3447 798.1492 0.267 0.255 -0.929 157 71 33
-2815.1094 2705.9265 798.0302 0.003 0.071 -0.997 161 76 37
-2840.6399 2760.2654 798.1738 0.368 -0.155 -0.917 165 81 36
-2840.2791 2769.8030 796.0423 0.194 -0.654 -0.732 168 80 38
-2522.5015 2820.6675 643.9846 0.438 -0.899 -0.021 156 83 40
-2425.8628 2740.0347 617.6007 0.214 -0.738 0.640 131 58 15
-2419.0044 2741.8169 614.1774 0.220 -0.741 0.634 127 55 12
-2409.1543 2740.1287 610.1389 0.067 -0.807 0.587 138 65 22
-2245.8811 2875.1433 509.5133 0.426 -0.637 0.642 61 33 5
-2240.0039 2877.5698 506.3940 0.555 -0.604 0.572 52 28 5
-2237.6089 2884.5266 503.8898 0.551 -0.614 0.566 53 33 11
-2226.8467 2880.5283 499.9221 0.551 -0.659 0.512 51 35 12
-2263.9075 3033.3745 484.8464 0.160 -0.318 -0.934 28 18 13
-2250.9844 3026.4023 480.5308 0.268 0.062 -0.962 28 10 1
-2261.9075 3105.7888 468.9922 0.757 -0.547 0.359 163 91 58
-2258.4229 3256.7188 436.2524 0.655 0.192 -0.731 176 110 81
-2292.8279 3341.9072 433.9743 0.578 0.200 -0.791 52 19 4
-2186.6199 3393.0813 376.0919 0.283 -0.842 0.459 15 21 15
-2252.5371 3508.9919 381.5019 0.527 -0.388 -0.756 15 18 15
-2312.9868 5555.9609 -14.5505 0.112 -0.305 -0.946 121 90 69
-2310.5918 5614.1519 -27.6417 -0.001 -0.437 -0.899 119 89 65
-2209.6138 5449.2759 -38.5508 0.757 -0.549 -0.355 138 116 95
-2057.9451 5230.4805 -60.8972 0.379 0.058 -0.924 165 135 127
-2092.2024 5339.2559 -68.1150 0.385 0.067 -0.920 170 141 130
-2073.2542 5523.2085 -114.5665 -0.109 -0.941 0.322 185 148 143
-2036.1340 5444.6533 -114.8685 -0.135 -0.949 0.286 183 149 145
-2023.1071 5452.3735 -122.2663 0.074 -0.928 0.364 182 156 155
-2009.8185 5437.6533 -125.1437 -0.063 -0.923 0.380 182 158 157
-1996.7638 5423.4028 -128.0140 0.062 -0.932 0.356 201 176 176
-1984.3396 5410.7227 -130.9279 -0.029 -0.920 0.391 220 198 196
-4155.5146 2538.0662 1419.5800 0.836 -0.235 0.496 31 29 21
-4081.9973 2894.5652 1312.8400 -0.467 -0.756 -0.459 15 18 15
-4030.6382 2868.7773 1295.4109 -0.470 -0.875 -0.114 15 18 15
-3735.3979 2718.2166 1195.7008 -0.317 -0.804 -0.503 50 32 25
-3650.7004 2666.0698 1168.9580 0.853 0.206 -0.478 62 39 26
-3660.0469 2683.1587 1169.5526 0.781 0.368 -0.504 68 39 21
-3592.0398 2673.0396 1141.4784 0.653 0.368 -0.662 81 42 19
-3590.9268 2682.3352 1139.0519 0.700 0.301 -0.648 72 44 32
-3593.2639 2704.4624 1135.4886 -0.279 -0.960 0.017 77 84 99
-3826.0356 2969.4912 1183.6804 0.968 -0.213 -0.135 111 108 109
-3725.8418 2978.5073 1137.3452 0.879 -0.413 0.238 134 106 85
-3725.5454 3000.4607 1132.6495 0.843 -0.256 0.472 133 107 84
-2855.4685 2504.2358 849.7216 0.271 -0.749 0.604 143 108 89
-2708.9919 2561.5073 772.8162 0.907 0.348 -0.236 164 68 29
-2526.9712 2820.8914 638.1185 0.493 -0.861 0.121 153 81 41
-2419.1160 2727.6133 609.6506 0.398 -0.724 0.563 129 59 18
-2236.8628 2878.2588 497.4568 0.508 -0.703 0.498 53 31 5
-2237.0920 2888.6370 495.4009 0.542 -0.648 0.535 52 36 10
-2203.5400 3029.4583 451.2352 0.701 -0.713 0.022 173 94 59
-2244.1543 3207.0667 432.3326 0.504 0.146 -0.851 195 107 73
-2289.9807 3354.5989 421.9955 0.411 -0.779 0.474 9 7 5
-2277.6262 3347.9861 417.8882 0.583 -0.757 0.294 8 7 5
-2301.0291 5491.5103 -17.3704 -0.074 -0.200 -0.977 121 91 67
-2301.2271 5512.9355 -21.7370 -0.074 -0.200 -0.977 121 91 67
-2029.9225 5455.4663 -130.1796 0.077 -0.933 0.351 168 139 138
-2017.6321 5443.5439 -133.1547 -0.069 -0.922 0.381 179 153 154
-2005.8440 5432.8472 -136.1618 -0.063 -0.923 0.380 210 184 183
-4137.0957 2918.6523 1321.6603 -0.369 -0.526 -0.766 16 18 13
-3659.3730 2658.5159 1164.8854 0.065 -0.992 -0.106 50 31 23
-3658.2053 2677.9604 1160.3021 0.752 0.362 -0.551 69 40 22
-3614.7649 2706.6550 1135.0966 -0.322 -0.945 -0.050 61 47 44
-3686.3784 2792.2576 1148.8495 0.383 0.442 -0.811 129 158 192
-3842.7131 2933.8887 1188.3359 0.777 -0.574 -0.258 82 99 118
-3829.1484 2967.5930 1175.2897 0.970 -0.197 -0.141 119 111 109
-3831.5581 2980.6035 1173.6335 0.970 -0.194 -0.148 122 111 106
-2571.3096 2856.0435 642.5703 0.935 0.130 -0.331 151 82 41
-2507.0781 2793.6235 627.2316 0.308 -0.949 0.072 151 82 41
-2419.6860 2723.5784 603.2493 0.247 -0.840 0.484 128 59 18
-2412.2739 2724.6809 599.7421 0.316 -0.740 0.594 121 54 12
-2404.3315 2725.1462 596.1337 0.291 -0.755 0.587 127 60 18
-2325.6389 2672.0413 572.4538 0.335 -0.664 0.668 162 96 53
-2235.0261 2880.6372 488.7656 0.920 -0.301 0.251 52 35 8
-2235.6777 3155.3625 431.5906 0.511 0.086 -0.855 178 98 48
-2231.6523 3160.6353 428.7082 0.431 0.129 -0.893 189 103 62
-2246.4858 3193.0544 428.4846 0.499 0.163 -0.851 192 105 70
-2269.9111 3249.4128 427.0519 0.474 0.158 -0.866 183 118 89
-2309.7097 3341.9749 425.2849 0.466 0.182 -0.866 45 14 2
-2315.0945 3361.5991 423.5606 0.423 0.086 -0.902 23 4 0
-2279.4290 3344.0972 411.4548 0.583 -0.757 0.294 8 7 5
-2234.7563 3312.3569 398.3454 0.968 0.225 0.108 10 9 7
-2169.2827 4680.9888 83.1308 0.847 0.290 -0.445 163 122 104
-2241.4792 5457.3516 -47.3417 0.904 0.183 -0.387 142 115 94
-2213.5283 5429.9951 -53.9760 0.988 -0.010 -0.152 150 127 109
-2014.8247 5399.1431 -135.3636 0.032 -0.872 0.489 165 136 136
-3737.3523 2691.3208 1182.8505 -0.112 -0.284 -0.952 23 14 12
-3745.4324 2707.5054 1183.0033 -0.127 -0.295 -0.947 39 26 23
-3602.6572 2673.3286 1127.3176 0.650 0.340 -0.679 82 42 18
-3638.3242 2710.3081 1135.2437 -0.308 -0.951 -0.008 74 44 27
-3628.8379 2713.3938 1130.4166 -0.326 -0.943 -0.062 65 47 39
-3707.6199 2804.4556 1145.9500 0.439 0.393 -0.808 136 155 180
-3851.6851 2936.5452 1181.6002 0.391 -0.913 0.117 70 80 92
-3782.7610 2948.9631 1148.6334 0.738 -0.516 -0.435 129 110 97
-3737.0276 2934.7571 1131.4821 0.778 -0.553 -0.299 136 108 88
-2884.7314 2559.3662 835.1281 -0.240 -0.899 0.366 141 105 93
-2561.3945 2820.1562 637.8552 0.317 -0.947 -0.049 159 83 39
-2541.0125 2827.0842 627.4213 0.901 -0.261 -0.347 151 82 41
-2409.9336 2707.8066 594.7941 0.979 -0.174 -0.106 128 61 19
-2407.2275 2714.2363 592.2493 0.986 -0.162 -0.028 121 54 12
-2402.9321 2718.8538 589.3860 0.255 -0.827 0.502 128 61 19
-2312.9607 2652.6760 563.6888 -0.118 -0.833 0.541 160 95 54
-2288.2705 2633.1902 556.9156 -0.157 -0.825 0.543 160 95 53
-2192.0750 2684.8799 503.6748 0.905 -0.317 0.283 170 101 52
-2265.7805 2835.1909 504.5048 0.943 0.324 0.081 173 102 51
-2222.8052 2869.4214 478.3757 0.502 -0.712 0.491 55 33 14
-2242.3354 3082.5710 442.1244 0.823 -0.542 0.169 177 95 49
-2247.9473 3166.8142 426.8688 0.433 0.063 -0.899 182 103 56
-2253.8967 3186.4082 425.3659 0.433 0.063 -0.899 199 120 83
-2258.7122 3204.4719 423.6855 0.390 0.122 -0.913 186 112 80
-2270.4312 3232.5769 422.9324 0.397 0.140 -0.907 160 97 66
-2311.1948 3326.0129 421.2230 0.490 0.136 -0.861 41 10 2
-2226.4846 3532.7288 340.4186 0.319 -0.773 0.549 83 70 62
-2236.9939 5431.9395 -54.5978 0.911 0.194 -0.364 147 120 99
-1999.0515 5362.3979 -144.7527 -0.085 -0.913 0.399 173 147 148
-3796.0554 2719.7712 1192.9550 0.942 0.103 -0.320 17 15 13
-3782.0322 2719.9766 1186.7592 0.909 0.231 -0.346 24 15 13
-3785.8003 2733.1106 1185.6321 0.909 0.231 -0.346 35 22 19
-3847.3174 2809.8530 1196.3757 0.957 -0.232 0.172 67 38 19
-3630.7937 2710.9697 1122.3141 -0.232 -0.970 0.071 65 44 34
-3858.1448 2937.2627 1174.1553 0.080 -0.903 0.421 42 47 55
-3844.5903 2937.8369 1168.0870 0.082 -0.903 0.422 22 22 24
-3828.5913 2936.4695 1161.3573 0.092 -0.967 0.238 54 47 44
-3805.0911 2951.1829 1147.9327 0.793 -0.566 -0.225 128 105 92
-3717.7109 2915.1604 1117.2224 0.708 -0.706 0.036 134 105 84
-2806.4771 2485.2505 808.4495 -0.025 -0.841 0.540 136 103 88
-2875.5815 2603.0923 813.8218 0.358 -0.614 0.704 144 111 91
-2564.7805 2819.1455 631.7311 0.305 -0.949 -0.074 155 79 34
-2543.8660 2825.4788 621.2148 0.901 -0.261 -0.347 137 68 27
-2512.2854 2799.7727 612.8013 0.963 -0.201 -0.177 134 65 24
-2408.6077 2701.6646 588.0836 0.998 -0.058 -0.008 122 53 12
-2407.0815 2709.4163 585.7731 0.998 -0.064 -0.008 116 49 7
-2402.0569 2713.1829 582.7714 0.310 -0.772 0.555 115 48 7
-2172.9482 2565.1707 513.5883 0.111 -0.168 -0.980 162 94 45
-2185.7642 2589.5537 514.0494 0.817 0.053 -0.574 161 93 45
-2182.7715 2604.0999 509.6572 0.372 0.091 -0.924 162 94 45
-2192.6572 2625.2178 509.5240 0.974 0.184 0.133 161 93 44
-2199.8269 2718.0046 493.0278 0.271 -0.945 0.184 164 96 47
-2229.5837 2873.0166 473.2691 0.862 -0.358 0.359 60 30 13
-2320.1135 3043.8003 476.8341 0.857 -0.232 0.460 94 72 56
-2318.2739 3051.9712 474.2974 0.859 -0.229 0.458 108 86 70
-2282.8457 3122.1458 443.8993 0.960 -0.259 -0.109 170 94 46
-2237.9629 3070.6655 435.1059 0.826 -0.528 0.197 169 89 41
-2229.9282 3091.6641 427.1358 0.609 0.206 -0.766 185 103 53
-2250.4722 3153.3298 423.0952 0.398 -0.024 -0.917 201 116 68
-2255.8540 3172.0100 421.5020 0.397 0.091 -0.913 204 125 82
-2263.8896 3194.5754 420.2505 0.397 0.091 -0.913 184 115 79
-2275.5889 3222.5142 419.4691 0.383 0.120 -0.916 149 88 59
-2313.1985 3310.9150 417.2561 0.446 0.139 -0.884 27 4 0
-2324.4316 3338.8215 416.2769 0.480 0.129 -0.868 19 6 1
-2211.1479 3500.9365 332.2595 0.156 -0.821 -0.549 41 34 23
-2097.9167 4486.5649 73.9393 0.354 -0.772 -0.528 175 134 116
-1592.0079 3599.8945 39.6810 -0.143 -0.200 -0.969 145 109 83
-2263.1157 5502.5205 -68.6471 0.848 0.272 -0.454 153 128 106
-2065.3848 5505.1191 -155.9461 -0.003 -0.865 0.501 186 157 155
-2058.8801 5509.2075 -159.6653 0.052 -0.839 0.542 188 163 163
-1994.9564 5357.2803 -155.5493 -0.126 -0.907 0.401 194 170 168
-1975.2579 5324.7207 -157.2990 -0.087 -0.897 0.433 204 178 177
-3440.3049 1977.8269 1185.7207 0.994 -0.071 0.082 53 49 37
-3781.4978 2705.4041 1179.9088 0.745 0.028 -0.667 21 19 17
-3760.2417 2700.3147 1171.7025 0.950 0.110 -0.291 29 20 18
-3773.0005 2719.9141 1173.1052 0.938 0.235 -0.254 39 26 22
-3614.1648 2634.0798 1121.9633 0.110 -0.988 -0.107 66 37 18
-3631.1633 2686.9966 1118.1244 0.569 0.357 -0.741 76 39 20
-3618.8616 2687.9277 1112.5496 0.719 0.209 -0.663 72 41 24
-3630.9741 2707.2148 1113.7363 -0.025 -0.977 0.214 66 42 30
-3858.1479 2933.0210 1164.9399 0.082 -0.901 0.426 29 29 33
-3791.3145 2925.1711 1137.4016 0.073 -0.892 0.446 131 109 95
-3704.8247 2900.7070 1104.8104 0.960 0.264 -0.089 140 111 90
-3704.3096 2943.7073 1095.4287 0.919 -0.323 -0.227 149 122 101
-2849.8523 2575.5137 800.3889 0.431 -0.552 0.714 151 107 93
-2842.6658 2578.2180 796.6721 0.373 -0.553 0.745 151 106 93
-2572.2703 2822.6975 626.4349 0.308 -0.946 -0.104 153 78 32
-2553.8596 2821.9797 618.5413 0.813 -0.532 -0.236 141 69 29
-2540.3467 2816.7246 613.7545 0.906 -0.271 -0.326 135 63 23
-2521.4258 2805.3027 607.9172 0.954 -0.243 -0.176 131 59 19
-2410.8245 2699.5630 582.0949 0.996 -0.092 0.013 120 51 10
-2407.4080 2705.1506 579.4119 0.998 -0.064 -0.008 113 44 3
-2402.0823 2708.5603 576.3582 0.310 -0.772 0.555 113 44 3
-2210.2969 2578.1426 520.3091 -0.173 -0.351 -0.920 162 95 49
-2203.1729 2578.7144 517.0737 -0.148 -0.332 -0.932 162 95 49
-2229.3706 2867.4861 467.0321 0.955 0.034 0.295 70 34 15
-2255.0454 2911.0701 468.9725 0.811 -0.442 0.384 72 39 22
-2320.6072 3007.2722 477.1410 0.022 -0.885 0.465 85 53 35
-2279.8696 3069.1104 446.1686 0.964 0.147 0.221 141 74 40
-2279.4978 3079.3049 443.8353 0.965 0.145 0.220 159 93 51
-2279.3958 3111.4954 436.9359 0.789 -0.523 0.321 168 96 42
-2260.0723 3160.9121 417.9677 0.201 0.041 -0.979 192 109 58
-2273.9363 3191.6489 417.4818 0.191 0.047 -0.981 184 109 63
-2283.5776 3216.5398 416.3953 0.215 0.076 -0.974 135 74 37
-2324.6079 3309.4758 414.5378 0.328 -0.007 -0.945 29 4 0
-2326.7944 3324.1929 412.3596 0.447 0.143 -0.883 15 6 1
-2326.8369 3335.8623 409.8932 0.630 0.103 -0.769 7 8 0
-2343.9297 3372.4041 409.5824 0.501 0.037 -0.865 5 10 0
-2219.8203 3507.6809 326.5340 0.248 -0.791 0.560 28 26 13
-2211.6035 3531.5315 317.8639 0.314 -0.707 0.633 166 146 139
-2077.8723 4448.7690 64.0982 0.962 -0.124 -0.243 172 131 111
-2220.9661 5343.9292 -63.9790 0.997 -0.057 -0.058 145 117 95
-2208.7036 5521.1440 -107.0748 0.983 -0.012 -0.186 154 124 114
-2202.8542 5527.5859 -111.0030 0.864 0.188 -0.467 160 130 122
-2017.7146 5382.6636 -161.0589 -0.181 -0.949 0.259 183 157 156
-1977.5181 5315.8457 -164.3986 -0.089 -0.898 0.432 198 172 171
-3789.2593 2727.8928 1168.7886 0.917 0.346 -0.198 39 26 20
-3641.5127 2701.0620 1110.2085 0.079 -0.942 0.326 73 40 23
-3858.0005 2928.6763 1155.7107 0.082 -0.901 0.426 19 10 10
-3841.0510 2926.6238 1148.7708 0.082 -0.902 0.423 43 31 27
-3719.8694 2897.5544 1102.2362 0.549 -0.792 0.267 138 97 71
-3687.7361 2882.9766 1091.3683 0.925 0.266 -0.270 140 108 86
-3680.6572 2888.1018 1087.1885 0.803 0.385 -0.455 144 115 93
-2838.6169 2561.2595 790.5824 0.342 -0.650 0.679 157 104 91
-2579.0974 2825.5029 620.9909 0.403 -0.910 -0.100 153 78 32
-2558.4265 2822.2996 612.6772 0.782 -0.563 -0.266 139 70 29
-2527.7468 2807.6433 602.4589 0.945 -0.274 -0.178 131 59 19
-2502.5913 2789.1042 595.4775 0.976 -0.215 0.019 128 56 16
-2399.5415 2701.0271 569.4766 0.208 -0.805 0.556 110 42 2
-2339.6089 2660.4595 552.0721 -0.083 -0.833 0.548 132 66 23
-2298.9170 2631.9102 540.4705 -0.148 -0.836 0.529 151 85 43
-2218.4961 2592.3745 513.9244 -0.150 -0.345 -0.926 154 85 37
-2217.1433 2599.8340 511.7377 -0.068 -0.211 -0.975 155 86 38
-2227.8457 2630.8618 509.7513 0.050 -0.188 -0.981 156 86 39
-2226.3442 2858.3152 460.3781 0.956 0.037 0.292 77 38 25
-2244.9729 2892.5979 461.1456 0.491 -0.781 0.386 79 44 33
-2251.3748 2972.4570 446.8275 0.791 -0.070 -0.608 84 49 25
-2251.4187 2993.2654 442.3896 0.772 0.045 -0.634 115 56 32
-2256.2273 3010.1934 440.8573 0.795 0.118 -0.595 132 61 31
-2259.0229 3024.4727 439.0159 0.773 0.109 -0.625 141 66 35
-2258.6694 3034.5293 436.7078 0.813 0.119 -0.570 147 73 36
-2255.8213 3041.2131 434.0362 0.837 0.066 -0.543 162 92 46
-2258.7542 3055.8291 432.1824 0.839 0.182 -0.513 167 98 44
