ply
format ascii 1.0
element vertex 788
property float x
property float y
property float z
property float nx
property float ny
property float nz
property uchar diffuse_red
property uchar diffuse_green
property uchar diffuse_blue
end_header
-4034.6995 6018.0566 2423.1716 0.042 -0.995 0.086 70 41 26
-4023.8699 6023.9912 2413.7747 0.101 -0.937 -0.333 71 42 26
-3979.6516 5977.9321 2384.7881 0.426 -0.634 -0.646 71 42 24
-3972.7373 5989.7847 2377.7119 0.426 -0.634 -0.646 71 42 24
-3995.6204 6048.4136 2388.0679 0.735 -0.376 -0.565 92 63 45
-4001.1311 6080.0762 2388.2200 -0.155 -0.666 0.729 126 97 79
-3846.6155 6111.6973 2261.2239 0.328 -0.431 -0.841 113 74 41
-3819.3875 6090.4282 2242.4282 0.368 -0.454 -0.811 120 79 47
-3792.2810 6069.1514 2223.7302 0.360 -0.446 -0.819 126 85 53
-3763.3354 6044.6035 2204.0076 0.078 -0.609 -0.790 141 100 68
-3705.8049 6162.4727 2142.5605 0.746 -0.100 -0.658 130 87 55
-3456.7927 5895.6460 1980.3191 0.704 -0.643 -0.301 141 96 63
-3540.6172 6318.5444 1990.4714 0.865 -0.400 0.304 116 75 43
-3477.9641 6279.4468 1945.9076 0.157 -0.763 -0.627 121 82 51
-3459.7732 6271.1558 1932.5602 0.170 -0.761 -0.626 121 82 51
-3454.7996 6287.6465 1926.4071 0.037 -0.844 -0.536 121 82 51
-3463.7141 6544.5908 1899.1908 -0.262 -0.500 -0.826 132 93 64
-2864.4019 5631.9448 1544.8185 0.104 -0.329 -0.939 33 18 9
-2904.9141 5739.4351 1562.6597 0.198 -0.389 -0.900 31 18 10
-2718.3188 5721.6558 1416.7681 0.108 -0.924 0.368 27 17 15
-2667.6384 5635.9961 1387.9332 0.882 -0.272 -0.385 27 17 15
-2065.7112 6068.1313 851.9678 0.488 -0.488 0.723 47 40 34
-1982.0156 5877.0273 810.9755 -0.189 -0.700 -0.689 65 44 28
-1567.2404 6151.5796 444.7530 0.961 0.033 0.276 235 198 190
-4187.4976 4915.7510 2674.3464 0.084 -0.943 -0.323 231 227 226
-4248.1826 5042.5806 2705.2654 -0.059 -0.734 -0.676 221 201 188
-4233.5327 5042.0234 2693.7214 -0.069 -0.717 -0.694 169 145 126
-4224.7944 5048.7900 2685.8723 -0.069 -0.717 -0.694 138 115 99
-3887.1008 5541.9585 2351.0908 0.265 -0.838 -0.477 76 50 37
-3878.2117 5549.3608 2343.0356 0.265 -0.838 -0.477 77 51 38
-4044.0454 6016.6221 2411.1494 0.042 -0.995 0.086 68 39 24
-4006.5786 6003.9316 2383.1543 0.636 -0.720 0.277 71 42 24
-3972.1453 5972.9722 2360.0452 0.434 -0.631 -0.643 71 42 24
-3983.5754 6013.4897 2363.6118 0.127 -0.991 0.048 99 70 52
-3883.4260 5969.2046 2290.1877 0.058 -0.980 0.192 137 102 72
-3855.3518 5947.1396 2270.9153 0.896 -0.367 -0.249 130 95 63
-3894.2458 6032.3662 2290.1970 0.898 -0.402 -0.178 126 91 59
-3536.4907 6019.2036 2008.2256 0.638 -0.743 -0.203 142 97 64
-3655.3311 6278.8462 2067.2451 0.929 -0.206 0.308 141 96 63
-3454.4597 6242.3438 1912.8760 0.464 -0.842 -0.276 121 82 51
-3445.0415 6250.3438 1904.3199 0.464 -0.842 -0.276 135 96 65
-3516.4001 6463.7832 1931.9498 0.881 -0.471 -0.056 135 96 65
-3563.8435 6608.4326 1949.9475 0.857 -0.444 0.261 118 79 50
-3552.7822 6669.9097 1932.8300 0.804 -0.549 0.227 126 87 58
-3043.9636 6272.1230 1583.2441 -0.362 -0.814 0.455 28 19 14
-2272.0291 6491.1714 941.2444 -0.414 -0.903 -0.112 26 19 13
-2087.1724 6207.5825 833.1132 0.287 -0.769 -0.571 72 51 30
-2088.8420 6281.4805 824.4078 -0.203 -0.844 -0.496 93 57 41
-1993.9899 6224.9756 756.8438 -0.157 -0.744 -0.650 97 56 49
-1881.2126 5961.0620 703.2130 -0.430 -0.892 -0.140 78 58 44
-1848.9218 6097.9038 659.0281 -0.324 -0.823 -0.466 70 57 51
-1823.8011 6306.5005 610.7914 -0.689 -0.718 0.101 22 13 8
-1567.9670 6120.3818 433.1345 0.964 0.048 0.260 234 197 189
-4246.2617 4840.3896 2713.9094 0.237 -0.409 -0.881 218 219 214
-4231.5488 4873.1431 2697.7422 0.530 -0.619 -0.580 34 33 29
-4225.9912 4883.3403 2691.9353 0.530 -0.619 -0.580 29 25 24
-4263.5942 5050.0508 2698.7080 0.057 -0.725 -0.687 231 211 198
-4255.5493 5057.7212 2691.2805 0.057 -0.725 -0.687 184 160 141
-4249.5098 5067.8965 2685.0950 0.054 -0.723 -0.688 144 121 105
-4158.8149 4989.9102 2624.0466 0.430 -0.821 -0.376 131 108 92
-4004.9136 5985.5044 2364.8457 0.634 -0.711 0.303 67 38 20
-3976.5100 5963.9502 2345.3308 0.492 -0.602 -0.629 72 43 25
-3883.3606 5953.0645 2273.0818 -0.004 -0.998 0.059 141 106 76
-3865.5994 5947.4673 2259.7915 0.661 -0.227 -0.715 146 111 79
-3883.6128 5999.0596 2266.9360 0.698 -0.279 -0.659 153 118 86
-3943.2024 6141.2549 2294.4988 0.079 -0.590 0.803 139 104 74
-3893.2993 6084.0444 2262.8811 -0.046 -0.612 0.789 139 104 74
-3877.7495 6082.1821 2250.8264 -0.169 -0.651 0.740 139 104 72
-3748.7668 6201.2285 2132.2815 0.814 -0.296 -0.500 120 77 45
-3486.9014 5914.6118 1964.4917 0.546 -0.768 0.335 154 109 76
-3479.8481 6374.8994 1895.4069 0.745 -0.656 0.117 135 96 65
-3450.2646 6344.9741 1876.1129 0.793 -0.608 -0.023 129 90 61
-2800.6160 5466.3076 1482.9752 0.858 -0.349 0.377 35 20 11
-2289.6350 6515.4443 933.6713 -0.193 -0.981 -0.015 37 30 24
-4003.0720 3302.9050 2719.9927 0.513 -0.755 -0.408 208 204 195
-4261.2461 4847.3433 2707.5251 0.235 -0.411 -0.881 217 218 213
-4257.1831 4859.2437 2702.6458 0.240 -0.412 -0.879 159 160 155
-4241.4668 4907.8989 2683.4038 0.364 -0.677 -0.639 61 57 56
-4277.8174 5056.0215 2691.3679 0.177 -0.786 -0.592 231 211 198
-4268.3530 5061.9536 2683.0562 0.176 -0.794 -0.581 185 161 142
-4260.4570 5069.8320 2675.7112 0.083 -0.840 -0.536 144 121 105
-4189.8535 4999.6543 2629.7493 -0.187 -0.979 0.081 130 108 94
-4182.9531 5008.5396 2623.0503 0.423 -0.834 -0.354 131 108 92
-3951.5430 5954.2495 2307.5828 -0.258 -0.675 0.691 124 95 77
-3800.8430 5806.3003 2209.2205 0.777 -0.628 0.048 136 101 72
-3893.9961 5999.4844 2255.7603 0.698 -0.279 -0.659 147 112 80
-3845.6726 6060.0601 2209.0769 0.912 -0.155 0.379 150 111 78
-3691.4805 6014.7827 2093.5613 0.899 -0.166 -0.406 134 91 59
-3812.7644 6243.9624 2157.2878 0.764 -0.645 -0.026 129 86 54
-3819.3079 6279.5820 2157.4658 0.750 -0.658 -0.069 122 79 47
-3790.0884 6254.3345 2137.9121 0.788 -0.337 -0.516 123 80 48
-3637.3601 6137.1484 2033.6342 0.773 -0.590 0.232 138 93 60
-3496.2607 6386.6304 1887.1447 0.745 -0.653 0.136 136 97 66
-3451.4807 6328.0264 1859.9690 0.484 -0.874 0.043 130 91 62
-3448.1892 6347.9365 1854.5764 0.500 -0.865 0.032 125 86 57
-3437.4854 6353.7773 1845.2982 0.500 -0.865 0.032 118 79 50
-2067.4824 5994.6406 812.8881 0.315 -0.544 0.777 29 22 14
-1968.9534 6122.3164 717.1190 -0.400 -0.873 -0.279 67 35 26
-1856.4963 6065.3774 636.2228 -0.258 -0.775 -0.576 68 55 49
-1835.6586 6065.4619 619.7422 -0.590 -0.605 -0.534 43 32 26
-1852.4980 6159.4434 619.8760 -0.478 -0.645 -0.596 33 22 16
-1584.9041 5887.2773 446.5422 0.936 -0.079 0.343 227 188 183
-4270.8188 4847.8481 2697.7393 0.240 -0.408 -0.881 219 220 215
-4267.1055 4860.1543 2693.0569 0.240 -0.408 -0.881 181 182 177
-4234.7373 4905.6440 2661.0427 0.486 -0.586 -0.648 186 182 181
-4291.7622 5061.6216 2683.8176 0.178 -0.795 -0.580 231 211 198
-4280.6274 5065.5132 2674.4788 0.176 -0.794 -0.581 184 160 141
-4273.1362 5073.9023 2667.3743 0.083 -0.840 -0.536 144 121 105
-4200.0332 5000.8022 2620.1121 -0.187 -0.979 0.081 130 108 94
-4198.1318 5015.9165 2616.4595 0.405 -0.848 -0.341 131 108 92
-3803.6721 5795.2354 2194.2773 0.775 -0.630 0.044 129 94 65
-3915.1255 6063.0684 2244.0618 0.105 -0.583 0.806 151 116 88
-3857.7415 6063.1895 2198.7732 0.907 -0.201 0.369 154 115 82
-3685.4565 6178.9468 2046.3690 0.145 -0.693 0.706 132 87 54
-3614.4355 6128.1011 1997.5803 0.916 -0.292 0.274 146 101 68
-3489.7756 6355.1416 1866.9000 0.457 -0.791 -0.407 138 99 68
-3465.8926 6336.1396 1850.7644 0.595 -0.802 -0.043 128 91 62
-3458.7551 6375.0015 1839.5991 0.618 -0.782 -0.076 118 79 50
-3518.1301 6651.9346 1847.0020 -0.688 -0.423 -0.590 87 60 38
-2919.3767 5695.4648 1510.8485 0.909 -0.250 0.334 33 20 12
-3029.3191 6046.7710 1547.5535 0.115 -0.935 -0.336 26 15 9
-3022.7869 6085.6821 1536.8585 0.865 0.082 -0.496 40 31 26
-1874.2853 6096.5996 629.2291 -0.235 -0.791 -0.566 62 49 43
-1879.7277 6186.8213 620.6738 -0.599 -0.581 -0.551 36 25 19
-1686.1587 5831.7808 518.5263 0.117 -0.945 -0.304 18 9 4
-1517.1395 5855.6377 381.7863 0.930 0.003 0.367 229 192 186
-4283.2134 4851.6870 2689.6865 0.251 -0.403 -0.880 224 225 220
-4260.1851 4908.2861 2663.3652 0.475 -0.592 -0.651 54 50 49
-4304.7236 5065.9883 2675.6301 0.086 -0.832 -0.549 232 212 199
-4292.3071 5068.3223 2665.5142 0.101 -0.810 -0.578 190 166 148
-4285.1250 5077.0986 2658.5889 0.087 -0.836 -0.542 144 122 106
-4237.8789 5036.2354 2627.2927 0.330 -0.257 -0.908 131 109 95
-4236.0444 5051.5327 2623.6353 0.330 -0.257 -0.908 131 108 92
-4137.1572 5461.5879 2486.4517 -0.366 -0.551 -0.750 123 92 71
-4000.6609 5528.9951 2369.2100 0.786 -0.363 -0.501 98 68 50
-3954.6875 5927.6885 2275.3396 -0.052 -0.965 0.257 104 76 58
-3947.9788 5939.6064 2268.3328 -0.197 -0.824 0.531 103 75 56
-3786.8025 5753.1587 2168.3723 0.629 -0.777 0.032 125 90 62
-3803.8206 5801.9771 2174.7134 0.635 -0.773 0.013 130 95 65
-3839.8972 5881.3853 2191.6384 0.931 -0.366 -0.003 136 101 72
-3825.1904 5880.3579 2180.2053 0.171 -0.651 0.739 137 102 74
-3710.4885 6180.3228 2046.4906 0.155 -0.785 0.600 127 82 49
-3692.6396 6173.8242 2033.3744 0.155 -0.785 0.600 133 88 55
-3665.2458 6150.6357 2015.1554 0.186 -0.806 0.562 137 92 59
-3487.0986 6330.9888 1848.7773 0.467 -0.789 -0.400 137 99 69
-3465.4907 6316.2593 1833.8915 0.716 -0.691 -0.100 126 90 61
-3558.3774 6681.9399 1854.1494 0.803 -0.464 -0.375 93 59 33
-3543.5530 6708.8633 1838.5808 -0.669 -0.730 -0.139 80 56 34
-3080.7893 6267.5938 1537.9747 -0.380 -0.856 0.349 26 17 11
-2994.0610 6219.5537 1476.6240 -0.064 -0.965 0.253 47 38 34
-1959.9280 5970.7285 698.2250 0.941 0.015 0.337 79 42 36
-1991.2130 6350.0811 667.9938 0.586 -0.611 0.533 51 41 35
-1685.6993 5836.3828 501.6992 0.117 -0.952 -0.284 21 11 6
-1672.0873 5822.8086 492.9430 -0.236 -0.951 -0.199 18 6 2
-1567.4891 5832.5845 409.1571 0.693 -0.692 0.202 226 189 187
-1557.3823 5830.8149 401.4539 0.719 -0.676 0.159 224 186 184
-1577.5979 5947.7808 400.4561 0.111 -0.711 0.695 221 183 181
-4024.4683 3313.4207 2694.9321 0.249 -0.351 -0.903 212 209 203
-4035.0796 3333.5913 2700.3115 0.322 -0.909 -0.266 216 213 207
-4297.5498 4857.8003 2682.7969 0.251 -0.403 -0.880 226 226 224
-4228.4648 4875.9697 2625.8208 0.305 -0.375 -0.875 204 200 197
-4225.2451 4888.9551 2621.3828 0.305 -0.375 -0.875 231 227 224
-4206.8550 4883.5972 2607.7134 -0.190 -0.560 -0.806 230 226 223
-4337.6343 5077.1436 2682.0950 0.078 -0.847 -0.526 233 225 218
-4320.8203 5074.1724 2669.3137 0.095 -0.824 -0.559 237 217 205
-4308.3452 5076.4717 2659.1694 0.086 -0.832 -0.549 205 183 167
-4299.1592 5082.8003 2651.0188 0.086 -0.832 -0.549 144 125 111
-4258.0508 5067.2515 2620.9871 0.297 -0.373 -0.879 131 108 93
-3742.3660 5667.9341 2127.3928 0.624 -0.769 -0.138 127 93 66
-3805.7502 5789.5322 2159.3613 0.598 -0.801 0.036 116 80 54
-3829.3723 5871.2373 2165.9316 0.166 -0.648 0.744 132 96 70
-3797.4058 5842.5928 2145.0095 0.172 -0.645 0.745 133 99 72
-3723.7898 6113.3989 2047.3699 0.861 -0.359 0.359 135 92 57
-3698.7761 6142.7046 2023.4030 0.598 -0.639 0.484 142 99 65
-3687.7734 6147.9219 2013.9875 0.921 -0.332 0.204 142 99 65
-3439.4304 6023.6382 1837.0172 0.623 -0.664 0.413 136 94 63
-3490.4988 6318.3579 1833.8802 0.469 -0.768 -0.437 100 66 38
-3465.8235 6297.8730 1817.4913 0.684 -0.720 0.119 87 58 31
-3441.4055 6355.7222 1789.8008 0.968 -0.247 0.048 94 66 37
-3085.7644 6284.8330 1520.6421 -0.365 -0.923 0.117 40 28 18
-3010.6057 6234.4116 1468.9647 -0.099 -0.958 0.267 48 40 30
-2874.7009 6022.1108 1393.3081 0.430 -0.890 0.149 27 20 9
-3146.4001 6641.6138 1515.9119 0.942 -0.284 -0.176 22 16 5
-2586.6572 6107.3589 1154.3579 0.436 -0.027 -0.900 29 26 20
-1950.0112 5978.9561 672.7479 0.891 -0.070 0.448 41 30 24
-2023.2726 6389.6177 670.0297 0.409 -0.629 0.661 40 33 27
-1896.4663 6113.3652 610.9172 -0.458 -0.782 -0.423 17 11 5
-1857.9294 6089.6997 584.0989 -0.648 -0.595 -0.475 19 13 9
-1678.9890 5818.4565 483.2681 -0.143 -0.986 -0.082 23 19 14
-4036.9456 3317.9895 2690.5784 0.246 -0.341 -0.907 212 209 204
-4048.2852 3338.7861 2696.3760 0.360 -0.896 -0.260 216 213 208
-4313.4404 4865.7168 2676.8132 0.337 -0.494 -0.802 225 225 223
-4248.6030 4838.9395 2629.9277 0.906 -0.152 -0.394 135 134 130
-4247.4272 4854.2153 2626.7278 0.906 -0.152 -0.394 62 58 55
-4281.1709 4911.3779 2644.6848 0.245 -0.465 -0.851 35 31 28
-4239.8740 4878.7046 2617.1499 0.762 -0.163 -0.627 203 199 196
-4236.4375 4891.4238 2612.5574 0.431 -0.465 -0.773 230 226 223
-4353.6797 5085.1797 2675.6721 0.085 -0.975 -0.207 233 225 217
-4281.1118 5084.2046 2618.8738 0.336 -0.381 -0.862 131 109 93
-4283.9810 5655.8857 2535.9016 0.222 -0.612 -0.759 121 90 70
-4271.6147 5659.2017 2525.7036 -0.042 -0.581 -0.813 118 87 67
-3836.5757 5866.9536 2153.3611 0.144 -0.655 0.742 134 98 72
-3807.9504 5843.7056 2134.3647 -0.229 -0.944 0.238 134 98 72
-3787.8750 5946.4629 2103.2932 0.845 -0.326 0.424 136 95 63
-3567.9194 5697.3174 1967.8373 0.828 -0.344 0.443 153 110 76
-3730.4724 6083.8462 2037.7693 0.970 -0.072 -0.231 143 100 65
-3478.8884 6028.7598 1848.5653 0.141 -0.947 0.289 137 94 60
-3468.0056 6283.0586 1802.1158 0.602 -0.642 0.474 87 58 32
-3425.5059 6280.2075 1769.1918 0.186 -0.782 0.595 102 75 46
-3397.8513 6253.4375 1751.4822 0.653 -0.757 0.005 99 72 43
-3384.6157 6279.9092 1737.1501 0.911 -0.360 -0.200 94 67 40
-3470.6323 6471.8687 1776.0302 0.943 -0.239 -0.232 91 65 39
-3055.3401 6254.5483 1482.5508 0.484 -0.604 0.633 39 27 15
-2977.1333 6196.4277 1429.8469 0.346 -0.772 0.533 36 30 18
-3150.8582 6629.1138 1501.6644 0.942 -0.280 -0.183 22 16 4
-2581.1172 6100.2910 1133.4276 0.196 -0.751 0.630 43 40 35
-2493.1648 5940.9727 1088.1627 0.115 -0.605 0.788 30 26 23
-2389.4353 5936.9097 1007.3726 0.822 -0.524 -0.222 13 8 12
-2385.3899 5955.5454 1001.4200 0.813 -0.534 -0.233 13 8 12
-1736.4065 5887.9229 502.2487 -0.789 -0.541 -0.290 39 35 32
-1694.6158 5810.1567 481.0489 0.135 -0.985 0.108 69 66 61
-1612.3729 5905.3975 402.3155 0.747 -0.648 0.147 165 143 142
-1602.3406 5904.5122 394.5751 0.327 -0.879 0.346 186 163 163
-1538.9834 5846.7700 353.4673 0.916 -0.155 0.370 196 166 168
-4059.2390 3341.9885 2690.9360 0.276 -0.308 -0.911 216 213 208
-4364.1143 5086.3613 2665.8340 0.085 -0.975 -0.207 233 225 217
-4300.4585 5096.4927 2614.4404 0.299 -0.384 -0.873 131 109 93
-4251.7505 5638.3682 2494.3076 -0.456 -0.478 -0.750 112 81 61
-4009.1140 5499.6655 2325.2378 0.484 -0.536 -0.692 91 64 45
-4067.4575 5603.2334 2355.2688 0.367 0.024 -0.930 83 57 42
-4074.3704 5633.6240 2356.0857 0.366 0.028 -0.930 77 51 36
-3957.0242 5906.7715 2222.8452 -0.084 -0.951 0.297 85 64 45
-3754.1304 6059.5195 2040.8119 0.412 -0.727 -0.549 150 107 72
-3577.3372 6065.5552 1901.4189 0.154 -0.809 0.567 137 94 60
-3615.1384 6255.2852 1902.3239 0.480 -0.669 0.568 137 94 60
-3507.1504 6286.0156 1813.0891 0.949 -0.309 0.057 99 65 37
-3367.1843 6227.3970 1712.3237 0.648 -0.762 0.009 90 63 36
-3392.7117 6302.2935 1720.9879 0.574 -0.797 0.186 82 56 30
-3348.3362 6294.9121 1687.3459 0.764 -0.641 -0.075 76 57 40
-2594.1426 6024.1704 1137.5565 0.259 -0.960 -0.104 43 40 33
-2418.9277 5818.9062 1031.3676 0.114 -0.677 0.727 28 24 23
-2409.0107 5822.0137 1023.1296 0.778 -0.469 -0.417 29 25 24
-2323.5850 5830.1230 954.9899 0.644 -0.628 0.437 19 14 18
-1904.0227 5748.1665 638.7514 0.904 -0.036 0.426 26 18 15
-1996.4045 6315.1143 625.3390 0.352 -0.722 0.596 26 21 15
-1718.2449 5830.1431 480.8318 0.183 -0.956 -0.231 39 35 32
-1702.1338 5808.0830 471.5496 0.135 -0.985 0.108 46 43 38
-1690.8685 5803.0000 463.4948 0.025 -0.993 0.117 72 69 64
-1610.0017 5902.7065 385.0682 0.534 -0.748 0.395 69 51 49
-1602.3870 5911.0391 377.8429 0.383 -0.637 0.669 83 64 62
-4260.6650 4831.6572 2606.2197 0.907 -0.150 -0.394 205 204 200
-4258.4175 4862.2720 2599.7629 0.907 -0.150 -0.394 124 120 117
-4299.0752 4978.8257 2613.6611 0.199 -0.451 -0.870 231 227 223
-4368.9512 5080.7485 2652.6509 0.051 -0.941 -0.333 235 225 218
-4295.8774 5061.6597 2598.4458 0.276 -0.308 -0.911 135 112 99
-4185.1060 4959.8647 2527.4612 0.897 -0.372 -0.238 129 109 92
-4284.1699 5669.1992 2496.0332 0.013 -0.824 -0.566 111 80 60
-3967.6108 5907.6230 2211.9221 -0.150 -0.773 0.616 80 59 40
-3669.8755 5789.4292 1997.2709 0.059 -0.502 0.863 151 110 78
-3684.6643 6138.6953 1955.2208 0.922 -0.386 -0.003 115 72 38
-3649.9370 6102.7280 1933.5891 -0.417 -0.751 -0.512 116 73 39
-3665.3579 6153.6362 1937.8318 -0.425 -0.836 -0.346 122 79 45
-3649.6443 6150.5400 1926.0210 -0.425 -0.836 -0.346 128 85 51
-3436.7239 5990.0898 1784.1715 0.665 -0.442 0.602 111 77 48
-3489.9380 6260.8979 1784.2091 0.687 -0.571 -0.450 94 62 33
-3470.9194 6250.9736 1770.8621 0.689 -0.667 -0.282 86 57 31
-3468.7896 6272.5342 1765.8872 0.801 -0.495 0.335 89 62 35
-3382.1030 6211.3203 1707.5050 0.231 -0.816 0.529 103 76 49
-3353.1770 6207.3047 1685.5045 0.288 -0.791 0.541 77 50 26
-2650.0112 5089.7725 1307.2546 0.767 -0.403 -0.499 30 24 12
-3164.5735 6643.8579 1471.0266 0.698 -0.148 -0.701 22 16 4
-2595.4612 6005.5967 1124.0216 0.528 -0.675 -0.515 29 26 19
-2727.4885 6411.9683 1164.8727 0.325 -0.900 0.291 29 26 21
-2080.0464 6559.0508 636.0707 0.562 -0.805 -0.189 22 17 11
-1708.7528 5802.8506 461.8409 0.061 -0.995 0.085 43 40 35
-1603.8862 5885.7139 367.1277 0.269 -0.736 0.621 29 18 14
-4315.8120 4987.8086 2607.8506 0.191 -0.457 -0.869 233 229 225
-4311.3755 5069.1650 2591.7200 0.276 -0.311 -0.909 134 112 98
-4194.5659 4960.2207 2517.5159 0.900 -0.367 -0.236 128 108 91
-4276.7798 5625.1548 2478.1445 0.319 -0.555 -0.768 116 85 65
-4276.3096 5644.6670 2474.7395 0.271 -0.398 -0.876 110 79 59
-4277.6304 5666.7329 2472.3345 0.363 -0.413 -0.836 103 72 52
-4273.5356 5681.4321 2466.8496 0.363 -0.413 -0.836 98 67 47
-4003.7109 5464.6680 2290.0090 0.384 -0.374 -0.844 85 58 39
-4107.3779 6017.0811 2284.9021 -0.209 -0.785 0.584 57 36 17
-3948.8545 5907.3706 2178.2607 -0.286 -0.957 0.057 94 63 38
-3797.4219 6145.5054 2022.9899 -0.137 -0.589 -0.796 147 104 69
-3690.6250 6131.6357 1941.7966 0.930 -0.366 0.033 131 88 54
-3662.3547 6155.1758 1916.0668 -0.269 -0.913 -0.306 131 88 54
-3650.4980 6158.7915 1906.2498 -0.379 -0.600 -0.705 138 95 61
-3435.3931 5805.8784 1793.3169 0.630 -0.507 0.588 134 91 57
-3481.7209 5934.0562 1809.5160 0.447 -0.872 0.200 122 79 45
-3526.1155 6060.5825 1824.4636 0.752 -0.303 0.585 127 84 50
-3446.6345 5990.4780 1773.3462 0.960 -0.279 0.020 114 80 51
-3479.9236 6074.7939 1786.1990 0.210 -0.783 -0.585 115 81 53
-3478.8867 6097.3804 1781.8727 0.246 -0.810 -0.532 116 82 54
-3491.5254 6296.2393 1760.7723 0.685 -0.434 0.585 83 56 29
-3459.6741 6313.7051 1733.1932 0.903 -0.273 0.331 108 81 54
-3454.4688 6329.7788 1726.6277 0.948 -0.181 0.260 104 77 50
-3455.3525 6383.7441 1718.9144 0.434 -0.570 0.698 89 62 38
-3435.7971 6452.2432 1692.9857 0.904 -0.362 -0.227 72 53 36
-2683.8708 5141.3403 1310.2433 0.701 -0.332 -0.631 27 21 9
-2993.4192 6196.9722 1387.4662 0.349 -0.863 0.365 34 28 16
-3167.2466 6598.5679 1460.6025 0.571 -0.111 -0.814 22 16 4
-2589.9321 5943.0293 1112.0938 0.725 -0.496 -0.478 12 9 2
-2595.8811 6098.2266 1092.5708 0.615 -0.666 0.423 17 13 10
-2460.4854 5850.9839 1025.3953 0.125 -0.611 0.782 17 13 12
-1915.0659 6061.3120 566.9547 -0.568 -0.536 -0.625 17 12 6
-1886.9188 6037.4570 548.7009 -0.327 -0.403 -0.855 42 37 31
-1661.1143 5778.7280 412.7516 0.148 -0.974 0.170 61 58 53
-1627.3094 5869.7734 372.1907 0.392 -0.914 0.101 36 31 25
-1588.3915 5832.8540 347.5648 0.296 -0.711 0.639 33 27 21
-4262.9312 4763.7725 2584.5366 0.526 -0.291 -0.799 225 225 223
-4335.3110 5000.0742 2603.6101 0.094 -0.400 -0.912 232 229 225
-4352.0103 5037.4600 2610.7163 0.233 -0.443 -0.866 234 226 218
-4343.2656 5044.2363 2602.8335 0.264 -0.390 -0.882 241 221 209
-4322.0518 5053.2637 2584.8806 0.463 -0.348 -0.815 156 138 124
-4356.2998 5130.3242 2599.3936 0.284 -0.278 -0.918 130 108 92
-4293.5562 5634.4258 2470.9043 0.313 -0.541 -0.780 116 85 65
-4291.6685 5652.0020 2466.6582 0.271 -0.398 -0.876 109 78 58
-3982.5720 5921.8472 2183.2332 -0.497 -0.753 -0.432 70 49 29
-3859.9763 5908.0898 2089.8936 -0.238 -0.965 0.110 140 103 76
-3650.0066 6092.2788 1897.2231 -0.586 -0.748 -0.313 122 79 45
-3492.0483 6078.9541 1776.2650 0.210 -0.783 -0.585 131 97 69
-3490.4951 6100.5781 1771.6400 0.246 -0.810 -0.532 127 93 65
-3512.9133 6165.8994 1778.7903 0.976 -0.209 -0.056 125 91 63
-3494.9202 6335.1992 1738.0367 0.602 -0.458 0.655 94 67 40
-3457.5359 6368.5762 1703.6405 0.438 -0.565 0.699 94 67 44
-3354.9932 6250.0562 1642.4678 0.811 -0.573 -0.120 76 57 40
-3427.7229 6416.8486 1672.7906 0.883 -0.413 -0.224 77 58 41
-2740.8792 5238.7095 1323.7317 0.215 -0.006 -0.977 27 21 9
-3158.1091 6147.3096 1505.3042 -0.114 -0.990 -0.089 24 18 6
-2965.9192 5808.9390 1409.0071 -0.239 -0.919 -0.313 25 17 6
-2654.2480 6131.1260 1115.3107 0.535 -0.151 -0.831 13 10 3
-2823.4958 6566.8677 1178.3573 0.089 -0.990 -0.105 13 10 3
-2310.5557 5786.1831 902.0186 -0.184 -0.953 -0.241 25 20 23
-1842.9282 6000.5942 503.8390 -0.258 -0.515 -0.818 25 21 18
-1624.0889 5863.9722 354.9201 0.298 -0.708 0.641 38 39 31
-1607.1094 5836.6621 346.0045 0.352 -0.642 0.682 39 39 31
-1422.1444 5479.6836 258.2747 -0.614 -0.761 0.211 29 23 19
-1407.5669 5456.9634 250.5055 -0.610 -0.763 0.212 23 19 15
-4329.9087 4965.3159 2587.4478 0.849 0.103 -0.519 232 228 225
-4356.8496 5049.3125 2594.9500 0.220 -0.314 -0.924 239 221 209
-3863.3633 5108.6567 2201.6709 0.265 -0.522 -0.811 93 65 44
-4147.7017 5702.6289 2327.6892 0.733 -0.218 -0.644 65 39 26
-4013.4958 5931.7817 2186.6274 -0.621 -0.645 -0.445 58 37 18
-3990.1294 5918.0093 2170.6609 -0.611 -0.594 -0.523 64 43 23
-3900.5410 5867.4946 2109.0779 -0.117 -0.906 0.406 120 84 58
-3781.1099 5745.7373 2035.6937 0.717 -0.462 -0.522 138 102 76
-3785.6008 5774.6045 2034.5642 0.589 -0.353 -0.727 146 109 84
-3792.6819 5807.7524 2034.7633 0.754 -0.387 -0.531 147 108 78
-3779.5515 5897.9307 2010.1125 -0.236 -0.773 -0.589 152 111 79
-3750.6172 6080.4727 1958.3820 -0.301 -0.954 -0.010 129 86 51
-3668.0559 6082.3350 1893.8772 0.463 -0.567 0.681 116 73 39
-3653.3672 6080.8804 1882.6869 0.463 -0.567 0.681 118 75 41
-3588.0020 6039.0020 1838.5591 0.932 -0.234 0.277 122 79 45
-3462.1848 5983.5864 1749.5862 0.957 -0.288 0.024 141 106 77
-3497.8813 6071.7710 1763.2267 0.244 -0.774 -0.584 134 100 72
-3505.3894 6109.6885 1762.9943 0.279 -0.796 -0.538 124 90 62
-3502.7776 6203.9629 1745.8678 0.916 -0.306 0.258 113 79 51
-3168.8181 6149.4766 1494.8771 -0.114 -0.990 -0.089 24 18 6
-2982.7930 5925.0527 1386.1431 0.475 -0.816 -0.330 55 43 31
-3002.7852 6149.3496 1365.7762 0.684 -0.529 0.503 34 28 16
-2993.9272 6184.2422 1353.3005 0.383 -0.848 0.366 34 28 16
-3170.9348 6620.6406 1421.0800 0.921 -0.306 -0.242 34 27 17
-2993.7825 6349.2754 1326.7626 -0.745 -0.646 -0.165 26 23 16
-2816.2356 6525.9067 1160.4048 0.033 -0.996 -0.079 13 10 3
-2466.8423 5907.2090 987.7534 0.146 -0.387 -0.910 44 40 39
-2226.6902 6198.5635 754.3389 -0.581 -0.337 -0.740 35 28 20
-2016.6656 5897.7988 639.1648 0.412 -0.534 -0.738 31 21 19
-1882.8611 6036.7837 512.8527 -0.295 -0.678 -0.673 44 40 37
-1877.1827 6052.5654 505.9097 -0.298 -0.690 -0.659 27 23 20
-1846.2173 6018.1050 487.3462 -0.232 -0.553 -0.800 34 30 27
-1686.0149 5845.7373 390.3589 0.507 -0.779 -0.368 47 46 41
-1648.0620 5886.6748 354.2886 -0.040 -0.980 -0.195 54 59 50
-1611.6820 5823.6260 336.0920 0.352 -0.642 0.682 49 54 44
-1602.5840 5825.8066 328.6674 0.297 -0.706 0.643 50 54 45
-4334.9175 4960.2153 2574.7446 0.838 0.107 -0.536 226 222 219
-4374.5850 5059.3711 2589.4429 0.082 -0.284 -0.955 237 223 210
-3871.5693 5107.4956 2191.1460 -0.198 -0.523 -0.829 92 64 43
-4010.9375 5454.0674 2243.0801 0.590 -0.442 -0.676 77 51 36
-4160.8784 5707.2378 2318.3823 0.768 -0.285 -0.574 64 39 26
-3788.7134 5742.4604 2023.7577 0.224 -0.472 -0.853 138 105 79
-3796.7659 5776.8828 2024.4211 0.589 -0.353 -0.727 153 118 94
-3755.6414 5821.2251 1985.2991 0.347 -0.532 0.772 139 99 70
-3770.0879 5911.6802 1981.8309 0.597 -0.503 -0.625 145 105 74
-3861.4260 6083.4067 2024.8608 0.087 -0.701 0.708 147 105 70
-3863.1826 6228.1440 2002.7305 0.618 -0.538 0.573 149 107 72
-3643.2087 5975.8589 1872.9186 0.961 -0.171 0.218 148 106 72
-3672.7930 6073.3735 1880.0558 0.948 -0.142 0.285 126 84 51
-3654.1682 6088.9478 1863.0696 0.592 -0.624 0.510 109 67 34
-3550.8894 5980.8228 1800.4464 0.157 -0.616 0.772 109 67 34
-3483.0557 5908.9048 1759.4617 0.196 -0.611 0.767 112 70 37
-3493.5923 6046.4683 1745.3116 0.478 -0.640 -0.602 123 89 61
-3507.2126 6095.2080 1747.9736 0.353 -0.804 -0.478 108 75 47
-3489.5938 6287.5381 1703.0770 0.590 -0.454 0.668 94 67 40
-2679.0461 5062.0830 1272.7756 0.034 -0.021 -0.999 34 27 14
-2854.4846 5430.8667 1349.1050 -0.133 0.013 -0.991 27 21 9
-3163.7163 6251.0566 1456.0236 0.196 -0.698 -0.689 50 39 27
-2963.0420 5865.5005 1362.8265 0.063 -0.905 -0.421 49 37 26
-2977.8354 6156.3926 1327.0925 0.538 -0.489 0.686 37 32 21
-2972.0413 6170.9155 1320.2373 0.330 -0.594 0.733 37 32 21
-2667.5186 6263.2158 1068.8574 0.626 -0.733 -0.267 17 13 12
-2205.5471 6241.4097 713.7740 -0.327 -0.217 -0.920 37 26 24
-2049.5164 6069.3203 620.5829 0.358 -0.927 0.111 25 17 14
-4071.7554 5312.5459 2295.4641 -0.072 -0.934 -0.350 109 78 60
-3244.0410 4588.9414 1773.1196 0.526 -0.792 0.310 53 32 14
-3900.1648 5836.1104 2076.3635 -0.162 -0.859 0.486 95 70 51
-3803.4321 5750.3638 2015.5128 0.224 -0.472 -0.853 128 102 81
-3820.4973 5798.9409 2020.7446 0.617 -0.331 -0.713 158 131 110
-3820.2234 5820.4165 2016.9993 0.628 -0.337 -0.702 154 121 98
-3811.0273 5827.8467 2008.6509 0.626 -0.331 -0.706 144 109 84
-3776.6545 6114.0234 1934.9342 -0.363 -0.640 0.677 153 115 83
-3694.6296 6165.5640 1862.8942 0.434 -0.878 0.201 102 66 37
-3507.1528 6053.2329 1736.1000 0.483 -0.667 -0.568 113 83 57
-2978.3145 5878.0449 1355.1279 0.067 -0.905 -0.419 51 42 32
-3000.8682 6131.7588 1330.8641 0.386 -0.747 0.542 35 34 24
-2890.8801 5924.5820 1279.7194 0.112 -0.668 0.735 39 38 28
-3090.4790 6517.7871 1336.7941 -0.730 -0.556 -0.398 26 25 21
-2485.6565 5910.2012 968.0800 0.156 -0.948 -0.276 45 41 40
-2475.9275 5914.1851 959.8856 0.156 -0.948 -0.276 55 50 50
-2367.9785 5954.4834 869.6066 -0.052 -0.858 -0.511 24 21 45
-2271.8782 6442.7578 714.8087 -0.252 -0.222 -0.942 44 33 31
-1696.0571 5894.4932 358.8082 0.348 -0.592 0.728 38 38 33
-4376.3096 5073.5015 2553.1125 0.469 -0.355 -0.808 171 162 146
-4374.3857 5088.6167 2549.1045 0.431 -0.382 -0.817 138 122 109
-3128.0269 4405.6909 1698.8965 0.992 -0.097 -0.086 52 31 12
-4179.2974 6025.6855 2241.9812 -0.439 -0.661 -0.608 73 52 33
-3837.0034 5744.4805 2024.0969 0.259 -0.604 -0.753 96 73 55
-3832.5469 5802.5303 2010.9722 0.627 -0.339 -0.701 136 110 90
-3806.2756 5804.8350 1990.2672 0.268 -0.853 -0.448 140 106 81
-3795.4207 5809.5532 1981.0841 0.299 -0.806 -0.510 130 96 69
-3792.2043 5870.7705 1968.3907 -0.094 -0.995 0.016 138 104 79
-3767.7239 5853.6553 1952.3083 0.524 -0.547 -0.653 133 99 72
-3743.9329 5882.1821 1929.1500 0.079 -0.967 -0.244 144 108 76
-3759.9248 6116.2964 1902.4899 0.578 -0.442 0.686 115 79 47
-3522.0547 5966.9937 1743.3877 -0.607 -0.795 0.007 112 77 49
-2999.4814 5902.5454 1349.9208 0.659 -0.534 -0.529 46 37 28
-3246.2581 6433.7188 1452.2491 -0.662 -0.696 -0.279 34 25 16
-2510.7803 5978.5425 959.2397 0.864 -0.496 -0.087 54 49 49
-2468.8770 5902.9580 939.4285 0.767 -0.637 0.070 58 45 47
-2429.7100 5833.4468 920.7212 0.398 -0.904 -0.156 57 42 45
-2424.6289 5848.6240 914.2607 0.354 -0.905 0.237 55 40 43
-2427.7471 5884.5234 910.6877 0.698 -0.559 -0.447 54 38 41
-2386.6384 6068.8433 848.1616 0.866 -0.291 0.406 26 14 43
-1678.3241 5836.6499 338.9889 0.385 -0.912 0.141 38 37 33
-1618.1063 5758.2573 305.4795 0.360 -0.910 -0.208 52 51 47
-3221.0010 2420.0591 2091.6128 0.751 -0.249 -0.612 202 203 198
-4116.1235 3340.5979 2627.2632 0.780 -0.616 -0.112 212 211 206
-4115.3218 3350.7310 2624.9324 0.788 -0.594 -0.163 215 214 209
-4292.8018 4794.8247 2518.0518 0.619 -0.054 -0.784 221 220 216
-4346.3701 4923.9619 2537.6006 0.813 0.102 -0.574 157 156 152
-4386.4424 5074.3618 2543.1375 0.425 -0.354 -0.833 172 162 145
-4386.7783 5092.1968 2540.3845 0.427 -0.356 -0.831 138 122 109
-4379.2744 5100.5908 2533.1726 0.448 -0.384 -0.807 131 107 94
-4304.2856 5026.7954 2487.7375 0.719 -0.557 -0.415 134 105 93
-3129.9385 4380.9829 1690.0922 0.950 -0.302 -0.082 59 38 19
-4192.8877 6052.7915 2228.4299 -0.440 -0.742 -0.506 87 66 47
-4172.1577 6043.9941 2213.9099 -0.457 -0.742 -0.491 84 63 46
-4101.8896 6004.6816 2166.2954 -0.345 -0.882 -0.323 46 25 6
-4107.9541 6036.1909 2165.6558 -0.350 -0.845 -0.405 50 29 10
-3916.6807 5896.9072 2041.4971 -0.282 -0.956 -0.081 86 64 43
-3900.0718 5893.0337 2029.3275 -0.282 -0.956 -0.081 107 84 62
-3868.5920 5910.0298 2002.1509 -0.086 -0.843 0.530 134 100 73
-3816.3235 5893.6816 1964.5551 0.210 -0.651 0.729 124 90 65
-3734.6597 5896.0654 1901.0988 -0.159 -0.968 -0.194 149 110 77
-3824.7874 6066.8027 1941.8490 0.305 -0.921 0.243 150 111 78
-3831.8789 6148.8135 1933.4724 -0.344 -0.634 0.693 150 111 78
-3638.3267 6057.8091 1799.3998 0.888 -0.453 0.082 92 57 29
-3748.2825 6272.0161 1848.1171 0.795 -0.600 0.084 106 71 43
-3669.0020 6256.5806 1789.5109 0.267 -0.719 0.641 104 70 42
-2648.0830 6177.6372 1014.5820 0.659 -0.503 -0.559 33 32 30
-2484.1677 5891.1196 936.4155 0.259 -0.406 -0.876 53 48 47
-2471.6506 5888.1030 927.2603 0.559 -0.789 0.255 58 44 47
-2389.5254 6023.4395 840.9915 0.884 -0.232 0.406 33 9 39
-2421.4917 6549.0469 776.8952 -0.277 -0.260 -0.925 25 15 13
-2120.2493 6139.1479 613.5366 -0.143 -0.915 0.378 48 38 36
-1647.7422 5767.1533 311.5405 0.402 -0.899 -0.171 40 39 35
-1633.6622 5750.9214 303.4109 0.382 -0.901 -0.206 45 44 40
-4135.8188 3351.2695 2627.1411 0.227 -0.487 -0.843 207 206 201
-4125.7012 3353.3711 2618.9836 0.242 -0.501 -0.831 212 211 206
-4399.5850 5061.4946 2537.8220 0.294 -0.388 -0.873 217 213 193
-4398.9272 5078.0479 2534.4829 0.300 -0.388 -0.871 175 166 149
-4401.1509 5098.1504 2532.7573 0.270 -0.399 -0.876 138 122 109
-4394.2056 5107.2373 2525.8496 0.284 -0.372 -0.884 131 107 94
-3559.6755 4909.0498 1916.5676 -0.777 -0.625 0.081 51 30 12
-3136.1929 4378.9780 1680.8722 0.948 -0.301 -0.100 80 59 40
-3131.6895 4388.5625 1675.7615 0.992 -0.097 -0.086 91 70 51
-4157.6602 6028.9985 2185.8308 -0.170 -0.922 -0.347 50 29 11
-4127.3521 6027.7642 2162.6829 -0.343 -0.884 -0.317 45 24 5
-3955.4832 5897.6450 2052.4824 -0.200 -0.976 0.088 74 51 33
-3947.8020 5907.7764 2044.8290 -0.274 -0.959 -0.077 70 47 29
-3921.8350 5889.4551 2027.9503 -0.270 -0.960 -0.078 72 49 31
-3909.0789 5891.6050 2017.7511 -0.276 -0.958 -0.070 88 65 43
-3850.6636 5844.0068 1980.8728 -0.063 -0.981 0.182 131 97 72
-3779.9211 5819.7847 1930.4944 0.417 -0.869 -0.266 112 78 53
-3775.4592 5834.7056 1924.5026 0.418 -0.868 -0.268 134 100 73
-3779.4885 6068.4321 1887.6189 -0.288 -0.636 0.716 129 93 61
-3694.4998 5996.0342 1834.5029 0.590 -0.615 0.523 98 62 30
-3709.7339 6045.0078 1837.8650 0.987 -0.109 -0.122 90 54 22
-3733.9509 6133.2827 1841.4263 0.763 -0.505 -0.403 78 42 10
-3731.9463 6153.7451 1836.3805 0.766 -0.508 -0.395 73 37 5
-3639.2014 6018.7612 1787.9948 0.418 -0.689 0.592 100 65 37
-3621.5571 6011.9355 1775.5637 0.507 -0.692 0.514 102 67 39
-3449.0520 5874.7388 1666.0837 0.062 -0.810 0.583 98 67 42
-3347.5583 6148.4023 1541.0382 0.138 -0.495 0.858 86 61 39
-3322.9924 6126.7393 1525.8110 0.137 -0.496 0.857 75 50 28
-2993.0081 5753.9854 1335.2607 -0.261 -0.964 0.041 25 17 6
-2981.8125 5755.8286 1326.3167 -0.250 -0.968 0.037 19 10 2
-3269.2859 6439.9038 1430.8378 -0.661 -0.724 -0.197 22 13 4
-2614.5767 6018.4995 998.3383 0.390 -0.905 -0.168 17 16 14
-2464.3298 5904.1641 902.1019 0.653 -0.729 0.205 71 55 58
-1649.9261 5746.1880 301.4516 0.403 -0.798 -0.448 39 38 34
-4405.2485 5057.0068 2525.3438 0.605 0.187 -0.774 228 224 204
-4221.8135 5702.4390 2272.3796 0.399 -0.196 -0.896 58 36 22
-3942.4338 5407.3809 2108.5710 -0.785 -0.618 0.037 53 31 17
-3134.2520 4348.9434 1670.2144 -0.771 -0.630 0.092 96 75 56
-3138.9307 4371.8394 1669.8464 0.948 -0.305 -0.088 98 77 58
-4132.5972 5888.9814 2171.4182 0.331 -0.940 0.088 99 78 59
-3994.2183 5919.9580 2059.5911 0.168 -0.978 -0.120 47 24 6
-3975.0703 5912.4858 2046.1545 0.145 -0.981 0.126 50 27 9
-3962.2097 5914.6455 2035.8862 0.137 -0.984 0.114 54 31 13
-3935.6392 5895.4761 2018.7664 0.082 -0.991 0.106 63 40 22
-3923.1812 5898.1250 2008.7229 0.060 -0.987 0.151 69 46 24
-3899.4236 5883.0649 1993.0549 -0.042 -0.978 0.202 74 43 21
-3795.5652 5829.1992 1922.4869 0.405 -0.877 -0.260 107 73 48
-3786.0796 5836.1001 1913.9935 0.405 -0.877 -0.260 129 95 68
-3767.1960 5827.9204 1900.8832 0.360 -0.881 -0.307 174 140 111
-3749.6035 6142.7988 1832.7864 0.690 -0.628 -0.360 121 85 53
-3723.9563 6243.5273 1795.6007 -0.044 -0.734 0.678 94 59 31
-3210.6968 5918.6211 1457.0320 -0.389 -0.732 -0.559 85 60 38
-2678.7849 6178.3413 1002.8089 0.504 -0.817 0.281 23 22 20
-2507.9771 5851.3086 928.0688 0.774 -0.618 -0.140 46 45 43
-2473.1042 5876.3140 896.9069 0.660 -0.711 0.244 54 39 42
-2435.6267 5866.8042 869.7220 -0.201 -0.840 -0.504 68 49 53
-2414.3938 5841.5093 857.7700 0.001 -0.999 0.054 68 49 53
-2401.0574 5835.8599 848.4885 0.040 -0.997 0.069 68 49 55
-2401.7920 5865.7910 843.8674 0.003 -0.972 -0.233 68 48 55
-2380.7898 5840.5664 832.0804 0.902 -0.206 0.379 70 42 58
-2384.1924 5906.0234 823.3559 0.465 -0.241 -0.852 73 41 60
-2500.9563 6785.6499 760.7645 -0.219 -0.175 -0.960 20 9 7
-3573.1990 2658.2285 2289.6807 -0.204 -0.891 -0.406 190 191 186
-3563.9905 2659.4485 2282.3948 -0.204 -0.891 -0.406 196 197 192
-3556.8022 2662.2869 2276.3765 -0.084 -0.890 -0.448 202 203 198
-3559.4832 2673.1233 2276.5339 0.126 -0.236 -0.964 207 208 203
-4415.4951 5058.0098 2515.4478 0.812 0.104 -0.574 228 224 204
-4389.1377 5095.7100 2488.5916 0.688 -0.451 -0.568 133 104 93
-3823.8257 5836.5908 1924.4628 0.163 -0.961 -0.223 100 66 41
-3810.8767 5838.0347 1914.2651 0.262 -0.917 -0.300 137 103 78
-3802.4048 5846.5850 1906.2589 0.185 -0.942 -0.278 110 76 49
-3785.1865 5841.1484 1893.9900 0.161 -0.956 -0.247 133 99 71
-3732.7227 5845.1982 1852.9899 0.011 -0.937 -0.348 115 76 43
-3719.7405 5846.3325 1842.8213 0.318 -0.917 -0.242 113 74 41
-3709.5588 5965.2207 1814.1417 0.250 -0.936 0.247 148 112 80
-3758.1704 6140.2695 1820.7581 0.690 -0.628 -0.360 121 85 53
-3652.8821 6008.5269 1763.0181 0.478 -0.552 0.684 107 72 44
-3688.7122 6164.9521 1763.0868 -0.068 -0.732 0.678 99 64 36
-3538.0510 5974.0884 1680.8761 0.680 -0.726 0.105 98 63 35
-3457.1150 5948.8262 1623.1539 0.045 -0.953 0.299 99 69 43
-3563.3025 6440.6870 1618.3971 -0.707 -0.693 -0.142 85 59 38
-3099.6748 5783.6372 1377.6423 -0.383 -0.223 -0.896 38 28 16
-2524.7644 5898.2173 916.0352 0.545 -0.545 -0.637 50 46 45
-2524.5730 5925.4214 911.1148 -0.545 -0.755 -0.364 55 50 49
-2363.1902 5973.4546 778.7527 0.583 -0.751 0.311 28 11 20
-4415.0898 5046.3105 2499.6335 0.799 0.094 -0.593 227 223 203
-4445.8999 5135.3003 2507.4429 0.673 -0.293 -0.679 131 107 94
-4417.3330 5118.3730 2488.5515 0.644 -0.332 -0.689 134 105 93
-3805.6731 5814.2993 1896.0463 0.110 -0.957 -0.269 137 103 78
-3798.9783 5825.5869 1888.9092 0.301 -0.834 -0.462 115 81 56
-3783.4373 5822.7842 1877.4937 0.087 -0.944 -0.317 103 69 41
-3773.3428 5828.6450 1868.7146 0.070 -0.953 -0.296 143 107 76
-3749.3252 5834.1763 1849.3208 0.092 -0.940 -0.327 123 87 55
-3743.6873 5847.2271 1842.6805 0.028 -0.944 -0.330 112 73 40
-3729.2075 5845.9482 1831.8081 0.318 -0.917 -0.242 141 102 69
-3617.6978 5931.9873 1731.0441 0.519 -0.695 0.497 106 71 43
-3598.7913 5922.7935 1718.1843 0.511 -0.694 0.507 106 71 43
-3600.3157 5995.0493 1706.5170 0.523 -0.803 0.287 105 70 42
-3576.4885 5977.2388 1691.4158 0.547 -0.802 0.239 105 70 42
-3548.8413 5952.6011 1674.5990 0.537 -0.787 0.302 105 70 42
-3490.2544 5990.7085 1622.9187 0.364 -0.830 0.423 100 68 43
-3524.4412 6374.9170 1580.8728 0.056 -0.664 0.745 84 59 37
-2689.3804 6075.3926 993.9517 -0.280 -0.959 0.038 11 10 6
-2635.5144 6004.0664 965.3304 -0.233 -0.966 0.112 17 13 12
-2594.7097 5962.3936 941.4540 0.421 -0.905 -0.059 27 26 24
-2532.5972 5895.8877 905.6548 0.326 -0.767 -0.553 43 39 38
-2506.9619 5888.7451 887.2725 -0.304 -0.815 -0.493 65 51 54
-2494.9739 5887.0796 878.3788 -0.262 -0.830 -0.492 67 51 54
-2486.2744 5893.4399 870.5804 -0.272 -0.837 -0.475 67 51 52
-1950.0580 6034.6353 434.4520 0.903 -0.429 0.015 27 25 21
-1502.8036 5530.1841 181.2144 -0.123 -0.852 0.510 45 41 40
-3585.8210 2684.5269 2272.2556 0.066 -0.757 -0.650 205 206 201
-3578.1462 2687.0227 2265.9343 0.620 -0.435 -0.654 204 205 200
-4374.4360 4902.8125 2476.7964 0.952 -0.291 -0.096 234 233 229
-4452.6216 5114.4839 2498.5598 0.628 -0.279 -0.727 139 123 110
-4459.4766 5140.1807 2499.1843 0.444 -0.358 -0.821 129 106 93
-4436.0117 5129.4688 2483.1558 0.486 -0.352 -0.800 133 104 93
-3237.5928 4259.5410 1722.5751 0.874 -0.422 0.241 72 45 28
-3216.8462 4246.1494 1709.1082 0.733 -0.534 0.422 65 38 20
-4105.0103 5954.6748 2081.4885 -0.384 -0.721 0.577 68 44 24
-3995.9368 5855.0586 2015.9403 0.075 -0.654 0.753 77 53 34
-3827.3181 5811.2812 1894.7877 0.242 -0.942 0.235 68 34 10
-3791.9614 5820.8750 1866.0083 0.088 -0.960 -0.264 96 62 35
-3743.8186 5853.9072 1823.2301 0.311 -0.915 -0.256 152 116 85
-3719.0745 5835.9121 1807.5322 0.371 -0.895 -0.247 149 114 83
-3737.0344 5887.5210 1811.9945 0.296 -0.920 -0.257 143 107 76
-3637.8259 6042.8149 1708.1565 0.333 -0.742 0.582 109 74 46
-3701.0417 6322.6260 1706.2122 -0.335 -0.652 -0.680 107 75 50
-3580.0005 6132.8081 1647.7266 0.567 -0.662 -0.491 100 68 43
-3574.2209 6146.8066 1640.7869 0.586 -0.699 -0.409 95 63 38
-3582.3706 6185.7725 1640.0161 0.792 -0.550 -0.265 88 56 31
-2759.6421 6133.9580 1019.7938 -0.288 -0.946 0.145 11 10 6
-2718.8811 6095.1401 995.5842 -0.228 -0.966 0.121 11 10 5
-2653.0286 6024.1255 957.9649 -0.348 -0.934 -0.076 18 14 12
-2605.7300 5967.3887 931.9752 0.439 -0.898 -0.037 30 25 23
-2583.7466 5942.5371 919.6227 0.620 -0.770 -0.149 28 24 22
-1828.2386 5877.2598 353.2576 0.652 -0.361 0.667 36 35 31
-1538.4554 5672.9771 168.2542 -0.311 -0.858 -0.408 39 38 36
-1525.6411 5659.4819 160.8755 -0.268 -0.843 -0.467 38 37 35
-3597.3486 2662.8789 2273.7703 0.895 -0.402 -0.192 188 189 184
-3595.5325 2687.4080 2267.9189 0.066 -0.757 -0.650 204 205 200
-3584.0322 2686.8196 2259.2422 0.630 -0.472 -0.617 205 206 201
-4377.8467 4896.0581 2463.4885 0.952 -0.291 -0.096 232 233 228
-4375.6870 4910.1377 2459.2764 0.952 -0.289 -0.103 203 204 199
-4372.3408 4922.8770 2454.4023 0.952 -0.289 -0.103 165 166 161
-4465.1382 5100.7217 2492.9143 0.437 -0.329 -0.837 206 198 182
-4468.9468 5122.6494 2491.8325 0.373 -0.372 -0.850 138 123 113
-4472.3242 5144.1646 2490.4966 0.444 -0.358 -0.821 127 104 97
-3240.6538 4253.3447 1711.8661 0.871 -0.429 0.239 72 43 26
-3971.4407 5824.3325 1984.1309 0.044 -0.630 0.775 93 66 43
-3802.3096 5821.8701 1855.3958 0.274 -0.933 -0.234 97 65 41
-3754.9243 5856.1514 1812.9636 0.363 -0.904 -0.223 130 97 73
-3743.6350 5860.0786 1803.6262 0.349 -0.915 -0.204 131 98 74
-3750.1082 5892.9375 1802.5901 0.303 -0.941 -0.152 128 95 69
-3692.4495 5910.7505 1755.3082 0.296 -0.860 0.415 132 98 70
-3547.3958 5757.9409 1672.3262 0.043 -0.861 0.506 127 92 65
-3595.5032 6142.7349 1639.0399 0.591 -0.683 -0.429 104 68 44
-3583.5093 6145.7129 1629.3368 0.586 -0.699 -0.409 99 63 39
-3255.2156 6005.0225 1404.1896 -0.149 -0.179 -0.972 37 26 14
-2737.3687 6089.0864 993.3559 0.978 -0.202 -0.048 13 10 3
-2574.4873 5926.6997 898.5001 0.058 -0.992 -0.115 68 58 52
-2545.0342 5938.4805 873.8596 -0.474 -0.758 -0.448 47 34 27
-2472.5557 5984.3784 810.1469 0.866 -0.491 -0.093 38 34 25
-3603.3750 2662.8015 2267.1953 0.897 -0.399 -0.189 187 188 183
-3597.8794 2667.0293 2262.2266 0.895 -0.404 -0.192 193 194 189
-3595.4971 2673.7600 2259.1707 0.895 -0.404 -0.192 199 200 195
-3599.3218 2685.5078 2259.9231 0.377 -0.824 -0.422 205 206 201
-3594.5901 2690.3909 2255.4163 0.231 -0.887 -0.400 206 207 202
-4378.8467 4886.5210 2448.8972 0.951 -0.303 -0.053 230 231 226
-4375.2095 4898.8267 2443.8579 0.951 -0.303 -0.053 204 205 200
-4371.5635 4911.1641 2438.8062 0.951 -0.303 -0.053 163 164 159
-4478.2427 5122.3979 2481.2383 0.282 -0.410 -0.867 138 124 113
-3306.1682 4256.2090 1747.1415 0.173 -0.742 0.648 85 56 40
-3969.3477 5806.1826 1967.3114 -0.184 -0.769 0.612 110 80 56
-3583.4995 6176.7378 1604.8859 0.821 -0.536 -0.199 93 57 33
-3291.0559 6006.0742 1413.3496 -0.181 -0.196 -0.964 75 48 27
-3286.0181 6045.6787 1402.2147 -0.154 -0.182 -0.971 37 26 14
-2779.8398 6137.9116 999.3044 -0.043 -0.553 0.832 16 13 4
-2556.4622 5944.7246 864.5740 0.735 -0.671 -0.100 79 66 58
-2496.5996 5937.6182 820.2419 0.776 -0.607 0.169 43 30 22
-2475.5986 5941.6484 803.4880 0.823 -0.567 -0.028 38 26 17
-2444.4580 6273.9546 718.5453 0.114 -0.830 0.546 55 9 7
-2431.6807 6301.8345 703.6688 0.279 -0.894 0.350 57 8 7
-4711.7617 3313.1560 2978.3708 0.581 -0.636 -0.508 186 185 180
-3572.1536 2616.0620 2240.9653 0.751 -0.630 0.196 205 204 200
-3609.3989 2662.7209 2260.6169 0.355 -0.412 -0.839 187 188 183
-3599.9080 2681.0378 2249.9805 0.163 -0.806 -0.568 204 205 200
-4493.6313 5129.3940 2473.9294 0.279 -0.403 -0.872 139 124 113
-3756.4106 5893.8105 1770.4272 -0.105 -0.718 0.688 128 98 73
-3736.1531 6380.3828 1664.3434 -0.285 -0.618 -0.733 111 75 51
-3317.9353 6063.4600 1405.1130 -0.173 -0.194 -0.966 73 49 29
-3153.0273 6223.1909 1249.8458 0.099 -0.753 0.650 28 24 15
-3107.9824 6157.1396 1227.8721 0.575 -0.546 -0.609 28 24 15
-3082.4229 6130.6523 1213.3557 0.312 -0.941 -0.132 24 20 11
-3573.0596 2611.9983 2231.4004 0.751 -0.630 0.196 203 202 198
-4348.3223 4813.5557 2405.3477 0.658 -0.598 -0.457 227 228 223
-4510.4038 5138.0005 2467.3181 0.218 -0.400 -0.890 139 124 113
-4511.4453 5156.6899 2464.5862 0.216 -0.398 -0.892 125 103 95
-3250.8606 4131.7114 1700.1617 0.051 -0.636 0.770 87 58 42
-4063.6162 5854.0903 1992.9183 -0.398 -0.755 0.521 82 52 29
-3998.6973 5799.4492 1953.9009 -0.185 -0.761 0.622 113 83 59
-3609.9788 6212.9282 1580.6582 -0.427 -0.359 -0.830 94 60 35
-3612.2976 6241.6631 1577.0033 -0.427 -0.353 -0.832 85 51 26
-3601.1450 6271.1826 1562.9662 -0.415 -0.354 -0.838 106 72 47
-3437.1565 6120.4888 1466.7943 -0.593 -0.797 0.117 107 80 59
-3283.4822 6256.5840 1324.3972 0.334 -0.925 0.183 32 23 16
-3274.1274 6316.4912 1305.9978 0.516 -0.830 0.211 30 21 14
-3169.6997 6211.3047 1246.4946 0.608 -0.767 -0.207 46 42 33
-3141.5117 6180.0996 1230.9631 0.565 -0.760 -0.321 45 41 32
-3103.8518 6155.2202 1207.0435 0.721 -0.465 -0.514 24 20 11
-3052.0935 6074.6182 1182.9177 0.401 -0.909 -0.114 24 20 11
-3040.0410 6075.5537 1173.5854 0.403 -0.910 -0.098 24 20 11
-3026.5615 6205.2104 1138.9045 0.721 0.099 -0.686 23 20 11
-3573.9629 2607.9453 2221.8608 0.751 -0.630 0.196 203 202 198
-4414.6987 4962.7007 2410.4192 0.613 0.196 -0.765 222 224 211
-4528.1401 5147.7104 2461.1670 0.330 -0.387 -0.861 140 125 114
-3244.9114 4070.3225 1693.5123 0.871 -0.066 -0.486 98 69 53
-3237.8774 4104.5000 1681.6617 0.187 -0.674 0.715 96 67 51
-3859.4934 5679.3037 1852.7720 0.003 -0.884 0.468 144 114 90
-3841.2244 5672.3218 1840.2498 0.064 -0.889 0.454 113 81 58
-3826.8259 5671.2026 1829.5448 0.079 -0.887 0.454 89 57 34
-3808.8604 5664.5220 1817.1952 0.069 -0.885 0.460 127 95 72
-3788.3679 5653.8320 1803.6938 0.338 -0.814 0.473 142 110 87
-3609.9836 6074.8818 1588.1440 0.649 -0.734 0.200 104 68 44
-3671.9851 6231.5410 1605.2900 0.731 -0.531 -0.428 116 80 56
-3652.6379 6221.8970 1592.4579 0.694 -0.548 -0.467 116 80 56
-3655.5815 6276.2334 1584.3300 -0.429 -0.356 -0.830 106 72 47
-3647.1853 6286.0356 1576.0941 -0.427 -0.353 -0.832 105 71 46
-3572.5835 6226.4282 1530.8883 0.400 -0.896 0.190 97 63 38
-3548.4226 6207.4331 1516.1888 0.462 -0.879 0.120 101 67 42
-3332.8826 5982.4932 1395.6327 0.607 -0.773 0.183 80 53 32
-3327.1809 5996.0337 1388.7273 0.595 -0.781 0.190 74 47 26
-3326.4600 6043.4058 1379.1483 0.632 -0.745 0.214 59 35 15
-3315.2063 6071.3403 1365.2885 0.582 -0.786 0.210 33 25 14
-3274.1350 6117.2212 1325.3960 0.061 -0.981 -0.185 25 18 8
-3262.2925 6119.4165 1315.9971 0.892 -0.299 -0.339 25 18 8
-3168.5071 6137.7197 1241.3895 -0.164 -0.898 0.408 60 52 45
-3137.4658 6126.6089 1219.9691 0.637 -0.743 -0.207 54 50 41
-3125.7502 6128.6411 1210.6979 0.606 -0.752 -0.258 46 42 33
-3111.8540 6126.1904 1200.6274 0.726 -0.464 -0.508 40 36 27
-3101.7876 6131.5146 1191.9790 0.736 -0.455 -0.501 23 19 10
-2604.8784 5887.8945 861.6212 0.752 -0.658 -0.047 110 99 93
-2453.7314 6019.3413 721.9431 0.791 -0.485 0.373 45 17 17
-2334.8721 5744.3608 684.2415 0.755 -0.488 -0.437 48 17 16
-2189.1040 5811.9346 560.8209 0.185 -0.914 -0.361 122 17 35
-3572.6064 2602.1238 2210.9810 0.265 -0.943 0.200 203 202 198
-4332.7456 4364.0781 2446.6013 0.987 -0.154 0.039 223 225 220
-4306.4150 4379.4468 2423.7073 0.949 -0.313 -0.037 225 226 221
-4426.6597 4965.8584 2401.6477 0.613 0.196 -0.765 228 229 217
-4548.7427 5178.2441 2453.1023 0.782 -0.006 -0.624 124 103 97
-3248.7627 4080.1594 1680.8461 0.915 -0.036 -0.402 104 75 59
-4195.4746 5933.6641 2040.0358 0.014 -0.994 -0.112 100 72 51
-4169.2920 5916.7026 2023.4879 -0.275 -0.919 0.284 96 68 47
-3826.9041 5635.7798 1818.4932 -0.010 -0.859 0.511 69 37 14
-3815.1172 5638.5596 1809.0354 0.255 -0.800 0.543 102 70 47
-3806.0129 5645.4487 1800.8157 0.173 -0.905 0.387 144 112 89
-3783.1328 5631.0425 1786.2749 0.869 -0.412 -0.273 82 50 27
-3779.1250 5645.7749 1780.4004 0.873 -0.421 -0.245 74 42 19
-3769.2583 5715.0356 1759.5763 0.942 -0.159 0.296 196 166 142
-3767.2349 5754.7690 1750.3832 0.939 -0.166 0.301 134 103 82
-3595.0315 5870.2632 1597.7662 0.224 -0.971 0.078 99 63 37
-3561.2847 5973.1157 1552.3893 -0.051 -0.994 0.098 121 85 61
-3616.3679 6140.4854 1561.8099 0.802 0.062 -0.594 124 88 64
-3657.1611 6285.8433 1564.6588 0.900 -0.070 -0.430 105 71 46
-3655.2468 6357.2598 1549.4387 0.592 -0.793 0.145 101 67 42
-3373.7830 6016.5444 1402.0886 -0.030 -0.946 -0.324 94 67 46
-3325.4707 6048.0454 1359.4453 0.585 -0.502 0.637 36 25 13
-3283.3757 6116.5317 1314.3761 0.057 -0.983 -0.174 25 18 8
-3374.2937 6317.8784 1344.3698 0.672 -0.727 0.138 25 18 8
-3251.2283 6155.0205 1282.6210 0.906 -0.339 -0.252 38 29 22
-3132.9319 6123.9624 1199.0674 0.612 -0.748 -0.256 43 39 30
-3110.4080 6129.7690 1180.8987 0.736 -0.455 -0.501 28 24 15
-3113.2407 6213.9795 1166.8046 0.037 -0.932 0.360 28 24 15
-2604.5330 5866.4878 848.7532 0.772 -0.630 -0.086 93 82 76
-2594.7715 5870.3716 840.6155 0.807 -0.589 -0.035 93 82 76
-2587.6775 5880.5317 833.2866 0.807 -0.589 -0.035 93 82 76
-2416.0366 5986.8384 682.8672 0.834 -0.448 0.322 64 14 11
-2307.7039 5791.7759 638.4800 0.365 -0.866 -0.341 94 26 28
-2292.3203 5807.9995 623.7072 0.385 -0.861 -0.331 108 28 34
-2233.6931 5881.8599 565.0881 0.006 -0.769 -0.640 113 11 27
-2225.2747 5888.2593 557.4819 0.006 -0.769 -0.640 108 10 25
-2128.3296 6546.5469 357.1647 -0.785 -0.541 -0.303 29 26 21
-1927.4073 6107.7358 289.6951 -0.452 -0.362 -0.815 30 29 24
-4474.8779 4402.6011 2530.6899 0.941 -0.337 -0.016 222 223 218
-4422.1343 4362.4595 2498.6655 0.910 -0.413 0.034 220 222 217
-4405.5664 4359.5977 2486.7053 0.934 -0.356 0.007 220 222 217
-4403.6104 4371.9048 2482.8281 0.929 -0.368 0.030 220 222 217
-4397.2896 4394.1226 2473.7200 0.912 -0.408 0.029 222 223 218
-4446.1455 4474.6875 2494.9248 0.940 -0.337 -0.053 225 225 220
-4455.0444 4498.8662 2496.9338 0.925 -0.322 -0.203 226 225 221
-4451.9995 4510.4849 2492.3677 0.925 -0.322 -0.203 226 225 221
-3858.0183 3931.9075 2156.3916 -0.240 -0.674 0.699 226 225 221
-3511.6526 3619.7200 1955.5624 -0.259 -0.676 0.690 228 226 221
-4405.6841 4848.2686 2391.5105 0.679 -0.625 0.385 226 227 222
-4401.7954 4892.9033 2379.8691 0.799 -0.110 -0.591 198 199 193
-4401.8604 4909.4839 2376.6853 0.799 -0.110 -0.591 170 169 162
-4550.0049 5150.9502 2441.5352 0.810 -0.026 -0.585 148 135 124
-4041.9775 4907.9722 2105.0657 -0.401 -0.672 0.623 121 90 70
-3878.7563 4733.7651 2015.7095 -0.354 -0.674 0.648 120 89 69
-4132.7168 5890.8203 1981.9832 -0.407 -0.757 0.510 84 56 35
-3844.2512 5626.9619 1815.4777 -0.271 -0.735 0.621 88 57 36
-3814.5129 5623.0815 1793.7653 0.278 -0.793 0.543 119 88 67
-3800.9243 5623.0229 1783.5094 0.230 -0.864 0.448 75 44 23
-3772.3613 5599.8247 1766.4517 0.851 -0.380 -0.363 85 54 33
-3762.4390 5605.2705 1757.8928 0.842 -0.432 -0.324 137 106 85
-3683.4487 5586.1343 1701.9420 0.510 -0.731 0.453 175 143 120
-3774.3953 5772.4990 1734.3193 0.968 -0.150 0.202 92 60 39
-3604.8726 5870.7070 1587.0850 0.434 -0.895 0.105 73 37 11
-3603.8525 5891.6372 1582.2332 0.460 -0.860 0.222 82 46 20
