ply
format ascii 1.0
element vertex 776
property float x
property float y
property float z
property float nx
property float ny
property float nz
property uchar diffuse_red
property uchar diffuse_green
property uchar diffuse_blue
end_header
-3662.7949 4998.1914 3327.0229 -0.155 -0.968 -0.196 120 104 89
-3588.7563 5006.4678 3261.5667 0.863 -0.428 0.268 137 110 83
-3574.9307 5005.5605 3249.3306 0.836 -0.454 0.308 132 105 78
-3574.4744 5024.2090 3249.0251 0.840 -0.446 0.310 147 120 93
-3564.4973 5028.9395 3240.2239 0.859 -0.428 0.281 146 119 92
-3557.8110 5038.5229 3234.3589 0.859 -0.428 0.281 145 115 89
-2236.2104 5840.6968 2069.4004 0.389 -0.811 -0.436 210 191 177
-2241.0852 5884.8848 2073.9458 0.445 -0.674 -0.590 209 191 180
-2238.7334 5909.6646 2071.9958 0.452 -0.650 -0.611 199 189 186
-2230.0095 5917.0889 2064.3171 0.445 -0.664 -0.601 96 88 85
-2222.5457 5928.0171 2057.7715 0.445 -0.664 -0.601 30 22 20
-2089.3577 6315.8647 1941.9877 0.027 -0.563 -0.826 23 34 47
-2063.9497 6272.4302 1919.2810 -0.376 -0.693 -0.615 23 34 47
-2045.0518 6397.0620 1903.2192 0.200 -0.401 -0.894 32 43 56
-2038.4015 6413.2852 1897.4214 0.200 -0.401 -0.894 25 36 48
-2035.3590 6441.4468 1894.8782 0.479 -0.226 -0.848 25 36 47
-2029.8875 6461.8569 1890.1451 0.484 -0.227 -0.845 25 36 47
-1912.9624 6378.6191 1786.2659 0.751 -0.137 0.646 25 33 42
-1884.5679 6479.0693 1761.6754 0.984 -0.145 0.101 26 31 41
-1844.4147 6457.6040 1726.0398 0.282 -0.564 0.776 17 22 31
-1829.0493 6442.8916 1712.3689 0.186 -0.551 0.814 17 22 31
-1678.8625 6336.6807 1578.9427 0.836 -0.280 0.471 17 14 21
-1670.3748 6389.2764 1571.7109 0.943 -0.054 0.329 27 24 30
-1655.4816 6506.2373 1559.1519 0.629 -0.357 0.691 20 17 22
-1550.9906 6343.0322 1465.8512 0.867 -0.363 0.341 26 23 14
-1551.5803 6391.0933 1466.6262 0.856 -0.362 0.369 27 23 14
-1536.0493 6370.4297 1452.7773 0.883 -0.350 0.311 26 23 12
-1515.3528 6419.8965 1434.7284 -0.041 -0.632 0.774 26 21 10
-1494.1489 6373.4204 1415.7250 0.122 -0.641 0.758 19 14 5
-1487.0519 6389.0317 1409.5286 0.667 -0.546 0.507 19 14 5
-1474.2426 6379.1558 1398.1445 0.953 -0.187 0.240 19 14 5
-1468.6221 6401.5391 1393.2903 0.953 -0.187 0.240 21 15 7
-1459.9336 6507.9082 1386.1643 0.971 -0.116 0.209 35 26 19
-3669.7217 4901.1279 3314.6367 -0.074 -0.830 -0.553 235 224 211
-3692.1692 5007.7695 3334.7642 0.686 -0.113 -0.719 125 108 95
-3675.6287 5003.3486 3320.1438 -0.153 -0.972 -0.179 126 109 94
-2250.8374 5886.8418 2064.3557 0.445 -0.674 -0.590 209 191 180
-2246.4941 5906.1226 2060.5747 0.237 -0.623 -0.746 200 189 185
-2239.8352 5919.1890 2054.7312 0.213 -0.631 -0.746 96 87 84
-2225.5413 5942.8394 2042.1746 0.120 -0.984 -0.128 35 31 28
-2231.1157 6022.3755 2047.3237 0.432 -0.780 0.453 50 46 48
-2127.3171 6554.7231 1957.1677 0.183 -0.001 -0.983 37 53 70
-2141.0957 6637.2524 1969.5706 0.172 0.011 -0.985 37 53 70
-2009.2919 6401.0137 1852.4971 0.517 -0.442 -0.733 25 42 57
-1880.1981 6430.1763 1738.5712 0.973 -0.178 0.146 25 37 52
-1859.5381 6437.4722 1720.3462 0.632 -0.649 0.423 25 37 50
-1843.3275 6419.8608 1705.9797 -0.010 -0.731 0.682 25 37 50
-1829.7029 6411.3433 1693.9230 0.025 -0.719 0.695 26 37 50
-1785.9816 6292.7207 1654.9735 0.041 -0.298 -0.954 29 39 53
-1776.5771 6298.6646 1646.6849 0.129 -0.377 -0.917 29 39 53
-1739.7155 6243.3701 1613.9734 0.769 0.024 -0.639 30 38 52
-1695.7775 6367.1094 1575.5215 0.609 -0.226 -0.761 17 17 28
-1568.9794 6203.9551 1463.0764 -0.117 -0.582 0.804 20 21 30
-1522.5634 6229.4800 1422.1567 0.953 -0.209 0.221 22 23 17
-1515.5994 6335.2183 1416.3073 0.027 -0.728 0.685 15 15 8
-1511.7677 6364.7046 1413.0071 -0.204 -0.736 0.645 17 16 9
-1491.9406 6324.2070 1395.3817 0.005 -0.710 0.704 26 25 18
-1487.1440 6349.5981 1391.2179 0.499 -0.730 0.467 26 24 18
-311.3812 1929.4963 340.2829 -0.671 -0.306 -0.676 251 220 215
-3699.6621 5024.3447 3323.1057 -0.257 -0.935 -0.246 137 110 99
-2257.6775 5911.9072 2052.1931 0.237 -0.623 -0.746 202 187 179
-1840.1085 6065.5107 1684.1200 0.285 -0.201 -0.937 45 75 104
-1836.7915 6091.4038 1681.2064 0.210 -0.274 -0.938 31 61 90
-1843.4740 6509.8931 1687.2728 0.963 -0.156 0.220 22 52 78
-1795.7325 6501.0776 1645.1793 0.599 -0.467 0.650 25 42 55
-1784.6128 6501.6870 1635.3761 0.599 -0.467 0.650 26 41 54
-1677.7440 6220.4053 1541.0408 -0.101 -0.956 0.274 17 32 44
-1631.3021 6291.0146 1500.1262 -0.207 -0.880 0.428 19 33 48
-1538.5446 6128.5684 1418.2814 -0.496 -0.866 0.065 16 26 34
-1537.2852 6166.5010 1417.1869 0.904 -0.322 -0.281 17 26 33
-1395.6024 6085.3164 1292.2424 0.784 -0.517 0.343 13 16 23
-1391.0586 6156.8618 1288.2665 -0.175 -0.797 0.578 15 16 23
-1381.4314 6401.7954 1279.8813 0.541 -0.655 -0.527 223 196 189
-3706.2212 4926.5498 3310.7764 0.147 -0.913 -0.380 235 233 217
-3716.0286 4958.8203 3319.3430 0.741 -0.106 -0.663 233 228 209
-3714.6982 4975.7134 3318.1384 0.741 -0.106 -0.663 230 220 203
-2268.2358 5885.0239 2043.2897 0.452 -0.813 -0.366 208 187 176
-2268.8838 5917.7046 2043.7944 0.237 -0.623 -0.746 203 187 179
-2248.1450 5955.0488 2025.4678 0.222 -0.645 -0.731 33 29 31
-1946.1610 6206.3613 1759.1891 0.041 -0.639 -0.768 25 64 94
-1856.8739 6092.2935 1680.8362 0.282 -0.199 -0.939 40 76 111
-1837.4550 6100.4067 1663.7294 0.510 -0.173 -0.843 24 59 94
-3715.8181 4927.1846 3301.1582 0.463 -0.847 -0.262 234 232 216
-3722.3381 4954.8262 3306.7644 0.737 -0.209 -0.642 233 228 209
-3720.7729 4971.3516 3305.3162 0.732 -0.210 -0.648 230 220 203
-2274.4663 5877.4971 2030.6210 0.371 -0.727 -0.577 208 187 176
-2259.7600 5961.9302 2017.3270 0.108 -0.979 -0.172 33 29 31
-2251.3318 6002.1162 2009.7445 -0.274 -0.868 0.415 31 38 49
-2068.2202 6277.1636 1847.6514 0.957 -0.280 0.079 13 50 76
-1862.3889 6007.5957 1668.0048 0.493 -0.655 -0.572 18 65 101
-1855.8556 6021.9639 1662.2013 0.507 -0.651 -0.566 32 79 115
-1846.7738 6101.7383 1653.8695 0.506 -0.175 -0.845 23 70 106
-1885.2689 6389.2910 1686.4192 0.701 -0.249 0.668 13 58 91
-1834.8450 6534.4233 1641.4763 0.590 -0.620 0.517 15 45 65
-1772.9532 6388.2295 1587.7461 0.410 -0.331 0.850 19 43 62
-3711.3284 4908.3604 3279.3108 0.463 -0.841 -0.280 234 233 216
-3729.1858 4951.5947 3294.6770 0.703 -0.224 -0.675 233 228 209
-3726.6262 4966.7012 3292.3291 0.703 -0.224 -0.675 230 220 203
-3726.2205 5022.6519 3291.5906 0.116 -0.958 -0.263 139 110 99
-3620.8713 5833.4307 3193.6516 -0.048 -0.385 -0.922 140 106 79
-2281.6978 5842.2783 2019.0612 0.191 -0.738 -0.647 209 187 174
-2283.7097 5878.0767 2020.5812 0.355 -0.725 -0.590 208 187 176
-2269.4607 5963.5327 2007.5000 0.171 -0.959 0.224 33 29 31
-2258.9446 5997.8735 1998.0420 -0.302 -0.875 0.379 27 35 45
-2134.3296 6100.8057 1888.0441 0.470 -0.318 -0.823 13 32 51
-2043.1997 5996.3135 1808.8323 0.939 -0.204 0.277 15 49 72
-1957.0861 6109.6670 1732.5311 0.816 -0.209 0.539 14 64 103
-1887.1263 6060.5889 1671.5081 0.407 -0.427 -0.807 10 68 107
-1904.6359 6155.8188 1686.2139 0.436 -0.553 -0.710 23 83 121
-1891.7728 6301.3647 1673.9374 0.856 -0.132 0.499 18 77 117
-1883.3599 6311.0259 1666.4928 0.851 -0.140 0.506 20 77 116
-1880.9513 6341.7065 1664.1705 0.701 -0.249 0.668 37 86 125
-1846.0701 6417.4326 1633.0602 0.963 -0.156 0.220 25 73 111
-1794.9573 6353.5176 1588.6683 0.385 -0.400 0.832 10 46 70
-1764.9662 6324.3633 1562.5637 0.406 -0.334 0.851 15 45 68
-1740.8705 6275.3887 1541.7653 0.361 -0.352 0.864 15 45 67
-3732.0427 4924.3467 3279.3372 0.474 -0.840 -0.262 229 227 211
-3738.5688 4951.8828 3284.7964 0.703 -0.224 -0.675 232 227 208
-3740.2808 4972.8955 3286.1008 0.697 -0.216 -0.684 239 229 212
-2274.7319 5953.0879 1993.8936 0.193 -0.849 0.491 22 18 19
-2264.8904 5989.0864 1984.9440 -0.310 -0.872 0.379 20 29 39
-2197.9583 6159.1519 1924.7699 -0.539 -0.712 0.450 20 43 59
-2163.2717 6193.3755 1894.0841 0.514 -0.287 -0.808 4 31 48
-1913.1455 6044.9395 1676.4615 0.451 -0.453 -0.769 24 81 123
-1903.0576 6047.6909 1667.6038 0.476 -0.390 -0.788 41 101 144
-1903.1941 6084.3208 1667.3845 0.458 -0.444 -0.771 25 94 136
-1880.7629 6231.9409 1646.3802 0.755 -0.303 0.581 21 93 134
-1896.1730 6323.4990 1659.0258 0.690 -0.584 0.428 19 88 130
-1889.0903 6337.8882 1652.6917 0.625 -0.771 0.121 27 86 129
-1849.6523 6356.9131 1617.9862 0.930 -0.193 0.313 14 70 113
-1840.3215 6403.7812 1609.3833 0.941 -0.192 0.278 15 69 111
-1881.9548 6595.4580 1644.0625 0.606 -0.602 0.519 17 69 109
-3743.4966 4927.5269 3271.3035 0.465 -0.757 0.460 228 227 210
-3703.8367 4891.3237 3237.0618 0.182 -0.978 0.099 231 227 208
-3745.4285 4967.2827 3272.5288 0.703 -0.224 -0.675 239 229 212
-3742.8928 4982.4487 3270.1357 0.703 -0.224 -0.675 198 183 168
-3713.3193 4959.9868 3244.5496 0.730 -0.265 -0.630 140 116 106
-2280.5491 5944.2007 1980.8054 0.193 -0.849 0.491 22 18 19
-2218.1523 5961.4561 1926.0681 0.099 -0.974 0.204 18 34 47
-2172.0706 6157.8521 1883.5027 -0.089 -0.942 0.324 1 35 50
-2058.5464 6195.6665 1783.8394 0.923 -0.034 0.383 50 87 113
-1947.7711 6314.2471 1685.6372 0.440 -0.718 -0.539 30 114 157
-1934.4283 6307.3364 1674.0558 0.443 -0.729 -0.522 13 97 140
-1876.6241 6224.5557 1624.4984 0.751 -0.284 0.596 12 92 136
-1896.7144 6332.3203 1640.8018 0.716 -0.686 0.129 31 97 143
-1889.2312 6345.3442 1634.1096 0.675 -0.591 0.442 29 91 138
-1851.0020 6329.0142 1600.8866 0.937 -0.190 0.293 15 75 123
-1845.4028 6348.7603 1595.7627 0.937 -0.190 0.293 16 75 122
-1503.5682 5975.5488 1301.3411 0.980 0.135 -0.145 14 24 34
-3707.1282 4883.3726 3222.1843 0.169 -0.985 0.027 231 227 208
-3718.4797 4935.8560 3231.3508 0.768 -0.242 -0.594 197 182 167
-3715.7881 4950.6831 3228.7939 0.768 -0.242 -0.594 140 116 106
-2238.1909 6187.9287 1922.1820 -0.563 -0.713 0.419 27 45 60
-2173.5159 6135.0083 1866.4965 0.595 -0.736 0.322 5 43 58
-2053.0068 6149.8794 1761.1420 0.914 -0.170 0.367 115 154 181
-1980.4196 6316.6396 1695.4646 0.630 -0.492 -0.601 32 123 167
-1958.9508 6283.0146 1677.2056 0.450 -0.651 0.612 21 114 157
-1936.8840 6284.5601 1657.9304 0.348 -0.801 0.487 45 139 183
-1865.4197 6269.3594 1595.7908 -0.027 -0.584 -0.811 35 98 150
-1674.6625 6333.9561 1428.4452 -0.417 -0.655 -0.630 16 33 51
-2286.4636 5911.2754 1950.0458 0.236 -0.812 0.533 22 18 19
-2175.0886 6112.7246 1849.7223 -0.344 -0.893 0.291 8 48 68
-2134.3831 6093.8628 1814.5784 -0.074 -0.997 -0.016 14 58 76
-1971.9230 6258.1934 1670.3711 0.635 -0.574 0.516 35 125 167
-1955.6023 6241.4521 1656.4313 0.576 -0.645 0.502 37 130 173
-1905.1787 6259.9253 1612.2084 0.826 -0.172 -0.536 32 127 175
-1700.7522 6112.8208 1436.5748 0.912 -0.304 -0.275 12 56 91
-1697.8015 6181.6309 1432.8721 0.835 -0.449 -0.318 19 41 64
-3736.8120 4954.4678 3211.0315 0.775 -0.235 -0.587 147 127 112
-3734.2070 4969.4531 3208.4841 0.775 -0.235 -0.587 140 113 96
-2327.3606 5874.1294 1968.1862 0.236 -0.930 0.282 204 181 168
-2302.8137 6251.1655 1939.7324 -0.568 -0.715 0.407 25 43 62
-2144.5615 5997.4736 1806.9182 -0.346 -0.883 0.316 6 46 82
-2145.6497 6066.6909 1806.5591 0.275 -0.830 0.485 9 60 90
-1860.6033 6305.1558 1554.2172 0.398 -0.875 -0.275 30 114 167
-1851.4047 6311.8911 1546.0922 0.398 -0.875 -0.275 26 106 160
-1837.2324 6300.9565 1533.9758 0.108 -0.977 -0.183 10 85 141
-3741.0134 4929.1733 3197.2261 0.773 -0.212 -0.598 224 212 201
-3742.6206 4968.4067 3197.7874 0.775 -0.235 -0.587 140 114 95
-3746.3909 5011.0581 3200.1533 0.505 -0.848 -0.161 147 115 91
-2318.7141 5887.9971 1942.3184 0.182 -0.983 0.018 117 104 97
-2307.9390 5889.8159 1932.9271 0.182 -0.983 0.018 23 13 10
-2334.3579 6279.5928 1947.5741 -0.487 -0.708 0.511 25 43 63
-2308.5464 6240.7544 1925.9955 -0.470 -0.713 0.521 25 43 63
-2152.3384 5993.8755 1795.6571 -0.369 -0.876 0.311 10 50 90
-2162.1660 6055.1636 1802.8846 0.408 -0.784 0.467 15 61 98
-2148.8750 6049.5234 1791.4683 0.279 -0.828 0.487 17 71 103
-1862.4233 6318.4712 1537.1173 0.417 -0.867 -0.274 46 128 184
-1846.6044 6301.8384 1523.7404 0.108 -0.977 -0.183 29 109 165
-1449.9788 6348.5356 1178.4843 0.765 -0.642 -0.042 220 193 194
-3749.4551 4928.2397 3186.6514 0.773 -0.212 -0.598 224 212 200
-3751.0327 4967.3608 3187.0933 0.775 -0.235 -0.587 140 114 94
-3754.9246 5010.1016 3189.4548 0.530 -0.835 -0.146 147 115 90
-2341.3413 5863.5195 1944.4393 0.184 -0.950 0.254 204 181 168
-2315.1094 5945.8613 1919.7629 0.103 -0.976 -0.192 22 24 31
-2307.3147 6210.9976 1906.7397 -0.317 -0.762 0.565 25 43 63
-1654.4417 6282.4189 1339.3523 -0.428 -0.379 -0.821 15 28 47
-1644.7721 6286.4692 1330.8781 -0.535 -0.445 -0.718 15 28 47
-1605.7618 6173.4487 1299.7491 -0.618 -0.407 -0.672 15 28 47
-1458.7246 6348.0474 1168.2164 0.714 -0.697 -0.067 220 193 196
-3764.7734 4918.3848 3182.2600 -0.182 -0.596 -0.782 234 225 220
-3759.6121 4929.6558 3177.5022 -0.277 -0.621 -0.733 224 212 200
-3746.0850 4947.8984 3165.3267 -0.227 -0.660 -0.716 140 114 93
-2323.9731 5884.5088 1910.8551 0.345 -0.663 -0.664 23 13 10
-2316.5308 5895.1011 1904.1417 0.345 -0.663 -0.664 21 17 20
-2166.9434 6016.5049 1771.5920 0.378 -0.788 0.486 24 71 109
-1878.8417 6311.8613 1514.7026 0.367 -0.892 0.265 53 150 201
-1868.1865 6313.5020 1505.4435 0.367 -0.892 0.265 39 130 182
-1694.5442 6490.8926 1350.6295 -0.458 -0.749 -0.479 15 28 47
-1484.5249 6284.5439 1174.3407 0.713 -0.668 -0.213 25 16 14
-1469.4232 6309.7144 1160.6229 0.721 -0.666 -0.190 217 194 196
-3780.1121 4945.1875 3176.8696 -0.249 -0.648 -0.720 229 217 206
-3774.3569 4955.7280 3171.6006 -0.272 -0.662 -0.698 164 145 128
-2358.2019 5830.9502 1923.9180 0.123 -0.969 -0.213 201 178 162
-2332.7117 5883.7690 1900.4069 0.364 -0.613 -0.701 24 15 12
-2332.2939 5943.2197 1898.3566 0.290 -0.957 -0.027 24 26 33
-2281.0786 6183.9868 1847.2911 -0.475 -0.794 0.379 25 52 92
-1492.9094 6282.7490 1163.9229 0.577 -0.715 -0.395 26 18 15
-1485.7360 6296.8950 1157.3267 0.600 -0.701 -0.386 141 125 125
-1478.0577 6308.9253 1150.3549 0.587 -0.703 -0.400 214 191 193
-3787.1826 4942.3472 3165.1157 0.343 -0.856 -0.388 229 217 206
-3785.4221 4958.3286 3163.1060 -0.131 -0.891 -0.436 165 146 129
-2368.9099 5864.8394 1914.1899 0.097 -0.966 -0.238 201 178 165
-2337.4199 5902.5288 1885.8856 0.345 -0.663 -0.664 27 23 26
-2337.6636 5933.4189 1885.1439 0.091 -0.990 -0.111 24 26 33
-2056.1655 5528.5059 1654.9727 -0.388 -0.591 -0.707 25 52 92
-1854.4220 6477.7017 1451.8384 0.993 -0.090 -0.080 26 83 116
-1789.2953 6485.7109 1395.4542 0.256 -0.473 0.843 22 48 71
-1748.0320 6413.5723 1362.1085 0.216 -0.508 0.834 22 48 71
-1720.2174 6391.0601 1338.8265 0.614 -0.349 0.708 27 43 63
-1655.1425 6263.9648 1286.6486 -0.117 -0.765 0.633 17 30 49
-3800.0483 4929.1050 3158.7100 0.346 -0.921 -0.177 234 226 219
-3795.3875 4941.0596 3154.3027 0.340 -0.920 -0.197 229 217 206
-3787.2568 4948.3257 3147.0654 0.373 -0.908 -0.189 165 146 129
-2378.4973 5866.2842 1904.4049 0.097 -0.966 -0.238 201 178 165
-2178.0916 5971.0151 1728.4856 0.323 -0.813 0.484 29 79 116
-2053.8804 6206.4946 1613.7916 0.765 -0.616 -0.188 182 189 209
-1943.7384 6212.7939 1518.8083 -0.343 -0.911 0.231 89 224 250
-1889.1055 6177.7124 1472.9622 0.951 -0.180 -0.251 67 197 237
-1849.4008 6426.1143 1430.5549 0.907 0.079 -0.413 39 102 133
-1815.1079 6382.5884 1402.4911 0.601 -0.722 0.343 40 74 99
-1771.9026 6304.8159 1367.8945 -0.435 -0.656 0.617 34 60 85
-1721.6830 6320.3540 1324.1663 0.631 -0.334 0.700 26 46 72
-1659.7086 6247.0488 1273.2711 -0.124 -0.807 0.577 4 17 36
-3834.5833 4963.4082 3169.2756 0.261 -0.797 -0.545 233 226 218
-3830.2966 4975.9790 3165.1465 0.250 -0.850 -0.464 229 217 206
-3826.5288 4989.3037 3161.4363 0.237 -0.849 -0.472 165 145 130
-3822.5867 5002.4438 3157.5830 0.216 -0.853 -0.475 141 115 98
-2390.7620 5874.5430 1896.6658 -0.027 -0.949 0.313 201 178 165
-2194.1919 6088.5518 1720.2068 -0.168 -0.951 0.259 21 86 119
-2177.0034 6104.8823 1704.8616 0.332 -0.932 0.142 149 219 243
-2164.9463 6102.9600 1694.5730 -0.081 -0.994 0.076 157 222 249
-2160.2954 6122.7212 1689.8754 -0.522 -0.840 -0.149 152 215 245
-2059.5088 6195.5000 1600.7140 0.799 -0.588 -0.127 180 185 203
-2044.2284 6182.9780 1588.0337 0.878 -0.469 -0.093 181 188 202
-2015.5720 6198.9678 1562.8499 0.783 -0.610 -0.120 213 216 237
-1957.2373 6301.6455 1509.0907 0.602 -0.443 -0.664 83 225 253
-1900.8026 6186.8667 1464.6957 0.641 -0.373 0.671 75 207 245
-1527.8998 5935.6396 1153.3125 -0.193 -0.817 -0.543 15 25 36
-1519.8746 6285.2271 1133.9889 0.601 -0.738 -0.306 26 18 17
-1513.2891 6301.7915 1127.7430 0.597 -0.743 -0.304 139 125 125
-1505.0740 6311.4194 1120.3441 0.597 -0.743 -0.304 214 191 193
-3851.5095 4955.5122 3166.1006 -0.175 -0.965 -0.195 230 231 218
-3845.6746 4965.9507 3160.7014 0.225 -0.794 -0.565 233 230 216
-3845.5020 4984.0796 3159.8657 0.210 -0.865 -0.455 233 223 210
-2199.8052 6045.9106 1708.4288 0.571 -0.819 0.056 43 94 127
-2174.2046 6103.3652 1684.2975 -0.091 -0.992 0.082 158 217 229
-2078.6316 6156.5815 1600.3265 -0.595 -0.467 -0.653 127 135 160
-2030.0227 6180.3530 1557.7435 -0.462 -0.856 -0.232 215 209 232
-1990.3268 6381.0469 1516.0927 0.460 -0.160 -0.874 106 241 254
-1883.5260 6209.5981 1431.0154 0.553 -0.310 0.773 85 202 246
-1975.0327 6601.9414 1494.5999 0.817 -0.289 0.499 71 186 224
-1866.8829 6304.5664 1413.1420 0.954 -0.225 -0.197 70 174 213
-1712.7152 6300.0488 1281.1167 0.737 -0.403 0.542 26 43 63
-1527.8544 6281.7217 1123.2961 0.660 -0.702 -0.267 45 35 40
-1520.7119 6295.8105 1116.6372 0.643 -0.720 -0.260 160 146 146
-3855.2126 4966.3901 3150.8613 0.252 -0.831 -0.496 233 230 215
-3855.2959 4984.8384 3150.1892 0.490 -0.738 -0.465 233 223 210
-2206.1406 6005.9800 1697.3698 -0.136 -0.982 0.132 33 81 117
-2209.3333 6047.1958 1698.4418 0.487 -0.849 0.204 53 102 135
-2050.6843 6111.7158 1560.0389 -0.480 -0.295 -0.826 118 134 148
-2031.5835 6191.9995 1540.4534 0.600 -0.460 -0.654 173 174 195
-2022.2241 6197.9014 1532.2040 0.241 -0.834 0.496 159 176 194
-1974.1093 6186.8120 1491.4648 0.624 -0.130 -0.770 167 239 243
-1961.8491 6406.8359 1472.1036 0.532 -0.353 0.770 93 213 250
-1872.3839 6253.7168 1401.6923 0.914 -0.083 -0.397 54 171 206
-1836.4249 6360.4263 1366.6113 0.610 -0.784 0.115 24 86 127
-1711.1105 6179.4268 1266.6367 -0.183 -0.762 0.621 36 60 81
-1698.3170 6251.9995 1252.7611 0.684 -0.447 0.577 19 37 57
-1540.5804 6298.3760 1115.8705 0.418 -0.881 -0.223 45 35 41
-1532.5640 6308.8027 1108.5881 0.597 -0.677 -0.430 160 146 147
-1523.7631 6315.9224 1100.7677 0.594 -0.685 -0.422 210 188 185
-1513.5059 6316.7568 1091.9540 0.603 -0.670 -0.433 213 187 181
-3858.9766 4959.0811 3136.4114 -0.046 -0.989 -0.137 233 230 215
-2403.6001 5867.6465 1854.0199 -0.046 -0.816 -0.576 187 171 162
-2386.9934 5884.1089 1839.1271 0.490 -0.861 -0.139 22 12 13
-2209.3545 5926.4990 1685.5249 0.121 -0.418 -0.900 24 72 108
-2205.2769 5946.5176 1681.1865 -0.116 -0.610 -0.784 29 77 113
-2216.7590 6010.4531 1688.2703 -0.029 -0.931 0.363 31 79 115
-2188.4941 6124.9844 1659.2314 0.070 -0.922 0.381 157 210 233
-2165.4331 6124.2822 1639.5555 -0.120 -0.939 0.321 134 211 241
-2143.1570 6125.6406 1620.4626 -0.368 -0.927 0.073 116 203 232
-2146.4099 6169.1152 1621.3873 -0.461 -0.721 -0.518 111 175 204
-2076.8301 6164.4106 1562.1317 -0.485 -0.300 -0.821 124 135 151
-2043.1216 6199.6680 1531.8234 0.591 -0.455 -0.666 135 137 158
-2033.4763 6204.7100 1523.3663 -0.399 -0.891 0.218 99 116 134
-2013.0260 6175.3745 1507.1429 0.239 -0.848 0.473 130 161 174
-1992.9197 6182.4009 1489.6622 0.172 -0.885 0.433 131 185 193
-1984.7585 6301.5786 1477.6038 0.929 -0.339 -0.148 128 249 254
-1918.4911 6381.4341 1417.5708 -0.405 -0.799 -0.445 56 175 209
-1872.9764 6378.8379 1378.7891 -0.396 -0.849 -0.349 32 123 167
-1677.6984 6220.6543 1218.6716 -0.098 -0.797 0.596 31 49 69
-1541.5186 5929.4614 1114.7289 0.789 -0.593 -0.159 12 24 38
-1550.3379 6302.3188 1106.3572 0.402 -0.896 -0.190 45 35 41
-1541.9071 6310.9907 1098.7831 0.597 -0.668 -0.444 160 146 147
-1534.1663 6322.6504 1091.6710 0.597 -0.668 -0.444 210 188 185
-1525.1761 6329.0166 1083.7173 0.593 -0.685 -0.424 213 187 180
-3824.4890 4900.6230 3091.6829 -0.020 -0.998 -0.067 233 230 215
-3851.7961 5010.3936 3110.0337 0.332 -0.769 -0.547 146 118 110
-2416.3884 5877.1479 1846.5759 -0.058 -0.819 -0.571 187 171 162
-2393.8186 5878.4878 1827.2632 0.174 -0.984 -0.032 22 12 13
-2227.0842 5950.8950 1681.7754 0.119 -0.420 -0.900 24 72 110
-2233.5100 6032.0674 1683.6017 0.559 -0.818 0.137 30 78 114
-2153.3884 6128.9526 1610.8939 -0.368 -0.927 0.073 109 192 228
-2150.4778 6187.9346 1605.7551 0.887 -0.392 -0.245 89 143 172
-2145.0659 6205.9404 1600.3280 0.782 -0.559 -0.276 130 160 192
-2062.7559 6197.3389 1530.5034 -0.468 -0.598 -0.650 179 173 197
-2061.3489 6228.2114 1527.9131 0.436 -0.576 -0.692 121 124 147
-2023.2706 6179.1260 1497.6417 0.290 -0.876 0.386 111 142 155
-2003.7623 6188.1357 1480.5952 0.308 -0.870 0.385 151 207 212
-1882.9573 6044.1953 1384.0275 0.545 -0.327 0.772 116 239 255
-1678.1448 6030.2808 1209.9452 0.189 -0.888 0.419 28 49 69
-1548.4893 5963.8960 1102.3358 0.202 -0.162 -0.966 11 25 38
-1612.6079 6436.4106 1135.7539 -0.044 -0.984 -0.174 14 13 25
-1601.8379 6436.2686 1126.5732 -0.056 -0.991 -0.120 19 14 23
-1591.6862 6438.6367 1117.8069 -0.044 -0.984 -0.174 45 35 42
-1582.7928 6446.2686 1109.8771 -0.097 -0.982 -0.165 160 146 147
-1572.2104 6446.7480 1100.8286 -0.097 -0.982 -0.165 210 188 185
-2429.1926 5886.6152 1839.0884 -0.062 -0.827 -0.559 187 171 162
-2207.6748 5811.3657 1654.0245 -0.537 -0.811 -0.232 15 64 97
-2197.1863 6163.5410 1628.4043 -0.368 -0.821 0.437 101 180 220
-2177.7068 6140.1182 1612.9269 -0.335 -0.826 0.452 108 194 237
-2164.0234 6133.4185 1601.5925 -0.136 -0.989 0.063 116 205 245
-2155.3323 6175.0845 1592.2173 0.949 0.065 -0.309 85 147 174
-2140.9822 6200.4028 1578.7980 0.684 -0.666 0.297 172 183 215
-2086.2590 6206.8608 1531.8932 0.799 -0.560 0.220 178 169 193
-2074.6978 6241.2881 1520.4171 -0.426 -0.888 -0.172 163 167 189
-2034.0731 6220.0684 1486.8293 -0.535 -0.822 -0.194 157 201 210
-1947.2759 6416.7236 1403.5996 -0.405 -0.795 -0.452 53 170 203
-1936.5718 6418.7817 1394.3871 -0.255 -0.918 -0.304 45 156 193
-1838.3861 6270.4370 1317.8083 0.542 -0.805 0.239 57 121 165
-1771.1085 6184.7549 1264.5796 -0.540 -0.834 0.113 43 83 111
-1975.0325 7191.6299 1390.5142 0.117 -0.957 -0.264 21 42 61
-1609.7323 6387.4478 1117.5573 0.063 -0.993 -0.097 11 10 22
-1596.1228 6419.5537 1104.4468 0.100 -0.989 -0.109 53 43 50
-1588.6176 6432.8750 1097.4246 0.083 -0.992 -0.092 171 157 158
-3849.6992 4909.9565 3077.2141 0.251 -0.732 -0.634 232 229 214
-3846.3452 4923.4995 3073.6892 0.385 -0.551 -0.740 239 229 217
-3837.0869 4929.1787 3065.5366 0.364 -0.557 -0.747 221 203 193
-3879.3379 5004.1797 3097.7212 0.473 -0.440 -0.763 153 129 121
-2436.9023 5883.2417 1827.8503 -0.072 -0.937 -0.343 187 171 162
-2384.9683 5868.6572 1784.4292 0.010 -0.852 -0.523 21 23 31
-2243.1787 6104.5693 1652.1656 -0.270 -0.659 -0.702 156 201 234
-2198.2771 6107.0981 1613.8712 -0.229 -0.961 0.157 88 172 211
-2205.6736 6161.5195 1617.4514 -0.368 -0.821 0.437 89 184 226
-2161.1814 6165.2798 1579.4437 0.953 0.061 -0.296 30 100 124
-2146.8550 6190.5122 1566.0105 0.826 -0.548 -0.130 166 178 210
-2134.9451 6188.9717 1555.9630 0.680 -0.672 0.294 184 181 211
-2123.9988 6190.2622 1546.5940 -0.279 -0.922 -0.268 193 184 209
-2107.8799 6210.3252 1531.8942 0.801 -0.538 0.263 159 149 169
-2093.8645 6202.1362 1520.3877 0.795 -0.562 0.231 174 161 186
-2071.6104 6203.2261 1501.4164 -0.407 -0.897 0.174 171 177 199
-2005.4594 6353.0532 1437.7316 0.645 -0.357 -0.676 132 243 249
-1971.6404 6391.2163 1407.0853 0.686 -0.705 0.180 98 227 252
-1941.3163 6403.3296 1380.7057 -0.213 -0.965 -0.153 63 173 211
-1878.4113 6379.5454 1328.4165 0.991 -0.108 0.075 57 121 165
-1558.3442 6312.8062 1059.6633 -0.005 -0.796 -0.606 209 187 184
-3912.7590 4963.4551 3110.1965 0.032 -0.973 0.227 228 230 216
-3894.2615 4975.2061 3093.8877 0.474 -0.444 -0.761 239 229 217
-3889.8159 4987.5088 3089.4744 0.474 -0.444 -0.761 221 203 193
-3890.6257 5006.9126 3089.1509 0.473 -0.440 -0.763 153 129 121
-3883.6033 5015.8594 3082.7256 0.355 -0.513 -0.781 143 115 107
-2389.5945 5857.5454 1771.1061 -0.043 -0.991 -0.130 21 23 31
-2259.4731 6060.3604 1650.1227 -0.081 -0.587 -0.805 160 209 242
-2253.2061 6107.0391 1642.3729 -0.304 -0.648 -0.699 139 199 232
-2168.4644 6193.5098 1565.9589 0.961 0.022 -0.276 45 90 118
-2161.2021 6205.9233 1559.1495 0.858 -0.501 -0.110 138 151 183
-2131.3018 6184.7061 1534.8823 -0.448 -0.879 -0.165 195 182 208
-2117.5757 6177.5332 1523.6085 -0.418 -0.900 -0.122 169 155 179
-2057.7344 6201.8086 1471.5645 -0.455 -0.851 -0.262 160 188 203
-2036.9482 6207.0854 1453.6510 -0.627 -0.759 -0.174 190 242 246
-2015.5751 6174.7925 1437.1969 -0.407 -0.904 -0.132 202 255 255
-1976.2228 6191.1797 1402.9500 0.420 -0.800 0.429 157 251 251
-1882.2297 6322.0898 1316.3702 0.976 -0.023 -0.217 65 148 191
-1611.3927 6278.4673 1088.8190 0.305 -0.755 -0.581 11 17 29
-1589.0776 6316.4028 1067.9067 0.252 -0.955 -0.155 53 43 49
-1610.0709 6447.2007 1078.9066 0.199 -0.927 -0.319 171 157 158
-1565.0476 6303.9238 1048.1656 0.166 -0.952 -0.256 209 187 184
-3975.5088 5034.1440 3141.5659 -0.053 -0.998 -0.021 228 230 216
-3874.2661 4918.3408 3062.1096 -0.081 -0.820 -0.566 231 229 214
-3898.7075 5005.3354 3078.0769 0.382 -0.507 -0.772 153 129 121
-3894.2742 5017.7515 3073.6453 0.357 -0.518 -0.777 143 115 107
-2404.6138 5872.8633 1765.2100 -0.030 -0.987 -0.158 21 23 31
-2270.5923 6097.8784 1639.4299 0.090 -0.383 -0.919 144 195 226
-2272.7690 6136.1743 1639.1887 0.690 -0.656 -0.306 128 196 232
-2222.2312 6123.4507 1597.0715 -0.353 -0.640 -0.682 64 182 219
-2214.7429 6134.8120 1590.1096 -0.111 -0.905 0.411 66 195 233
-2170.7383 6206.9419 1548.9065 0.937 -0.258 -0.236 101 118 148
-2141.9277 6189.1470 1525.4702 -0.443 -0.884 -0.147 142 127 155
-2119.8909 6191.2212 1506.6901 -0.489 -0.812 0.319 65 51 74
-2088.0684 6163.1367 1481.2627 -0.320 -0.900 0.297 121 121 142
-2086.4448 6192.7314 1478.2760 0.670 -0.646 0.365 145 154 175
-2072.5691 6254.9146 1463.1364 0.724 -0.372 -0.580 174 216 224
-2044.3734 6201.8438 1442.1416 -0.617 -0.768 -0.173 197 245 249
-2018.6655 6155.9883 1422.8616 -0.401 -0.901 -0.164 208 255 255
-2011.4727 6203.9473 1414.1572 0.782 -0.612 -0.115 190 254 250
-1949.6439 6183.2715 1362.9086 0.722 -0.486 0.491 106 237 243
-1985.3563 6337.8013 1384.7461 0.884 -0.106 0.456 97 234 243
-1837.2714 6210.1445 1266.2556 -0.223 -0.767 0.602 40 96 139
-1798.2476 6186.7300 1234.4739 0.606 -0.703 0.373 43 83 112
-1788.5853 6190.6074 1226.0780 0.606 -0.703 0.373 36 71 96
-1777.9514 6190.9526 1217.0513 0.224 -0.848 0.481 28 57 80
-1621.6266 6284.1201 1079.5574 0.607 -0.793 -0.055 22 29 40
-1597.1418 6313.1699 1057.2349 0.767 -0.635 0.087 53 43 47
-1576.0066 6356.7036 1036.9611 0.701 -0.708 0.087 212 186 181
-3906.3303 5021.4897 3065.6155 0.357 -0.518 -0.777 150 123 115
-3782.0542 4890.6074 2967.9595 -0.012 -0.998 0.064 144 114 89
-2432.9548 5892.4902 1770.2418 0.456 -0.879 -0.137 19 19 22
-2284.4810 6079.1162 1634.0907 -0.058 -0.588 -0.807 169 208 232
-2284.5906 6111.3218 1632.3542 0.088 -0.392 -0.916 178 218 249
-2274.5667 6115.5459 1623.6381 0.853 -0.522 -0.027 127 176 231
-2264.7502 6120.3350 1615.0653 0.796 -0.603 -0.052 85 149 207
-2249.5664 6142.4702 1600.9684 -0.361 -0.624 -0.693 59 173 219
-2223.3135 6133.1606 1579.2974 -0.166 -0.930 0.327 57 197 237
-2172.1680 6217.8862 1531.2360 0.937 -0.258 -0.236 129 128 160
-2127.3240 6186.0898 1495.1213 -0.491 -0.811 0.318 95 89 111
-2096.5020 6161.1768 1470.4727 -0.320 -0.902 0.289 53 62 82
-1997.6306 6096.0605 1390.5642 0.741 -0.519 -0.426 215 255 255
-2014.6771 6185.3037 1399.9103 0.795 -0.598 -0.100 205 254 255
-2034.1222 6283.1548 1410.7958 0.645 -0.265 0.717 186 253 252
-1973.9423 6306.8721 1358.5598 0.840 -0.211 0.499 91 223 253
-1966.5985 6319.6899 1351.6219 0.840 -0.211 0.499 86 212 246
-1786.6143 6190.2598 1206.7760 0.402 -0.673 0.620 21 51 75
-1628.8009 6277.4780 1068.3735 0.402 -0.848 -0.344 3 11 17
-1597.6779 6322.3140 1039.5090 0.595 -0.800 0.081 172 156 156
-1584.8748 6312.9609 1029.2137 0.608 -0.793 0.036 206 185 186
-1576.8193 6323.1465 1021.8235 0.600 -0.798 0.053 210 183 185
-3999.4092 5040.9614 3125.0200 -0.086 -0.991 -0.100 227 231 216
-3922.4412 4957.7798 3064.9678 -0.080 -0.802 -0.592 230 230 214
-3928.9109 4984.4277 3068.8530 0.323 -0.389 -0.863 234 226 213
-3923.6731 5013.9312 3062.6868 0.357 -0.518 -0.777 167 145 136
-3918.4065 5025.2344 3057.5728 0.357 -0.518 -0.777 149 122 114
-2470.6770 5877.2080 1785.1050 0.702 -0.709 -0.067 181 169 159
-2462.5769 5885.9316 1777.7516 0.702 -0.709 -0.067 104 95 89
-2454.4695 5894.6641 1770.3914 0.702 -0.709 -0.067 17 11 10
-2446.7046 5904.2817 1763.2679 0.679 -0.729 -0.084 19 19 22
-2446.6401 5933.3135 1761.4965 0.646 -0.763 -0.024 18 25 31
-2323.5525 6035.1333 1651.5720 -0.115 -0.644 -0.757 40 78 99
-2289.1433 6130.5610 1616.8824 0.900 -0.312 -0.305 117 167 222
-2181.9915 6185.9629 1523.1550 0.974 -0.191 -0.119 37 55 85
-2136.6975 6186.8218 1484.8700 -0.474 -0.823 0.313 143 137 158
-2102.0115 6184.6353 1455.7196 0.790 -0.560 -0.250 63 79 100
-2088.2559 6211.7017 1442.5072 0.666 -0.551 -0.504 177 205 217
-2038.2847 6160.9844 1403.3241 -0.526 -0.779 -0.342 216 255 255
-2009.7175 6140.9531 1380.3942 0.736 -0.606 -0.301 203 255 254
-2014.0717 6446.6924 1365.9883 0.271 -0.825 0.496 86 212 247
-2005.8066 6457.2153 1358.3892 0.647 -0.593 0.478 76 196 233
-1984.2338 6423.1777 1342.1917 0.234 -0.601 0.764 70 184 226
-1947.6445 6375.9434 1314.0988 0.161 -0.701 0.694 68 166 213
-1789.9385 6170.4805 1193.1244 0.392 -0.674 0.626 19 50 75
-1632.6630 6299.8145 1052.7134 0.165 -0.747 -0.644 16 19 16
-1646.8800 6443.0342 1056.2445 -0.232 -0.934 -0.272 68 58 56
-1635.4301 6440.2241 1046.7455 -0.217 -0.945 -0.245 172 156 156
-3917.0056 4938.5029 3043.7068 -0.137 -0.977 -0.165 230 230 214
-3942.0173 4989.5244 3061.6467 0.323 -0.389 -0.863 234 226 213
-3936.3982 5018.5171 3055.1289 0.347 -0.520 -0.780 167 146 137
-3931.1055 5029.7910 3049.9758 0.347 -0.520 -0.780 148 122 114
-2501.0842 5872.4297 1793.1426 0.846 -0.437 -0.306 191 172 157
-2482.7754 5856.1533 1778.7153 0.658 -0.753 -0.015 191 172 158
-2453.6970 5899.1211 1751.5703 0.679 -0.729 -0.084 19 19 22
-2375.6333 5995.8857 1679.8396 0.835 -0.540 0.101 31 61 87
-2358.3137 5980.7388 1666.1763 0.956 -0.258 -0.137 23 53 79
-2356.8572 6007.3281 1663.3141 0.932 -0.272 -0.241 17 48 72
-2324.8708 6014.2236 1635.9364 0.469 -0.707 -0.530 65 101 123
-2325.0259 6045.6240 1634.1366 0.353 -0.759 -0.547 123 160 179
-2319.1355 6092.3027 1626.3032 0.180 -0.359 -0.916 163 198 218
-2190.0437 6182.6978 1511.9646 0.948 0.054 -0.315 43 55 82
-2169.4573 6189.3594 1494.2075 -0.402 -0.914 0.046 132 120 144
-2145.6201 6186.1958 1474.3154 -0.463 -0.825 0.323 89 85 101
-2101.8779 6295.6968 1430.7233 0.414 -0.891 0.186 210 255 255
-2047.9382 6162.9565 1393.4313 -0.534 -0.804 -0.261 202 249 253
-2014.6763 6093.5684 1369.6686 -0.214 -0.976 0.043 205 255 254
-1890.2991 6188.1719 1259.0442 0.680 -0.420 0.600 57 150 199
-1778.5494 6136.4175 1168.0587 -0.026 -0.951 0.307 26 52 75
-1654.9984 6439.3647 1045.3213 -0.161 -0.962 -0.222 68 58 56
-3591.0898 3015.3059 2874.4966 -0.422 -0.790 -0.445 222 220 205
-3464.8953 2911.6333 2774.9590 -0.588 -0.721 -0.366 223 221 208
-3935.0176 4950.1001 3040.3296 -0.142 -0.975 -0.172 230 230 214
-3955.1523 4994.6318 3054.4248 0.323 -0.389 -0.863 234 226 213
-3947.0239 5020.2939 3045.9495 0.376 -0.594 -0.711 167 146 137
-3941.1267 5030.7578 3040.3208 0.376 -0.594 -0.711 149 123 115
-3936.9604 5043.5669 3035.9990 -0.394 -0.901 -0.180 144 115 104
-2490.2312 5852.3149 1767.4081 0.225 -0.860 -0.457 191 172 158
-2384.2598 5994.6465 1669.1823 0.823 -0.558 0.105 9 39 65
-2267.3245 6147.3984 1561.0687 -0.686 -0.561 -0.463 66 181 214
-2174.8916 6178.4019 1481.3364 0.513 -0.738 0.438 58 46 64
-2164.2498 6180.6147 1472.2432 0.551 -0.792 0.262 82 74 87
-2122.9543 6158.8364 1438.8959 0.602 -0.561 -0.569 163 173 193
-2059.3193 6347.9155 1373.2996 0.928 -0.285 -0.241 136 248 255
-2056.8674 6450.5444 1364.6874 0.762 -0.179 0.622 99 239 255
-1820.7664 6141.3901 1185.8110 0.466 -0.799 0.379 42 84 116
-1598.8303 6304.7056 988.6975 -0.070 -0.532 -0.844 210 183 186
-3844.1951 3193.4268 3062.4556 0.057 -0.763 -0.644 223 221 208
-3838.4778 3253.0405 3053.7109 0.117 -0.145 -0.983 226 222 210
-3832.3521 3258.4104 3048.2119 0.091 -0.134 -0.987 223 216 206
-3873.5615 3329.0593 3078.1426 0.181 -0.982 0.046 224 215 206
-3711.9863 3235.2615 2948.6694 0.663 -0.618 -0.423 222 218 207
-3950.8723 4958.8149 3035.2478 -0.045 -0.955 -0.293 229 229 213
-3971.2554 5003.6143 3049.4001 0.383 -0.575 -0.723 234 226 213
-3967.6040 5016.9829 3045.4497 0.375 -0.575 -0.727 234 218 207
-3960.2212 5025.4639 3038.6892 0.373 -0.597 -0.710 192 171 162
-3954.2952 5035.8984 3033.0227 0.373 -0.597 -0.710 141 115 107
-2351.4595 5945.4131 1626.9174 0.111 -0.783 -0.612 20 51 75
-2317.8069 6165.5049 1584.0986 0.903 -0.277 -0.330 36 126 161
-2299.9204 6148.1753 1570.2253 0.655 -0.724 -0.217 43 147 179
-2302.7070 6188.1870 1569.9183 0.463 -0.872 -0.157 72 182 209
-2204.9351 6172.7158 1488.8405 0.966 -0.220 -0.138 97 95 116
-2185.0115 6181.2710 1471.5443 -0.340 -0.926 0.163 41 28 41
-2175.0117 6185.4102 1462.8734 -0.333 -0.931 0.152 40 32 39
-2131.0447 6155.8828 1427.9066 0.740 -0.648 -0.179 59 69 89
-2035.2324 6136.5308 1348.7311 0.630 -0.565 0.534 172 255 255
-2032.5172 6162.8193 1344.7120 0.588 -0.595 0.548 160 254 255
-2011.1632 6382.7305 1312.2327 0.664 -0.289 0.690 42 162 202
-1969.1688 6318.3125 1281.2305 0.223 -0.517 0.826 56 163 207
-1843.6774 6116.0054 1189.2358 0.602 -0.798 0.033 41 94 136
-1835.5519 6124.9365 1181.8219 0.599 -0.800 0.021 41 88 126
-1760.0237 6237.4790 1110.9540 0.679 -0.602 0.420 14 31 47
-3847.0928 3265.2253 3046.4019 0.802 0.045 -0.595 217 210 200
-3854.2725 3282.6934 3051.2239 0.679 -0.084 -0.729 219 210 201
-3882.9622 3319.8198 3072.7305 0.185 -0.969 0.161 219 210 201
-3855.8999 3306.2515 3050.9749 0.288 -0.953 0.091 223 214 205
-3797.8628 3275.1753 3004.4531 0.166 -0.986 0.005 227 218 209
-3724.2354 3229.1760 2945.8848 0.635 -0.646 -0.423 225 218 208
-3962.4304 4961.8726 3026.8884 -0.106 -0.994 -0.028 229 229 213
-3973.5149 4994.3989 3033.9526 0.722 -0.518 -0.459 234 226 213
-3974.0793 5013.2671 3033.1335 0.735 -0.498 -0.460 234 218 207
-3969.6997 5025.6968 3028.6111 0.735 -0.496 -0.462 192 171 162
-3964.2766 5036.7896 3023.3054 0.735 -0.498 -0.460 141 115 107
-3953.4001 5040.6670 3013.9226 0.734 -0.493 -0.467 143 114 103
-2520.4207 5853.4902 1757.0533 0.159 -0.481 -0.862 186 167 152
-2372.3643 5916.7349 1628.6129 0.166 -0.530 -0.832 9 39 65
-2331.1404 6081.7427 1582.7561 0.922 -0.254 -0.292 164 204 224
-2318.2935 6173.4858 1565.7042 0.486 -0.843 -0.232 44 151 176
-2309.3191 6180.8667 1557.6760 0.486 -0.843 -0.232 58 165 187
-2180.3042 6174.1060 1449.9915 0.497 -0.850 0.175 31 28 27
-2170.4109 6178.4922 1441.3981 -0.311 -0.899 0.309 16 19 18
-2131.7212 6164.5396 1409.9216 0.814 -0.529 -0.241 164 188 201
-2124.9177 6178.0293 1403.2949 0.814 -0.529 -0.241 214 254 255
-2037.8868 6151.4531 1332.1608 0.744 -0.551 0.377 144 248 255
-1899.8588 5784.7896 1241.5692 -0.316 -0.916 0.245 113 234 254
-1875.0936 5739.1235 1223.9371 -0.268 -0.960 0.084 104 232 255
-1966.6377 6279.7280 1263.6508 0.085 -0.567 0.819 65 172 216
-1809.9502 6006.4282 1151.0237 0.133 -0.591 -0.795 37 83 119
-1770.7045 6052.9570 1114.9393 0.030 -0.293 -0.956 36 54 71
-4621.0933 3753.8513 3645.7568 0.197 -0.551 -0.811 220 216 204
-3776.7539 3142.1885 2982.5366 0.005 -0.832 -0.554 213 211 198
-3862.1926 3283.3032 3044.0381 0.679 -0.080 -0.730 183 174 165
-3732.0442 3229.8547 2938.9160 0.661 -0.489 -0.570 214 207 197
-3979.1172 4971.6001 3022.3240 -0.038 -0.999 0.026 230 228 213
-3976.9714 4986.7896 3019.4529 0.731 -0.509 -0.455 234 226 213
-3989.4053 5094.5596 3022.2256 0.355 -0.933 0.055 144 114 88
-2393.3066 6099.0444 1615.4951 0.119 -0.297 -0.947 143 179 201
-2333.2153 6093.9097 1565.5750 0.922 -0.254 -0.292 120 168 190
-2329.5266 6178.9624 1556.4655 0.813 -0.516 0.272 12 121 141
-2041.1825 6133.7192 1318.3857 -0.216 -0.973 -0.081 124 237 251
-1963.1372 6060.3755 1258.2721 0.814 -0.452 0.365 80 213 249
-2018.5660 6310.0767 1286.9720 -0.398 -0.811 0.428 71 194 233
-1779.7579 6167.4370 1097.2407 0.785 -0.489 0.379 11 28 44
-2918.5989 2264.3130 2316.5930 -0.276 -0.871 0.407 221 215 199
-3870.2590 3284.0415 3036.9570 0.679 -0.091 -0.729 187 179 169
-3861.5823 3320.3364 3027.0547 0.685 -0.112 -0.720 213 205 195
-4003.5957 4991.4155 3023.4600 -0.172 -0.984 0.042 231 228 213
-2512.8306 6109.3301 1696.4211 0.071 -0.994 -0.078 1 32 57
-2506.7754 6154.4868 1688.0603 0.387 -0.919 0.071 0 32 57
-2488.9253 6139.4082 1674.2524 0.363 -0.931 0.049 3 35 60
-2426.0012 6038.3643 1629.0807 -0.398 -0.563 -0.724 15 46 73
-2410.3486 6088.8740 1612.3114 0.107 -0.306 -0.946 139 171 194
-2344.0847 6161.5850 1551.6414 0.964 -0.259 -0.058 82 181 198
-2335.3169 6169.4888 1543.7394 0.815 -0.505 0.285 62 165 182
-2188.0391 6176.6646 1420.1896 -0.345 -0.939 0.002 170 176 170
-1956.4138 6045.3481 1236.3113 0.792 -0.447 0.416 70 196 237
-3873.9082 3313.8420 3023.9910 0.665 -0.109 -0.739 216 211 200
-3869.4670 3320.8840 3019.7561 0.689 -0.109 -0.716 216 211 199
-3808.2170 3275.8789 2972.0781 0.107 -0.938 -0.331 216 211 200
-4007.6323 4984.6079 3009.4194 0.074 -0.995 0.066 234 227 215
-2531.9617 5986.3696 1703.3151 0.098 -0.532 -0.841 11 23 31
-2524.0386 6054.5615 1691.5624 0.131 -0.905 0.404 4 18 40
-2344.4424 6106.0562 1537.9177 0.923 -0.253 -0.290 30 85 108
-2228.3079 6134.8989 1438.9006 0.790 -0.568 0.230 91 91 105
-2212.7168 6155.6313 1424.3353 0.798 -0.564 0.214 169 170 182
-2193.7290 6166.6523 1407.6704 -0.153 -0.988 0.026 161 167 175
-2111.2632 6225.1465 1334.4910 0.972 -0.232 0.018 121 236 255
-1901.8774 5776.9648 1193.7124 -0.573 -0.816 -0.078 51 198 227
-1820.4268 6098.8950 1101.5000 -0.315 -0.931 0.186 24 46 60
-2779.6926 2159.8223 2189.1057 -0.393 -0.874 0.285 204 198 184
-3874.7917 3319.0940 3010.5015 0.269 -0.061 -0.961 215 211 199
-3729.5469 3197.3452 2899.0686 0.715 -0.258 -0.650 215 211 200
-4066.2793 5048.5381 3035.3779 0.207 -0.751 0.627 234 226 215
-2563.2690 5925.5635 1716.0490 0.135 -0.517 -0.845 167 160 151
-2346.2134 6086.1636 1522.8790 0.865 -0.500 -0.045 64 104 131
-2322.9810 6213.0566 1493.6703 -0.346 -0.709 -0.615 10 45 72
-2220.1633 6118.2134 1415.4615 0.440 -0.786 0.434 116 125 140
-2157.9111 6168.0532 1359.7660 -0.300 -0.899 0.320 72 111 121
-2148.2080 6172.8130 1351.3187 -0.173 -0.922 0.346 67 120 133
-2118.8875 6255.1558 1320.5076 0.949 -0.161 0.269 105 222 253
-2059.9290 6247.2510 1272.0450 -0.331 -0.814 -0.477 49 193 222
-1920.3296 5841.5044 1187.4014 -0.602 -0.730 -0.323 54 194 229
-2055.1953 6339.4214 1260.9357 -0.416 -0.908 -0.047 41 147 209
-1914.5500 6355.9937 1142.5728 -0.333 -0.688 -0.645 27 50 65
-1711.2877 6329.6309 975.4268 0.601 -0.795 -0.085 13 12 10
-397.9804 2012.2036 218.0392 -0.545 -0.298 -0.784 230 151 157
-3855.4922 2943.0012 3010.7773 -0.075 -0.775 0.627 217 211 195
-3959.7109 4916.3862 2939.3137 -0.112 -0.966 0.231 235 227 216
-3993.1306 5049.9053 2956.3892 0.351 -0.936 -0.029 141 114 91
-2583.8157 5924.6021 1715.2622 0.017 -0.548 -0.836 180 163 149
-2569.2070 5946.2158 1701.3920 0.017 -0.548 -0.836 79 77 73
-2567.9026 5971.5645 1698.2776 0.268 -0.448 -0.853 17 18 20
-2544.3250 6058.9468 1671.6868 0.117 -0.446 -0.887 115 139 160
-2537.8320 6072.3408 1665.2188 0.117 -0.441 -0.890 42 68 98
-2534.5903 6093.9077 1660.7975 -0.274 -0.837 0.474 45 75 106
-2438.9155 6121.8330 1579.0602 0.979 -0.190 -0.069 146 172 194
-2324.4375 6191.5000 1478.3549 -0.396 -0.678 -0.619 19 45 76
-2204.8459 6146.1035 1382.6167 0.907 -0.362 -0.214 144 156 174
-2191.0662 6139.0591 1371.7306 0.811 -0.584 0.038 159 176 187
-2186.8054 6159.6772 1366.5387 0.063 -0.970 0.236 175 198 209
-2155.2756 6166.8535 1339.7644 -0.313 -0.917 0.248 52 103 121
-2119.0771 6227.8706 1304.7981 0.949 -0.161 0.269 99 205 242
-2093.8281 6219.5977 1284.4800 0.978 -0.038 0.207 77 199 236
-2076.5588 6378.1372 1257.4314 -0.340 -0.939 0.052 49 150 210
-1900.5938 6277.0771 1119.3086 0.084 -0.718 -0.691 27 50 65
-1824.3359 6052.2256 1073.9525 -0.170 -0.942 0.289 24 45 58
-1716.6501 6316.1289 963.3332 0.615 -0.785 -0.076 13 12 10
-1701.1901 6380.2422 945.3514 0.528 -0.628 -0.572 191 173 173
-1693.7517 6393.0728 938.1429 0.528 -0.628 -0.572 202 178 180
-1456.4993 5612.5947 803.5132 0.532 -0.643 0.551 211 177 176
-3498.2568 2680.9233 2723.1565 -0.135 -0.809 0.572 206 200 184
-3999.1917 5045.6162 2943.8010 0.195 -0.950 -0.243 140 114 91
-3933.5593 5578.8691 2845.4136 -0.039 -0.715 0.698 136 102 77
-2594.3643 5927.9360 1705.7965 0.389 -0.420 -0.820 180 163 149
-2577.0078 5942.9756 1690.1600 0.518 -0.470 -0.714 79 77 74
-2573.4111 6020.0845 1680.8221 0.347 -0.326 -0.879 4 10 19
-2572.6899 6047.3203 1677.9792 0.108 -0.269 -0.957 65 83 95
-2567.0017 6062.5918 1672.0023 0.241 -0.240 -0.940 134 158 174
-2496.3552 6034.4736 1615.7190 -0.194 -0.841 0.504 181 224 250
-2364.6233 6025.1499 1507.2170 0.878 -0.373 0.300 155 185 205
-2360.2161 6136.9800 1494.3452 0.865 -0.284 -0.414 18 30 68
-2317.5840 6147.2617 1458.1349 0.109 -0.787 0.607 34 50 87
-2295.9229 6151.2402 1439.8394 0.920 -0.391 -0.006 7 21 48
-2289.9443 6166.7139 1433.6051 0.923 -0.384 -0.004 18 33 58
-2268.8574 6172.2085 1415.6608 -0.356 -0.932 0.073 23 37 62
-2255.2302 6166.1675 1404.8551 -0.356 -0.932 0.073 35 48 72
-2241.6545 6160.1504 1394.0900 -0.356 -0.932 0.073 14 28 51
-2217.6060 6124.0234 1377.1191 0.527 -0.788 0.320 38 53 76
-2217.5151 6156.4160 1374.3744 0.906 -0.366 -0.213 92 109 130
-2196.1631 6160.4639 1356.3293 0.096 -0.961 0.258 127 156 170
-2089.1555 6177.4385 1266.1687 0.979 -0.044 0.198 76 184 228
-1764.6714 5924.2383 1017.8784 -0.278 -0.905 0.323 12 28 43
-1724.3275 6311.5459 952.4952 0.599 -0.779 0.183 13 12 10
-1705.0493 6360.5732 932.4637 0.439 -0.884 0.161 191 173 173
-1675.6293 6329.0601 910.6570 0.441 -0.887 0.137 205 175 180
-2950.8870 2171.7126 2301.3015 0.399 -0.709 -0.582 204 198 182
-3967.1172 4919.9712 2909.9426 0.932 -0.293 -0.211 234 225 216
-3965.4617 4935.5239 2907.2542 0.924 -0.314 -0.219 233 225 214
-4018.7346 5022.7544 2943.9758 0.824 -0.477 -0.305 156 148 134
-3946.8359 4982.6025 2887.8425 0.345 -0.938 -0.033 143 114 87
-2576.0806 6062.1001 1661.3502 0.347 -0.344 -0.873 57 82 98
-2515.1755 6029.0859 1613.7157 -0.187 -0.852 0.489 14 60 86
-2503.3677 6029.0342 1603.9427 -0.194 -0.841 0.504 36 81 107
-2464.7366 5990.9009 1575.1853 0.077 -0.929 0.363 41 78 103
-2458.0166 6003.3872 1568.5631 0.121 -0.955 0.271 62 107 131
-2443.7056 6056.2588 1552.2336 0.989 -0.071 -0.132 135 175 192
-2414.9321 6072.4482 1527.0367 -0.350 -0.887 0.302 148 185 203
-2366.6748 6006.6660 1492.6509 0.877 -0.374 0.303 148 185 203
-2337.1265 6112.4722 1459.2197 0.195 -0.908 0.371 13 26 64
-2254.4736 6138.2202 1388.5988 -0.304 -0.952 0.044 19 41 70
-2192.4209 6156.1714 1335.6960 -0.240 -0.957 0.165 14 50 73
-1899.9644 6140.9370 1094.8218 0.373 -0.654 0.659 28 61 82
-1805.0383 5962.8110 1031.3105 0.863 -0.444 -0.243 14 31 45
-1730.1051 6299.8335 940.7101 0.541 -0.825 0.161 13 12 10
-1707.4972 6335.6772 918.9533 0.589 -0.794 0.152 190 172 172
-1700.5397 6350.0195 911.9771 0.602 -0.795 0.079 191 167 169
-3980.7317 4908.1353 2904.6421 -0.066 -0.962 0.263 235 227 216
-3973.9644 4917.0093 2898.2759 0.933 -0.294 -0.205 233 224 215
-3973.7776 4934.4351 2896.6050 0.940 -0.283 -0.190 233 225 214
-3972.6125 4950.6685 2894.2292 0.938 -0.295 -0.181 156 149 134
-4024.0913 5035.6836 2929.3821 0.842 -0.486 -0.234 134 120 103
-2646.5718 5951.5835 1711.0358 0.678 -0.520 -0.519 176 154 140
-2649.3425 5986.0654 1710.3252 0.509 -0.488 -0.709 176 154 140
-2617.7822 5939.9878 1688.2482 0.536 -0.551 -0.639 173 156 142
-2599.2571 5952.3472 1671.8599 0.532 -0.456 -0.713 71 70 66
-2598.2683 6064.3604 1661.2942 0.300 -0.443 -0.845 72 90 102
-2590.2693 6074.0312 1653.8407 -0.130 -0.966 0.224 138 163 180
-2522.3684 5995.0156 1604.5913 -0.175 -0.962 -0.209 173 219 244
-2506.8904 5985.7939 1592.6001 -0.223 -0.951 -0.216 167 214 239
-2497.3311 5991.1582 1584.2317 0.283 -0.750 -0.597 158 205 226
-2484.7805 5989.0391 1574.0420 -0.083 -0.975 0.207 158 204 228
-2475.6763 5995.5010 1565.9541 -0.130 -0.897 -0.423 146 192 214
-2459.6025 6103.6548 1543.2555 0.892 -0.102 -0.441 153 198 213
-2405.7710 6055.0493 1502.9891 -0.392 -0.840 0.375 145 189 204
-2375.3003 6066.3608 1476.8180 0.803 -0.019 -0.595 134 166 192
-2367.7512 6139.0898 1464.2487 0.835 -0.035 -0.550 14 31 62
-2342.1626 6101.3789 1446.3794 -0.184 -0.975 0.124 9 32 66
-2267.6936 6054.2930 1388.9222 0.891 -0.182 -0.415 10 32 63
-2237.0618 6127.7832 1357.2067 0.896 -0.350 -0.274 14 42 74
-2231.9075 6145.5288 1351.4019 0.896 -0.350 -0.274 13 43 73
-2225.1492 6191.6270 1341.8036 0.886 -0.354 -0.298 14 52 77
-2116.5317 6104.5718 1259.5983 -0.227 -0.907 0.354 1 56 110
-2096.5327 6111.2998 1242.4819 0.752 -0.658 0.039 29 101 156
-2081.4661 6132.9946 1228.1400 0.812 -0.345 -0.470 44 132 180
-1737.9807 6296.1152 930.0241 0.410 -0.909 -0.070 13 12 10
-1730.7891 6309.2358 922.9377 0.406 -0.912 -0.061 16 11 8
-1722.4561 6318.1084 915.2776 0.434 -0.899 -0.053 94 84 82
-1714.9802 6330.2988 908.0372 0.515 -0.856 -0.043 190 172 172
-1705.8484 6336.1948 899.9759 0.515 -0.856 -0.043 191 167 169
-1683.3934 6290.4736 885.3940 0.370 -0.926 0.071 195 165 169
-1546.8627 5837.5649 811.9556 0.214 -0.942 0.260 200 164 167
-1445.4440 5475.7397 759.6133 -0.621 -0.765 -0.172 200 166 165
-1364.3381 5368.1138 701.9390 -0.135 -0.539 -0.832 203 169 167
-3987.7937 4905.4766 2893.1531 -0.066 -0.962 0.263 235 227 216
-3984.0759 4918.2666 2888.9429 0.477 -0.166 -0.863 234 225 216
-3982.8713 4934.3545 2886.5120 0.477 -0.166 -0.863 233 225 214
-3985.9841 4956.1167 2887.1362 0.497 -0.156 -0.854 156 148 134
-2610.8169 6072.2031 1652.7350 0.300 -0.443 -0.845 40 57 69
-2596.9834 6067.7666 1641.7170 -0.192 -0.950 0.247 57 79 97
-2572.1592 6065.5513 1621.4315 -0.217 -0.942 0.254 38 81 107
-2532.6123 5997.6919 1594.8619 -0.199 -0.957 -0.212 9 54 80
-2507.8979 5994.7227 1574.7347 0.283 -0.750 -0.597 36 77 101
-2495.0271 5991.8535 1564.3707 -0.127 -0.969 -0.211 41 85 110
-2485.3628 5996.9272 1555.9431 -0.115 -0.861 -0.496 68 109 134
-2475.1462 6000.6050 1547.1844 -0.115 -0.861 -0.496 80 121 148
-2463.1885 5999.8623 1537.3842 -0.087 -0.851 -0.518 98 145 169
-2468.6167 6043.1934 1537.9922 0.877 -0.108 -0.468 170 218 226
-2475.3206 6090.1367 1539.3303 0.854 -0.217 -0.473 171 220 229
-2462.0449 6086.2651 1528.7220 0.931 -0.168 -0.325 171 221 234
-2370.7366 6122.4702 1450.1459 -0.047 -0.996 0.074 77 113 140
-2280.1921 6032.6406 1383.4592 0.892 -0.202 -0.404 21 44 78
-2274.4011 6047.9307 1377.3149 0.891 -0.182 -0.415 29 46 81
-2263.4011 6112.2217 1362.4952 -0.072 -0.971 0.230 0 28 63
-2254.1208 6118.1709 1354.3063 -0.083 -0.978 0.192 0 28 64
-2241.8691 6115.7163 1344.4163 0.705 -0.592 0.391 0 28 64
-2234.4919 6127.0352 1337.3180 0.681 -0.625 0.382 0 28 63
-2197.8665 6119.4849 1307.7715 0.482 -0.491 0.726 9 46 78
-2138.1501 6076.1133 1262.3718 0.652 -0.478 0.589 14 51 110
-2109.2615 6089.3384 1237.3535 0.764 -0.643 0.054 1 53 111
-2091.1731 6101.6250 1221.3306 0.739 -0.671 0.060 52 121 178
-1739.0376 6306.8950 912.4340 0.413 -0.908 -0.068 16 11 8
-1729.6569 6311.7764 904.2575 0.413 -0.908 -0.068 94 84 82
-1705.4738 6300.7412 885.2889 0.547 -0.822 0.159 191 167 169
-1691.1859 6286.5464 874.7676 0.370 -0.926 0.071 195 165 169
-3994.9490 4920.4946 2880.1365 0.147 -0.257 -0.955 234 225 216
-3992.3545 4934.7749 2876.6907 0.147 -0.257 -0.955 232 224 213
-3989.3010 4966.2861 2871.2881 0.111 -0.265 -0.958 134 121 103
-3982.3970 5551.0674 2812.0159 -0.576 -0.703 -0.416 144 112 87
-2639.4995 5975.8501 1666.9650 0.443 -0.445 -0.778 159 153 143
-2625.6118 6085.3843 1645.4888 0.175 -0.850 0.496 79 95 106
-2584.0969 6072.0513 1612.5153 -0.047 -0.899 0.435 184 221 247
-2542.2568 5998.8784 1584.7572 -0.189 -0.958 -0.214 155 195 220
-2527.0991 5990.5767 1573.0327 -0.227 -0.950 -0.217 156 198 215
-2514.5339 5988.5459 1562.8690 0.228 -0.738 -0.635 113 155 180
-2506.5806 5997.8877 1555.4619 -0.188 -0.946 -0.263 131 170 195
-2503.0298 6018.2402 1550.6722 0.337 -0.441 -0.832 131 170 192
-2493.6833 6024.2090 1542.4268 0.280 -0.639 -0.716 81 122 148
-2480.4724 6050.0132 1529.1805 0.245 -0.662 -0.708 137 188 202
-2478.6516 6075.1743 1525.3751 -0.078 -0.904 -0.420 136 189 202
-2458.5247 6053.7769 1510.7577 -0.204 -0.912 -0.357 135 189 202
-2452.1389 6067.3721 1504.2521 -0.144 -0.820 0.555 134 189 201
