ply
format ascii 1.0
element vertex 790
property float x
property float y
property float z
property float nx
property float ny
property float nz
property uchar diffuse_red
property uchar diffuse_green
property uchar diffuse_blue
end_header
-2648.3093 3348.6995 819.1457 0.954 0.100 0.281 211 127 74
-2578.8582 3275.6028 794.0377 0.977 -0.211 0.025 211 127 74
-2578.2974 3285.7517 791.9769 0.969 -0.242 0.055 212 128 73
-2626.5261 3355.5076 806.1258 0.454 -0.705 0.545 211 127 78
-2618.7109 3357.0520 801.6100 0.454 -0.705 0.545 207 127 82
-2280.4622 3162.9717 651.3110 0.566 -0.391 -0.725 75 45 35
-2281.1274 3174.3203 649.7090 0.621 -0.236 -0.747 104 74 64
-2312.3894 3437.2192 621.2167 0.684 -0.524 -0.508 212 189 183
-2154.0432 3275.3533 563.1426 0.497 -0.855 0.145 209 186 180
-2743.4409 5119.0117 564.5608 0.212 -0.724 0.656 37 28 27
-2732.4248 5117.1113 558.9010 0.212 -0.724 0.656 34 26 24
-2639.9280 5018.2124 525.7292 -0.077 -0.928 -0.365 32 24 22
-2327.7336 4926.5742 371.8693 0.803 0.352 -0.481 161 121 109
-2430.1504 5198.4712 380.5015 0.903 0.306 -0.302 161 124 108
-2374.6370 5650.0781 272.1858 0.480 -0.393 0.784 99 82 64
-2190.3916 5707.0239 162.1735 0.517 -0.374 -0.770 33 20 12
-1896.6815 5123.6621 103.4400 0.933 0.184 -0.309 59 46 37
-1919.2512 5226.9663 97.8356 0.885 0.193 -0.423 58 45 36
-2004.6528 5619.0942 76.4156 0.705 -0.137 0.696 174 161 153
-1977.0706 5564.4409 70.8774 0.290 -0.834 0.470 182 167 160
-1884.9365 5348.1494 58.2143 -0.088 -0.988 0.129 191 173 169
-1842.8330 5249.8394 52.3356 0.826 0.146 0.545 201 183 181
-1855.5088 5330.2373 45.3159 0.835 0.185 0.518 178 158 157
-1874.3462 5407.1406 42.2505 0.851 0.207 0.483 171 151 150
-1886.3588 5464.7832 38.8075 0.850 0.212 0.482 170 150 149
-1345.5420 4210.9253 -38.2488 0.003 -0.819 0.574 251 244 252
-1650.1162 5684.1411 -127.5723 0.249 -0.606 -0.756 255 250 252
-1624.5482 5620.2412 -130.4156 0.058 -0.697 -0.715 247 239 243
-1598.5309 5631.2773 -146.4688 0.505 -0.245 -0.827 145 62 64
-4666.3564 2820.7583 1995.9182 0.136 -0.794 -0.592 130 126 117
-4683.9863 2862.2903 1998.2245 0.314 -0.733 -0.603 147 143 134
-4516.6001 2934.9187 1894.8456 0.697 0.023 0.717 149 148 143
-4567.4746 3008.9880 1909.4893 0.646 0.133 0.752 142 139 132
-4147.1909 2892.8469 1702.0060 0.006 -0.944 0.331 79 94 101
-3854.3154 2839.4741 1552.6117 0.235 -0.532 0.814 126 191 224
-3840.5881 2839.9890 1545.0830 0.425 -0.469 0.774 123 189 222
-3607.7466 2717.6365 1440.2576 0.001 -0.598 0.801 133 166 177
-3450.5383 2626.1157 1371.0372 0.004 -0.597 0.802 78 66 73
-3442.6477 2638.6440 1364.5752 0.196 -0.966 0.168 86 50 38
-3328.3960 2637.6001 1302.8450 -0.381 -0.925 0.002 154 90 63
-2814.7788 2531.6819 1043.0009 0.563 -0.634 0.531 112 90 80
-2807.8826 2534.2988 1038.8071 0.563 -0.634 0.531 115 93 80
-2806.6365 2541.6353 1036.8518 0.835 -0.527 0.160 123 103 86
-2800.1157 2544.5522 1032.8092 0.815 -0.535 0.224 130 111 94
-2796.8372 2550.1921 1030.0485 0.837 -0.523 0.163 132 113 98
-2787.7515 2593.2905 1017.6044 0.848 -0.521 -0.096 102 91 94
-2520.2205 3220.4971 763.1857 0.341 -0.730 0.592 219 125 69
-2605.9343 3335.9790 789.4824 0.254 -0.914 0.317 216 125 74
-2451.7849 3157.7849 737.0439 -0.217 -0.946 0.241 214 128 80
-2434.7627 3157.5896 727.8538 0.562 -0.701 0.439 194 123 81
-2278.3337 3155.0203 643.5341 0.631 -0.235 -0.740 75 46 35
-2284.5518 3173.7178 643.6409 0.507 -0.382 -0.772 104 74 64
-2746.1406 5114.8403 555.0551 0.230 -0.715 0.660 96 87 86
-2732.4160 5107.9727 548.8162 0.212 -0.724 0.656 79 71 69
-2421.8093 5152.0137 372.8152 0.883 0.351 -0.311 155 116 101
-2446.8452 5224.0938 373.8043 0.908 0.316 -0.276 153 116 100
-2481.2478 5356.4023 369.3595 0.712 -0.185 -0.677 159 124 105
-1956.1356 5252.5054 102.9336 0.476 -0.818 -0.322 60 46 37
-1918.0314 5212.9683 89.1843 0.917 0.175 -0.359 56 42 33
-2017.0999 5596.0718 76.0188 0.727 -0.119 0.676 127 112 105
-2010.7994 5601.5361 71.6512 0.727 -0.124 0.675 175 160 153
-2000.4982 5595.7583 67.0772 0.715 -0.136 0.686 182 167 160
-1888.5809 5347.3677 49.7730 -0.088 -0.988 0.129 191 173 169
-1827.8586 5217.6865 39.4968 0.818 0.211 0.534 186 168 166
-1854.1324 5315.0996 36.7363 0.912 0.277 0.304 176 156 155
-1874.2533 5603.8770 -2.7509 0.577 0.165 -0.800 237 224 231
-1830.2869 5494.7554 -7.5348 0.466 0.067 -0.882 248 237 244
-1633.7220 5639.4292 -139.2972 0.044 -0.682 -0.730 249 238 243
-1668.3281 5840.8105 -155.6846 0.268 -0.860 -0.434 107 51 47
-1756.1731 6357.9575 -198.3221 0.648 -0.137 0.749 246 88 93
-1735.4536 6311.3091 -201.4098 0.911 0.027 0.411 248 83 92
-1610.7235 5877.0894 -193.2308 0.257 -0.689 0.677 240 76 85
-1616.9401 5928.1729 -198.7759 0.343 -0.805 0.484 235 71 80
-4687.2920 2848.4966 1990.7224 0.629 -0.687 -0.365 144 137 128
-4499.4380 2930.1238 1874.8855 0.779 0.003 0.627 146 146 141
-4579.1372 3065.9080 1894.0424 0.628 0.115 0.770 164 158 148
-4150.0400 2889.7568 1693.2551 0.006 -0.944 0.331 101 118 128
-3551.1699 2646.1885 1412.6254 -0.101 -0.850 0.516 120 188 224
-3556.9985 2677.8262 1410.2067 -0.061 -0.724 0.687 139 174 191
-2851.7036 2516.3059 1057.6514 0.733 -0.675 -0.091 79 70 64
-2849.0198 2522.4580 1055.1191 0.756 -0.642 -0.126 92 77 73
-2815.8777 2520.2085 1037.6127 0.880 -0.472 -0.053 125 97 96
-2818.8323 2531.0032 1037.3091 0.560 -0.639 0.527 128 109 97
-2811.9092 2533.6077 1033.1111 0.560 -0.639 0.527 121 103 88
-2807.4377 2538.2468 1029.8795 0.835 -0.527 0.160 99 83 64
-2800.5764 2540.8767 1025.7103 0.815 -0.535 0.224 80 66 46
-2796.9001 2546.1748 1022.7922 0.845 -0.509 0.162 54 40 22
-2793.6008 2568.6758 1017.0505 0.896 -0.423 -0.139 90 77 60
-2793.3867 2585.4783 1013.9780 0.852 -0.515 -0.095 51 42 42
-2789.8950 2591.0017 1011.1201 0.848 -0.521 -0.096 59 50 52
-2448.9478 3138.8787 730.5403 -0.162 -0.967 0.197 219 124 71
-2444.6313 3143.9263 727.3205 -0.213 -0.973 0.094 214 125 72
-2435.0269 3152.8220 720.5671 0.562 -0.701 0.439 213 138 89
-2372.4165 3418.8418 639.9350 0.773 -0.459 0.438 211 187 180
-2182.9404 3328.9070 553.4120 0.282 -0.812 -0.510 209 188 181
-2805.9102 5159.3169 567.8206 0.586 -0.402 0.703 176 159 155
-2770.0398 5131.0288 553.4224 0.260 -0.689 0.676 160 148 147
-2420.8420 5140.4380 363.1410 0.885 0.350 -0.307 108 69 54
-2490.1594 5365.4248 360.9928 0.716 -0.182 -0.674 104 68 49
-2504.0674 5415.3184 359.7256 0.695 -0.130 -0.707 105 69 50
-1909.2981 5116.1763 91.0905 0.442 -0.840 -0.315 61 47 38
-1934.6960 5226.3945 85.4143 0.273 -0.928 -0.256 58 44 35
-1936.3420 5252.0942 81.7810 0.890 0.149 -0.431 60 46 37
-1962.9563 5346.1069 79.6138 0.885 0.211 -0.415 62 48 39
-1984.1781 5426.0918 77.0020 0.848 0.230 -0.478 66 51 44
-2028.7461 5593.8418 71.5570 0.899 0.192 -0.394 151 136 129
-2008.0288 5559.3159 66.4417 0.502 -0.220 0.836 182 166 159
-1993.8079 5542.5483 61.7106 0.499 -0.231 0.836 184 167 160
-1979.0131 5523.9697 56.9883 0.499 -0.239 0.833 183 168 161
-1896.2966 5358.1294 41.4906 -0.095 -0.986 0.140 185 167 163
-1843.4135 5273.1543 27.8781 0.862 0.263 0.434 161 141 140
-1663.8403 5705.7480 -145.2459 0.275 -0.613 -0.740 249 248 247
-1632.9453 5649.4287 -152.0238 0.049 -0.691 -0.722 174 164 164
-1753.1489 6331.6709 -207.1488 0.651 -0.134 0.747 243 88 92
-1616.6023 5857.2358 -197.4199 0.250 -0.700 0.669 244 84 90
-1602.4626 5859.9551 -205.5363 0.254 -0.688 0.680 233 72 80
-2945.7917 1722.1357 1241.1946 0.511 -0.007 -0.859 133 111 96
-4694.8877 2847.7007 1983.2545 0.106 -0.899 0.425 144 133 134
-4620.1851 2837.2112 1944.8927 0.322 -0.712 0.624 156 160 157
-4526.9033 3017.1851 1862.7299 0.967 -0.215 0.138 167 165 158
-3548.4495 2639.9219 1402.8329 -0.101 -0.850 0.516 123 191 226
-2876.0435 2540.4929 1058.4242 0.588 -0.784 -0.199 100 81 71
-2811.2642 2520.6843 1027.0593 0.877 -0.471 -0.094 124 109 96
-2804.6086 2523.4856 1022.9786 0.862 -0.494 -0.110 90 75 63
-2812.9805 2538.8223 1024.7649 0.772 -0.633 0.056 51 37 25
-2806.3574 2541.6667 1020.6942 0.790 -0.603 0.109 46 32 20
-2797.9607 2543.0034 1015.9358 0.823 -0.537 -0.186 104 90 78
-2800.0952 2553.2078 1015.2744 0.859 -0.126 -0.497 146 132 120
-2792.0386 2588.7126 1004.6360 0.848 -0.521 -0.096 71 63 59
-2965.3235 3023.5396 1020.7813 0.840 -0.211 -0.500 184 97 66
-2879.4399 2960.5232 985.7200 0.564 -0.609 -0.558 180 94 60
-2871.2434 2962.3403 980.9843 0.552 -0.663 -0.505 178 92 59
-2882.4270 3012.6589 978.0771 0.561 -0.599 -0.572 185 98 63
-2853.7202 2994.2283 965.8907 0.322 -0.719 0.616 176 90 49
-2434.4907 3147.0769 713.0371 0.567 -0.696 0.440 214 133 80
-2402.5630 3443.4226 643.2602 0.994 -0.065 -0.088 218 194 192
-2370.8970 3411.1270 631.9407 0.377 -0.737 0.561 210 191 187
-2182.0964 3333.3118 544.0905 0.241 -0.763 -0.600 197 183 178
-2155.2139 3326.9966 530.7365 -0.052 -0.985 -0.167 221 191 191
-2126.2341 3317.0591 516.8958 0.568 -0.821 -0.061 215 186 185
-2864.2717 4878.8311 637.1553 -0.069 -0.964 -0.258 203 179 173
-2667.5605 5079.1670 495.6887 0.120 -0.984 -0.135 110 95 93
-2505.0623 5387.1587 353.5405 0.657 -0.077 -0.750 130 91 73
-2319.0112 5681.6353 201.1087 0.157 -0.846 -0.510 95 78 62
-2313.6284 5690.7358 196.5956 0.154 -0.848 -0.507 94 76 61
-1919.3573 5132.7471 83.3165 0.518 -0.801 -0.301 60 46 37
-2032.2869 5592.0801 62.6154 0.899 0.192 -0.394 186 174 169
-1989.3009 5495.9502 56.5280 0.734 -0.155 0.661 185 172 166
-1978.3822 5488.1621 52.0308 0.727 -0.149 0.670 177 163 158
-1919.2148 5367.4258 41.5969 0.032 -0.929 -0.369 182 167 163
-1708.8616 5902.7656 -166.6606 0.163 -0.848 0.504 187 178 179
-1692.5029 5899.2607 -174.8469 0.154 -0.857 0.491 97 69 57
-1754.5026 6233.4375 -200.7623 0.413 -0.708 0.572 153 58 52
-1629.4739 5890.7183 -207.2685 0.439 -0.757 0.484 240 85 91
-1629.9454 5920.2192 -212.2495 0.414 -0.776 0.476 236 78 87
-1621.1309 5915.3945 -216.1396 0.449 -0.742 0.497 230 73 85
-2952.0400 1722.3729 1237.4750 0.511 -0.007 -0.859 140 114 96
-3870.3950 2347.3674 1618.5464 0.748 -0.248 -0.616 122 119 107
-4505.6577 2881.3831 1863.9553 0.995 0.067 -0.069 45 98 106
-4604.8506 2950.8474 1904.7651 0.969 0.244 -0.038 43 98 106
-4495.3901 2896.3494 1855.7670 0.968 0.008 -0.252 45 98 110
-4486.0952 2901.3464 1849.8842 0.975 -0.193 0.108 49 96 112
-4178.3188 2887.8066 1687.1180 0.010 -0.913 0.407 41 63 72
-3493.0950 2615.6235 1368.0461 0.971 -0.135 -0.197 134 193 214
-3408.8582 2655.8596 1315.6357 -0.353 -0.934 -0.057 77 48 37
-3159.6465 2553.0481 1200.2749 -0.338 -0.916 0.214 145 91 64
-3156.7473 2629.4844 1185.0427 0.506 -0.670 0.543 152 92 62
-3149.5491 2632.7788 1180.5898 0.457 -0.720 0.522 151 92 61
-2880.2908 2539.8850 1052.6952 0.613 -0.766 -0.194 105 84 71
-2809.9255 2540.5940 1014.8020 0.754 -0.649 -0.103 77 63 54
-2797.6292 2580.8652 1000.9970 0.852 -0.515 -0.095 185 178 170
-2794.1819 2586.4238 998.1522 0.848 -0.521 -0.096 115 106 99
-2870.9819 2889.9116 985.0714 0.728 -0.141 0.671 187 105 67
-2910.5920 2966.2205 992.6776 0.555 -0.802 -0.223 192 102 56
-2904.5508 2970.2112 988.7211 0.583 -0.770 -0.259 192 102 55
-2903.9910 2979.4844 986.7615 0.651 -0.680 -0.337 192 102 54
-2477.2661 3173.6558 722.9896 -0.231 -0.952 0.203 209 124 70
-2369.8472 3392.7563 626.1342 0.283 -0.796 0.536 202 177 183
-2196.7827 3338.1907 543.0104 0.261 -0.785 -0.561 54 47 43
-2187.6450 3335.9592 538.5053 0.241 -0.763 -0.600 93 83 81
-2162.6001 3343.6560 523.6862 -0.064 -0.937 -0.345 218 189 191
-2929.9983 4944.9795 649.0499 0.006 -0.871 0.492 213 188 183
-2869.9836 4897.0142 625.4213 -0.032 -0.963 -0.267 200 177 171
-2836.3923 5086.0464 573.5701 0.313 -0.356 0.881 201 171 168
-2812.3313 5152.5894 548.7502 0.333 -0.486 0.808 195 170 166
-2733.0486 5118.4512 512.3058 0.054 -0.736 -0.675 180 150 147
-2686.4697 5087.1187 492.9124 0.138 -0.976 -0.169 178 149 148
-2706.1362 5142.2446 493.6044 0.290 -0.592 -0.752 164 136 135
-2414.3733 5107.8984 343.1555 0.887 0.348 -0.302 173 129 116
-2448.7371 5199.0537 345.2895 0.906 0.312 -0.286 173 130 114
-2472.6536 5268.8403 345.6396 0.934 0.308 -0.182 173 129 113
-2518.0569 5404.7378 345.6932 0.612 -0.125 -0.781 169 126 109
-1968.6023 5253.9224 77.7759 0.015 -0.948 -0.318 67 52 46
-1960.3303 5252.9629 73.5079 0.027 -0.944 -0.329 66 51 44
-1950.1650 5246.8389 69.1477 0.023 -0.947 -0.320 92 75 68
-1970.6887 5345.2910 62.5479 0.878 0.194 -0.438 213 196 189
-1972.9910 5439.5308 46.9220 0.912 0.011 0.410 213 202 200
-1976.2302 5470.8550 43.0559 0.725 -0.154 0.671 217 206 204
-1947.8535 5414.2266 37.9578 0.651 -0.288 0.702 225 214 212
-1925.9166 5375.0854 33.1871 0.027 -0.930 -0.366 227 215 213
-1799.3121 5343.7773 -29.1620 0.954 0.286 -0.090 255 244 252
-1869.3318 5576.8555 -33.2840 0.956 0.284 -0.070 254 244 252
-1638.8835 5618.4482 -164.4114 0.359 -0.632 0.687 248 243 248
-1764.2167 6253.7422 -210.8110 0.473 -0.729 0.495 109 57 51
-1612.6685 5842.2964 -218.5327 0.456 -0.777 0.435 216 82 94
-1597.1639 5812.3003 -221.4873 0.502 -0.735 0.455 228 83 96
-1595.7877 5834.6382 -226.2227 0.447 -0.778 0.441 232 76 90
-2956.0818 1721.4835 1232.7566 0.511 -0.008 -0.859 142 114 93
-4709.1465 2834.9905 1969.7582 0.369 -0.872 -0.321 103 101 114
-4513.5225 2880.9976 1856.8013 0.985 0.093 -0.146 31 102 117
-4596.5288 2940.7546 1890.4292 0.533 -0.133 -0.836 26 104 121
-4603.6504 2955.7578 1891.5325 0.534 -0.133 -0.835 30 102 121
-4522.7568 2918.2112 1855.0286 0.559 -0.237 -0.795 37 100 122
-4521.8013 2928.2817 1852.7004 0.559 -0.237 -0.795 44 102 127
-4513.8833 2934.1814 1847.4003 0.610 -0.738 -0.288 55 106 133
-4509.7637 2942.3699 1843.7190 0.774 -0.466 0.428 67 110 140
-4499.0327 2946.5515 1837.2238 0.785 -0.451 0.425 79 116 142
-4472.2090 2940.8953 1823.8937 0.960 -0.273 0.066 120 139 149
-4466.6792 2958.8596 1817.6947 0.960 -0.273 0.066 151 158 160
-4257.8218 2892.0769 1718.0051 0.184 -0.852 0.489 174 162 143
-3138.4409 2628.7502 1166.6492 0.156 -0.987 0.027 165 96 59
-2889.2893 2543.1377 1048.7994 0.627 -0.747 -0.223 107 84 70
-2800.4351 2579.1436 994.7679 0.822 -0.546 -0.161 203 195 184
-2797.1770 2584.8652 991.9927 0.822 -0.546 -0.161 174 164 155
-2832.5273 2896.2832 954.7260 0.754 -0.634 0.171 193 101 51
-2860.4258 2942.3921 961.3336 0.886 -0.210 -0.413 194 102 50
-2856.4521 2948.2407 958.1526 0.893 -0.318 -0.317 194 102 50
-2863.2688 2964.6074 958.8470 0.948 -0.231 -0.219 194 102 50
-2909.3423 3029.4224 971.8034 0.925 0.235 0.297 193 101 50
-2808.6506 2988.9829 925.2295 0.602 -0.365 0.710 93 46 27
-2472.4490 3173.0869 712.1527 -0.201 -0.948 0.246 208 126 70
-2330.8596 3079.5630 653.2750 -0.092 -0.949 0.300 164 113 81
-2203.8569 3343.0190 537.8030 0.326 -0.496 -0.805 20 16 13
-2194.2866 3340.1921 533.1930 0.246 -0.775 -0.581 16 10 7
-2187.7842 3341.8232 529.4199 0.240 -0.817 -0.524 30 20 19
-2177.2458 3348.6694 522.5471 -0.055 -0.940 -0.338 149 124 124
-2174.0212 3355.1179 519.6586 0.597 -0.271 -0.755 195 170 170
-2176.3127 3369.8154 518.2332 0.690 0.022 -0.723 213 187 188
-2826.6611 5150.8032 544.8796 0.173 -0.919 -0.354 197 168 166
-2814.1682 5146.7568 538.9260 0.155 -0.929 -0.335 198 169 167
-2805.7600 5149.9961 533.8433 0.155 -0.929 -0.335 198 169 167
-2747.6189 5117.7456 508.5561 0.673 -0.366 -0.643 192 160 156
-2730.3174 5104.3052 501.7245 0.697 -0.316 -0.644 186 154 149
-2760.6543 5178.6533 504.5424 0.556 -0.498 -0.665 186 153 150
-2339.6545 4888.0454 331.7358 0.894 0.359 -0.268 180 132 120
-2422.5869 5096.7192 338.4599 0.874 0.361 -0.325 176 129 117
-1959.0681 5217.8706 68.6260 0.104 -0.990 -0.095 64 46 44
-1945.8395 5203.5161 64.1384 0.117 -0.985 -0.124 72 54 51
-1943.5387 5218.3647 60.2287 0.130 -0.984 -0.124 125 107 103
-1951.6041 5261.2769 56.8025 0.396 -0.842 0.366 181 163 159
-1962.7845 5312.9487 53.4625 0.843 0.129 -0.522 216 198 196
-1968.4622 5350.0225 49.8120 0.872 0.197 -0.448 224 210 208
-1945.2483 5351.8032 37.0715 0.866 -0.458 0.201 232 223 223
-1922.6730 5311.1855 32.3213 0.825 -0.475 0.307 231 221 222
-1857.1611 5150.6836 26.2270 0.880 -0.453 -0.146 228 218 219
-1851.1630 5155.0557 22.2294 0.921 -0.128 -0.369 228 218 218
-1825.6573 5168.0771 6.2350 0.192 -0.512 -0.837 237 225 230
-1794.9142 5122.8228 -2.0485 0.872 0.145 0.467 243 232 236
-1802.5109 5274.9170 -25.4217 0.841 0.263 0.472 253 245 253
-1558.9070 5683.4648 -229.4484 0.493 -0.643 0.586 222 77 93
-4425.8398 2633.5276 1843.6080 0.677 -0.165 -0.717 101 92 94
-4608.5908 2805.2588 1909.8301 0.421 -0.676 0.604 75 93 107
-4374.1777 2743.2966 1796.0946 0.161 -0.613 0.774 29 86 104
-4386.0327 2770.3313 1797.4998 0.850 0.158 0.502 36 95 116
-4514.5933 2876.5967 1846.7300 0.985 0.093 -0.146 24 105 129
-4615.3823 2957.5649 1885.7516 0.540 -0.127 -0.832 23 106 134
-4553.8843 2931.6965 1857.6614 0.513 -0.171 -0.841 30 101 131
-4531.9658 2929.2715 1846.4142 0.569 -0.236 -0.788 31 99 133
-4527.8276 2937.4636 1842.7175 0.604 -0.763 -0.229 36 97 136
-4521.0977 2944.0996 1837.9218 0.603 -0.764 -0.231 44 95 135
-4500.1265 2942.0979 1827.1025 0.739 -0.509 0.440 50 94 128
-4486.8911 2944.7327 1819.5653 0.780 -0.500 0.375 68 93 107
-4479.6406 2950.9897 1814.5608 0.777 -0.509 0.371 83 94 101
-4473.4932 2957.9177 1810.0226 0.766 -0.511 0.391 122 129 130
-4515.2910 2994.3823 1825.6801 0.959 -0.229 0.165 163 166 164
-4437.4902 2967.7920 1789.0276 -0.108 -0.908 0.404 167 161 149
-4162.7349 2847.6226 1664.3655 0.096 -0.932 0.348 96 99 91
-4180.1436 2879.1147 1667.9213 0.126 -0.893 0.431 74 103 114
-3761.4661 2860.1714 1448.1001 0.633 -0.686 -0.358 92 41 22
-3063.2097 2609.6189 1121.3119 0.178 -0.924 -0.338 128 77 41
-3052.6394 2610.0015 1115.6056 0.173 -0.924 -0.341 121 79 41
-3053.7913 2619.6597 1114.4634 0.064 -0.990 -0.125 119 81 43
-3041.3665 2618.5254 1108.0438 0.091 -0.986 -0.142 115 81 46
-3028.2146 2616.7617 1101.3511 0.027 -0.999 -0.037 100 73 49
-2811.4856 2559.0000 996.2821 0.714 -0.320 -0.622 173 159 150
-2892.6924 2797.7253 996.1697 0.864 0.357 0.354 183 119 86
-2908.7690 2821.5632 1000.4073 0.848 0.387 0.361 175 113 80
-2885.8101 2837.9236 985.1886 0.511 -0.386 0.768 162 100 67
-2884.6367 3000.3557 955.0212 0.889 0.179 0.422 195 101 53
-2816.0837 2942.8508 928.9227 0.847 0.321 -0.425 199 110 59
-2424.9954 3130.5161 686.2376 0.009 -0.833 0.553 207 125 75
-2222.3384 3364.4585 535.6200 0.535 -0.346 0.770 15 14 10
-2208.4546 3355.4185 529.8604 0.595 -0.270 0.757 21 16 13
-2196.8350 3349.6021 524.7219 0.019 -0.943 -0.331 29 20 18
-2185.4844 3344.1030 519.6691 -0.026 -0.961 -0.276 27 11 9
-2183.4368 3352.2949 517.0873 -0.080 -0.944 -0.321 37 17 16
-2179.7522 3358.0791 514.0706 0.597 -0.271 -0.755 108 88 87
-2182.2473 3373.0815 512.6725 0.690 0.022 -0.723 182 162 161
-2927.0486 4922.9839 627.9669 -0.015 -0.861 0.508 114 89 84
-2892.2686 4899.9087 613.6165 -0.085 -0.951 -0.297 194 174 167
-2837.8164 4860.4194 591.7610 -0.041 -0.945 -0.325 201 181 174
-2908.5691 4996.6416 604.7161 0.307 -0.929 -0.206 197 177 170
-2086.5605 5501.9839 74.4594 0.012 -0.989 -0.145 71 53 49
-2052.1875 5433.1128 68.6552 -0.172 -0.958 -0.229 81 63 59
-1949.9907 5204.0703 55.8134 0.117 -0.985 -0.124 113 93 92
-1953.9697 5256.9531 48.3174 0.019 -0.711 -0.703 196 178 174
-1969.2316 5341.1855 41.1365 0.856 0.176 -0.486 228 213 212
-1960.9581 5340.3560 36.8754 0.889 0.180 -0.421 241 229 230
-1859.6367 5146.9609 18.0172 0.802 -0.053 -0.595 228 219 220
-1856.5509 5159.4546 14.0994 0.916 -0.124 -0.381 227 218 219
-1828.7744 5102.8511 9.5817 -0.094 -0.910 -0.403 228 217 221
-1827.3673 5162.1934 -1.9613 0.196 -0.516 -0.834 235 224 230
-1708.6172 5861.0425 -192.3875 0.143 -0.819 0.556 207 202 202
-3980.6746 2343.0454 1649.3180 0.987 0.163 0.017 109 101 99
-4559.4146 2814.0310 1870.5887 0.961 0.202 -0.189 32 91 111
-4441.3691 2756.9226 1818.3134 0.187 -0.625 0.758 30 93 118
-4420.2266 2775.1919 1803.7255 0.095 -0.839 0.536 32 98 123
-4474.8252 2942.9363 1801.9917 0.759 -0.538 0.366 38 49 56
-4467.6465 2949.2134 1797.0251 0.762 -0.530 0.373 78 85 86
-4164.7603 2844.0327 1655.3131 0.096 -0.932 0.348 77 80 72
-3766.6799 2859.0798 1440.9581 0.633 -0.686 -0.358 95 42 25
-3270.5461 2613.8853 1222.1982 -0.137 -0.775 -0.617 135 162 161
-3240.9775 2600.8618 1208.8691 -0.231 -0.930 -0.285 108 112 115
-3229.9404 2601.4812 1202.8889 -0.229 -0.930 -0.286 101 81 86
-3072.7522 2621.6750 1115.6344 0.543 -0.838 0.053 127 75 38
-3067.3804 2626.2048 1111.9485 0.514 -0.853 0.095 119 73 36
-3060.0173 2629.1445 1107.4957 0.528 -0.845 0.081 112 72 36
-3060.9663 2638.7073 1106.2468 0.492 -0.842 0.224 101 72 49
-2907.0012 2787.6904 997.0927 0.929 0.324 0.181 195 127 86
-2915.9077 2804.9214 998.6676 0.926 0.321 0.198 188 130 94
-2926.6265 2823.8762 1000.8898 0.704 -0.039 0.709 181 125 90
-2921.5747 2828.6450 997.3302 0.683 -0.024 0.730 172 115 82
-2896.1204 2814.8591 986.3278 0.669 -0.269 0.693 165 110 79
-2882.8376 2812.0410 979.7842 0.668 -0.321 0.671 164 109 78
-2817.8044 2826.0894 942.6407 0.214 -0.961 -0.174 199 113 77
-2797.2837 2968.0601 905.7033 0.596 -0.366 0.715 142 78 41
-2790.4861 2971.0120 901.5489 0.596 -0.366 0.715 115 54 21
-2784.7429 2975.0083 897.7633 0.789 -0.137 0.599 100 46 14
-2782.8977 2982.9351 895.3293 0.769 -0.128 0.627 97 60 27
-2297.5396 3422.2161 556.8011 0.671 -0.668 -0.323 21 18 13
-2188.8091 3354.6897 511.3871 -0.080 -0.944 -0.321 41 28 24
-2187.8853 3364.5823 509.0822 0.599 -0.274 -0.752 48 35 31
-2188.2036 3376.3596 507.0920 0.690 0.022 -0.723 73 60 59
-2191.9417 3393.2947 505.9742 0.684 0.121 -0.719 139 128 124
-2190.1287 3413.4514 501.3147 0.684 -0.004 -0.730 205 190 187
-2195.5615 3433.1584 500.5894 0.671 -0.246 -0.700 206 188 184
-2965.5308 4942.9878 633.0384 -0.009 -0.881 0.472 206 181 176
-2947.4858 4930.7583 625.6890 -0.009 -0.857 0.515 192 167 162
-2928.7512 4917.2505 618.2073 -0.015 -0.861 0.508 154 129 124
-2918.4238 4917.4585 612.6798 0.003 -0.887 0.461 128 105 99
-2885.8665 4897.9370 598.9534 -0.042 -0.951 -0.307 213 193 186
-2905.1711 5017.4102 587.3098 0.063 -0.998 -0.019 199 176 170
-2768.9695 4803.6440 554.1061 0.119 -0.965 0.233 197 173 169
-2685.0015 5300.5181 418.3739 0.454 0.091 0.887 200 171 167
-2086.5537 5490.8613 65.3756 -0.005 -0.988 -0.155 69 51 47
-1938.2863 5162.3418 46.7982 0.038 -0.946 -0.323 171 152 148
-1962.6201 5269.5317 40.0797 0.035 -0.687 -0.726 208 190 186
-1961.6426 5309.7090 32.1938 -0.019 -0.794 -0.608 227 213 211
-2004.6503 5448.4258 29.6210 0.190 -0.492 -0.850 232 221 220
-1716.3751 5874.4849 -201.7253 0.076 -0.854 0.515 214 206 207
-1708.1958 5872.7793 -205.7602 0.076 -0.854 0.515 89 81 73
-1689.2206 6052.9683 -248.8833 0.079 -0.320 -0.944 134 64 57
-4337.7295 2566.7896 1787.4113 0.717 -0.423 -0.554 63 71 80
-4519.7739 2776.2876 1845.1416 0.498 -0.860 0.109 23 85 99
-4519.0459 2786.1301 1842.9370 0.932 0.186 -0.310 25 90 113
-4527.2227 2905.6292 1825.1832 0.995 -0.057 0.079 25 100 134
-4466.7373 2943.5481 1786.1289 0.760 -0.512 0.400 69 76 78
-4166.7847 2840.4443 1646.2649 0.096 -0.932 0.348 55 58 51
-4147.0576 2838.1030 1636.2460 0.099 -0.929 0.357 26 40 41
-4181.7422 2870.2993 1648.6719 0.129 -0.887 0.443 126 152 162
-3510.5254 2619.2817 1339.4435 0.769 -0.116 -0.629 159 197 216
-3428.4968 2670.6670 1286.4863 -0.006 -0.915 -0.403 131 137 142
-3301.6233 2632.5088 1226.3191 -0.204 -0.783 -0.588 150 198 208
-3115.3999 2606.9568 1132.3774 0.772 -0.243 0.587 175 89 57
-3117.6123 2661.7217 1123.4280 0.270 -0.501 0.822 125 71 38
-2949.5073 2562.5637 1052.6896 -0.388 -0.882 0.268 95 74 63
-2898.4636 2546.7893 1028.5613 -0.377 -0.923 0.074 113 91 80
-2903.7021 2771.1091 989.8779 0.882 0.418 0.218 200 128 87
-2921.1038 2795.8398 994.5268 0.783 0.179 0.595 195 129 90
-2922.6838 2806.5110 993.3917 0.783 0.179 0.595 168 115 78
-2910.0342 2804.4011 987.0797 0.707 -0.015 0.707 163 112 78
-2899.7969 2804.4187 981.6525 0.708 -0.013 0.706 161 113 79
-2880.0920 2795.8049 972.8046 0.717 -0.240 0.655 160 113 80
-2759.2004 2803.1555 907.3958 0.135 -0.760 -0.636 202 111 63
-2763.1746 2816.1638 907.0971 0.197 -0.778 -0.596 201 111 61
-2792.0283 2948.3650 897.9508 0.771 -0.153 0.618 188 111 66
-2785.7522 2951.8059 893.9896 0.761 -0.158 0.630 174 99 57
-2782.5671 2958.3291 891.0965 0.789 -0.137 0.599 156 82 43
-2779.2227 2964.7017 888.1469 0.789 -0.137 0.599 141 71 33
-2734.4590 2958.2690 865.6191 0.955 -0.015 0.295 142 92 54
-2748.6978 2982.5625 868.6732 0.972 -0.202 0.122 159 109 71
-2417.0771 3110.7346 669.2864 0.756 -0.422 0.499 199 116 64
-2409.3999 3111.5229 665.0732 0.658 -0.629 0.413 198 116 71
-2249.9514 3393.4949 528.4807 0.598 -0.240 0.765 19 16 9
-2237.6870 3386.9900 523.1851 0.593 -0.195 0.782 19 14 8
-2208.8228 3367.3560 511.5210 -0.160 -0.939 -0.304 26 21 14
-2193.6228 3367.5093 503.4396 0.599 -0.274 -0.752 39 32 26
-2194.1162 3379.5535 501.4750 0.685 0.118 -0.719 48 43 37
-2198.2441 3397.0676 500.4250 0.685 0.118 -0.719 62 57 51
-2196.9688 3406.5886 497.9896 0.695 0.125 -0.708 82 77 71
-2193.1812 3412.3704 494.9144 0.691 -0.048 -0.721 127 118 113
-2192.5603 3422.9302 492.6337 0.550 -0.747 -0.373 180 166 160
-2191.1709 3432.3684 490.1532 -0.057 -0.906 0.418 214 191 186
-2973.9707 4948.1802 624.7404 -0.017 -0.874 0.485 207 182 177
-2937.5886 4923.2319 610.0755 -0.009 -0.857 0.515 181 156 151
-2909.1519 4910.8286 597.3016 -0.073 -0.955 -0.287 117 97 90
-2895.5432 4905.4893 591.0784 -0.038 -0.941 -0.337 122 102 95
-2871.6338 4917.2891 576.2300 -0.045 -0.786 -0.616 209 189 182
-2870.7461 4933.0996 572.8375 -0.040 -0.785 -0.618 199 179 172
-2895.9688 4993.1025 575.1110 0.088 -0.986 -0.143 200 177 171
-2820.3137 4899.5859 552.3116 -0.064 -0.791 0.608 197 169 166
-2639.7651 4624.5098 507.4937 0.155 -0.961 0.229 210 182 179
-2620.3845 4607.4185 500.3843 0.084 -0.977 0.198 206 178 175
-2467.4038 5397.1079 273.3820 0.204 -0.968 0.146 166 119 101
-2038.8842 5397.7441 46.2279 -0.294 -0.936 -0.195 177 159 155
-2017.0165 5361.3433 41.3696 -0.199 -0.954 -0.226 186 167 161
-1999.0551 5335.0112 36.7200 -0.093 -0.958 -0.273 195 176 170
-1987.2603 5324.9419 32.3319 0.101 -0.787 -0.608 212 195 188
-1982.0223 5332.3970 28.1790 0.106 -0.787 -0.608 229 213 208
-1989.8834 5375.3032 24.4139 -0.183 -0.805 -0.564 240 226 224
-2023.4103 5488.2661 21.2992 0.070 -0.859 -0.508 242 230 230
-1729.3556 5879.1719 -206.7431 0.065 -0.755 0.652 247 240 248
-4390.0435 2748.0828 1770.5917 0.257 -0.652 0.714 19 96 129
-4542.2607 2877.7532 1826.8192 0.930 -0.164 0.329 9 91 115
-4559.6128 2909.1274 1830.1381 0.836 -0.053 0.547 15 89 115
-4594.3003 2940.3494 1842.6398 0.919 -0.391 -0.040 19 85 115
-4586.8989 2946.6987 1837.5481 0.919 -0.392 -0.042 16 76 107
-4168.8086 2836.8582 1637.2209 0.096 -0.932 0.348 45 48 40
-4148.8936 2834.4126 1627.1597 0.099 -0.929 0.357 46 60 60
-4182.0200 2865.5681 1638.8494 0.128 -0.890 0.439 142 168 178
-3515.9500 2618.6572 1333.1014 0.815 -0.098 -0.571 154 192 211
-3426.7942 2655.9348 1279.0743 -0.117 -0.971 -0.206 70 53 53
-3107.1980 2640.3206 1113.2073 0.392 -0.740 0.547 138 74 41
-2828.1526 2560.7395 980.6713 0.681 -0.588 -0.437 131 117 108
-2826.5034 2567.8203 978.4812 0.718 -0.230 -0.657 130 116 107
-2900.5798 2754.7822 982.7704 0.815 0.157 0.558 199 128 83
-2904.2722 2767.1794 982.4108 0.816 0.155 0.558 200 128 85
-2894.9414 2777.1541 975.6250 0.714 -0.009 0.700 176 127 88
-2890.9041 2782.7041 972.4590 0.710 -0.015 0.704 157 111 75
-2885.1775 2786.7319 968.6844 0.711 -0.007 0.703 129 85 48
-2910.0889 2932.3538 954.7114 0.258 -0.928 -0.269 209 112 73
-2848.3931 2883.4263 931.2452 -0.146 -0.973 0.178 204 111 65
-2710.0530 2806.5986 872.5016 0.445 -0.604 -0.662 200 108 61
-2722.9368 2922.5874 857.6973 0.841 -0.206 0.500 198 122 79
-2714.5474 2933.2742 851.2762 0.968 -0.145 0.206 196 122 79
-2752.2339 2981.4062 862.2113 0.966 -0.057 -0.250 195 121 79
-2372.0745 3010.9717 655.9445 0.781 0.147 0.607 200 117 63
-2367.6790 3025.4053 650.9344 0.665 0.136 0.734 199 117 61
-2288.2703 3066.2537 601.3895 0.492 -0.861 0.132 166 120 102
-2209.2522 3373.7043 502.3844 0.040 -0.916 -0.400 29 29 21
-2196.4531 3366.1223 497.0378 0.685 0.118 -0.719 35 34 27
-2200.5823 3383.5476 495.9721 0.685 0.118 -0.719 39 39 31
-2204.7444 3401.1133 494.8977 0.685 0.118 -0.719 47 47 39
-2203.3445 3410.4636 492.4166 0.695 0.125 -0.708 55 55 47
-2199.8127 3416.6497 489.3990 0.693 -0.058 -0.718 64 60 51
-2198.2275 3425.7729 486.8623 0.549 -0.730 -0.407 102 93 86
-2198.2651 3437.3767 484.7204 0.043 -0.930 0.366 179 156 152
-2193.5872 3441.8816 481.4107 -0.050 -0.908 0.416 208 183 179
-2932.5793 4906.5044 598.8150 -0.011 -0.872 0.489 195 170 165
-2926.4397 4913.6050 594.2499 -0.009 -0.857 0.515 210 187 181
-2916.1926 4913.9297 588.7782 -0.073 -0.955 -0.287 198 178 171
-2902.6909 4908.8135 582.6011 -0.038 -0.941 -0.337 152 132 125
-2925.3755 5034.0039 571.2584 -0.281 -0.917 -0.282 216 193 187
-2890.9390 4993.4521 560.6273 -0.191 -0.944 -0.270 207 183 179
-2870.9287 4977.0620 553.1135 -0.195 -0.935 -0.296 205 177 174
-2864.1243 4983.0229 548.4095 0.024 -0.854 -0.520 202 174 171
-2874.5383 5018.4580 547.3077 0.062 -0.831 -0.553 199 171 168
-2877.0308 5040.4902 544.5194 0.070 -0.825 -0.560 202 174 171
-2870.6074 5047.2529 539.8675 0.067 -0.847 -0.528 204 176 173
-2755.5034 4865.8198 512.8821 -0.094 -0.949 -0.300 204 176 173
-2734.9250 4847.2661 505.4712 -0.185 -0.937 -0.298 204 176 173
-1120.8429 2473.5923 95.2906 0.182 -0.742 -0.646 166 119 101
-1118.2023 2476.5620 93.3428 0.191 -0.815 -0.548 167 120 102
-2404.4614 5290.3481 248.4126 0.189 -0.712 -0.677 166 119 101
-2451.1167 5412.4194 250.3096 0.654 -0.242 -0.717 163 116 98
-2172.9763 5560.3926 75.8594 -0.152 -0.730 0.666 51 38 29
-2116.9119 5482.1460 60.8292 -0.165 -0.812 0.560 49 36 27
-2116.4590 5502.8989 56.7238 0.193 -0.945 0.264 81 68 59
-1998.9312 5302.4951 31.9925 0.319 -0.291 0.902 186 168 164
-1989.7281 5299.3433 27.7197 0.319 -0.291 0.902 194 177 170
-2042.4777 5506.3574 17.0106 0.727 -0.045 0.685 240 225 224
-2037.8398 5516.1797 12.7316 0.727 -0.045 0.685 238 226 226
-1756.8530 4972.0898 -34.2942 0.759 -0.231 0.609 248 237 241
-1742.9194 4952.8350 -38.0654 0.682 -0.165 0.713 252 241 245
-1724.5391 5875.7031 -219.6971 0.157 -0.631 0.760 229 224 224
-1764.5265 6210.4150 -260.9350 0.062 -0.585 -0.809 99 60 51
-1689.0958 6052.0996 -271.2761 -0.079 -0.908 0.411 136 95 77
-1685.2590 6066.4307 -275.9721 -0.070 -0.888 0.455 149 96 82
-1642.6042 5937.8506 -274.5440 0.236 -0.121 -0.964 154 87 78
-4530.1064 2782.5884 1826.8086 0.953 0.094 -0.287 14 95 121
-4620.4863 2865.3105 1858.8491 0.846 0.288 -0.448 17 92 127
-4539.2852 2870.9766 1815.0435 0.930 -0.164 0.329 5 76 92
-4543.2739 2894.4084 1812.7433 0.833 -0.222 0.506 14 72 89
-4480.7881 2920.6501 1774.9254 0.773 -0.458 0.439 5 23 32
-4471.9810 2925.9238 1769.2994 0.770 -0.499 0.398 23 36 45
-4462.3677 2930.6926 1763.3439 0.789 -0.428 0.440 81 92 95
-2225.5024 1857.7083 787.4043 0.808 -0.187 -0.559 100 149 166
-2228.8765 1866.2278 787.5806 0.795 -0.257 -0.550 94 119 136
-2873.2600 2543.3850 999.6141 -0.128 -0.990 -0.062 66 52 39
-2832.3403 2560.1538 974.9266 0.681 -0.588 -0.437 139 126 115
-2832.1230 2568.4402 973.2563 0.875 -0.148 -0.461 143 130 120
-2887.5520 2747.9019 968.7352 0.715 -0.018 0.699 197 128 87
-2879.5850 2749.8855 964.1691 0.704 -0.045 0.709 193 130 90
-2878.9131 2758.3716 962.2220 0.704 -0.042 0.709 173 126 86
-2875.7283 2764.6260 959.3712 0.757 -0.006 0.653 146 102 64
-2915.2422 2942.2146 946.8246 0.618 -0.759 -0.204 202 111 66
-2770.6008 2995.3708 860.7090 0.898 -0.364 0.246 202 113 69
-2755.7795 2990.0549 853.9057 0.679 -0.734 0.023 203 113 69
-2743.6975 2987.4766 848.0303 0.692 -0.714 0.104 203 112 69
-2737.6672 2991.0803 844.1795 0.688 -0.719 0.102 203 111 68
-2728.8608 2991.8000 839.4089 0.696 -0.718 0.016 210 124 75
-2657.1318 2965.7261 806.5490 0.779 -0.117 0.616 202 116 67
-2338.0981 3417.2092 553.8458 0.750 -0.661 0.032 20 13 10
-2156.2473 3268.3506 486.0765 0.593 -0.751 0.290 19 17 13
-2193.8391 3334.3098 493.4785 0.844 -0.536 0.024 21 24 16
-2192.5378 3343.5723 491.0544 0.858 -0.513 -0.010 25 28 20
-2211.5920 3417.1064 487.2765 0.737 -0.014 -0.676 55 57 49
-2210.7034 3427.2783 484.8988 0.486 -0.444 -0.753 52 51 42
-2208.8052 3435.9714 482.2674 0.445 -0.574 -0.687 53 46 40
-2202.7595 3438.4399 478.6217 -0.018 -0.946 0.325 105 83 79
-2197.7290 3442.4250 475.2255 -0.045 -0.908 0.416 176 153 149
-2935.6243 4885.8931 592.5914 0.022 -0.875 0.483 208 183 178
-2934.4692 4901.1040 589.1274 -0.011 -0.872 0.489 207 182 177
-2934.2446 4917.9009 585.8553 -0.038 -0.946 -0.322 206 182 176
-2909.8589 4912.1475 574.0997 -0.038 -0.941 -0.337 204 184 177
-2904.7463 5008.0786 553.3958 -0.191 -0.921 -0.341 195 171 167
-2906.4482 5028.6313 550.4324 -0.133 -0.911 -0.390 214 186 184
-2840.7122 4934.4531 533.5148 -0.279 -0.868 -0.412 218 190 189
-2821.2656 4918.6313 526.2496 -0.297 -0.871 -0.392 223 195 193
-2722.2405 4920.1421 473.8424 0.888 0.410 0.207 196 166 164
-2484.1250 5515.8037 236.6597 0.680 -0.461 -0.570 162 114 96
-2360.8198 5638.8584 148.6501 0.606 0.113 -0.787 119 98 77
-2172.7295 5548.6797 66.5783 -0.159 -0.787 0.596 51 38 29
-2135.0139 5495.9858 56.6203 -0.175 -0.780 0.600 62 49 40
-2099.2778 5447.3037 46.9510 -0.170 -0.804 0.570 131 117 108
-2083.6018 5428.2769 42.2723 0.322 -0.916 0.239 165 150 143
-2082.5947 5447.3975 38.1520 0.568 -0.807 -0.161 175 158 151
-2050.3118 5384.4780 32.9736 0.288 -0.265 0.920 177 160 154
-2008.9164 5318.2368 23.6224 0.383 -0.238 0.893 183 165 161
-2005.3435 5330.1616 19.5027 0.347 -0.262 0.901 195 177 173
-1991.7594 5315.3882 15.1264 0.379 -0.247 0.892 211 193 189
-1916.9956 5177.9448 1.5808 0.678 -0.006 0.735 231 219 220
-1935.2183 5356.4971 -22.3539 0.148 -0.984 0.099 226 216 219
-1929.5557 5362.7080 -26.5008 0.090 -0.994 0.062 225 216 219
-1921.8329 5363.1470 -30.6482 0.090 -0.994 0.062 230 221 224
-1836.2584 5165.7554 -38.6279 0.243 -0.970 0.003 243 232 238
-1840.4681 5199.0264 -42.6592 0.300 -0.953 0.035 248 237 243
-1725.3850 5865.1201 -228.3066 0.157 -0.631 0.760 229 225 225
-1745.0280 6098.0469 -261.7036 0.434 -0.487 0.758 111 79 70
-1739.0206 6161.7104 -276.8196 0.206 -0.755 0.622 68 43 24
-1719.0861 6118.2837 -279.1583 0.121 -0.802 0.585 89 69 46
-1697.1899 6067.2256 -281.0967 -0.060 -0.867 0.496 118 92 70
-1689.4150 6067.2295 -285.1898 -0.061 -0.867 0.495 130 93 74
-4446.0864 2720.1665 1783.2216 0.988 0.095 -0.125 10 92 114
-4542.9443 2784.9382 1821.7798 0.945 0.084 -0.317 23 93 120
-4633.0381 2867.4441 1853.4335 0.852 0.297 -0.432 25 86 116
-4520.7344 2855.1213 1796.8459 0.962 -0.090 0.257 10 56 67
-4344.6895 2885.1572 1698.8013 -0.108 -0.844 0.526 164 157 147
-4171.2881 2828.7083 1618.5101 0.099 -0.929 0.357 20 28 27
-3454.2041 2675.8997 1271.2148 0.005 -0.855 -0.519 112 115 109
-3445.7434 2679.0007 1266.1891 0.005 -0.855 -0.519 182 203 202
-2878.1594 2726.1689 959.4840 0.715 -0.015 0.699 197 132 96
-2876.6763 2733.8650 957.2495 0.715 -0.018 0.699 184 119 85
-2869.0193 2736.0872 952.8118 0.704 -0.045 0.709 158 95 61
-2868.9626 2754.1411 949.3655 0.736 -0.026 0.676 94 46 15
-2864.7002 2851.8340 928.6417 0.410 -0.609 -0.679 201 120 80
-2930.7715 2952.2009 944.3118 0.874 0.225 0.431 185 112 78
-2883.6111 2917.1499 926.2026 -0.156 -0.971 0.182 182 111 75
-2604.6726 2896.3403 783.7975 0.274 -0.874 0.402 203 118 64
-2158.9116 3266.8528 479.8156 0.299 -0.923 0.242 16 17 11
-2183.3445 3313.4758 483.8110 0.526 -0.672 -0.521 21 23 19
-2185.3574 3327.5232 482.2088 0.975 -0.213 0.063 29 29 28
-2189.4753 3344.7358 481.1119 0.977 -0.210 0.046 34 33 33
-2192.6702 3360.6741 479.7718 0.770 -0.637 0.011 39 38 38
-2199.3335 3393.2002 477.1123 0.947 0.214 0.239 27 27 26
-2217.0361 3442.6072 477.0501 -0.027 -0.909 0.415 45 39 37
-2210.9421 3445.0403 473.3925 -0.024 -0.906 0.423 56 44 41
-2201.7329 3442.7495 468.9944 -0.024 -0.906 0.423 103 88 86
-2188.8875 3434.8933 463.7418 -0.026 -0.906 0.422 174 158 157
-2823.5422 4662.7026 564.3554 0.276 -0.958 0.081 210 182 179
-2941.4626 4921.2070 577.3016 0.002 -0.942 -0.335 210 184 180
-2931.7773 4922.5317 571.9696 -0.038 -0.946 -0.322 206 182 178
-2919.1096 4918.8931 566.0122 -0.039 -0.945 -0.325 204 180 176
-2914.8113 5016.3252 545.3188 -0.193 -0.919 -0.343 120 96 92
-2824.0786 4914.8418 516.9215 -0.297 -0.869 -0.395 173 148 143
-2544.2705 4547.8950 439.5640 0.278 -0.926 -0.257 200 174 170
-2553.5984 4596.5361 435.2529 0.348 -0.913 -0.215 195 169 165
-1191.4796 2635.7322 91.6940 0.738 -0.633 -0.233 171 120 101
-2387.0720 5332.1152 208.6834 0.236 -0.805 -0.545 163 113 95
-2150.8801 5503.8145 52.2743 -0.139 -0.796 0.590 59 44 33
-2131.4290 5475.8105 47.3688 -0.165 -0.812 0.560 94 78 68
-2120.9165 5470.5503 42.8490 -0.165 -0.812 0.560 155 138 128
-2098.1636 5433.5103 37.9214 -0.154 -0.807 0.570 183 166 158
-2030.0293 5363.3105 15.4599 0.296 -0.308 0.904 182 164 162
-2005.0123 5318.5078 10.8135 0.421 -0.066 0.905 195 177 175
-2001.5695 5330.7764 6.6855 0.417 -0.065 0.906 210 192 190
-1954.2844 5332.6050 -18.4683 0.565 -0.317 0.762 215 205 206
-1893.6240 5230.2363 -30.9208 0.239 -0.653 0.719 227 216 217
-1961.0164 5461.5562 -39.3394 -0.013 -0.996 -0.088 230 219 223
-1847.8110 5209.0244 -50.9421 0.182 -0.901 -0.394 247 238 241
-1719.5262 5938.7075 -256.3326 0.974 -0.196 0.111 68 46 37
-1735.9197 6136.0659 -285.0805 0.199 -0.768 0.609 86 63 48
-1722.7599 6117.1230 -288.3999 0.158 -0.814 0.559 96 78 57
-1695.4305 6046.4995 -289.3731 -0.066 -0.887 0.457 103 86 63
-1690.7311 6057.6504 -293.9489 -0.070 -0.888 0.455 103 76 56
-4600.5913 2791.7864 1839.2750 0.467 -0.266 0.843 19 90 107
-4496.1455 2743.4897 1793.8693 0.989 0.150 0.001 24 89 105
-4449.0293 2747.2236 1768.5192 -0.041 -0.821 0.570 36 72 92
-4590.6846 2859.1938 1821.2390 0.159 -0.725 0.670 21 59 80
-4518.2759 2848.6914 1785.3779 0.962 -0.090 0.257 16 37 41
-4522.3906 2861.5459 1785.0781 0.859 -0.286 0.424 22 34 32
-4456.9380 2896.1580 1744.2505 0.851 -0.167 0.497 45 48 47
-4460.2642 2908.6960 1743.5986 0.982 0.012 0.190 80 78 75
-4452.3477 2935.6382 1734.3208 0.956 -0.229 0.184 151 146 140
-4242.0269 2857.9045 1639.1652 0.101 -0.905 0.413 74 77 72
-3532.6118 2607.9644 1315.8661 0.668 -0.089 -0.739 131 201 231
-3443.9729 2664.1724 1258.7954 -0.073 -0.632 -0.772 102 99 89
-3437.4436 2668.6292 1254.5311 -0.073 -0.632 -0.772 187 198 193
-3430.9214 2673.0818 1250.2714 -0.073 -0.632 -0.772 178 199 202
-2272.1816 1898.8442 792.0039 0.194 -0.932 0.306 122 178 200
-3027.3823 2556.4717 1061.4927 0.185 -0.778 0.601 123 65 35
-2842.4951 2568.9231 962.4370 0.903 -0.092 -0.419 147 136 122
-2870.8118 2862.3787 921.2776 0.863 0.306 0.402 197 127 88
-2905.7649 2904.6150 931.5002 0.896 0.192 0.400 186 115 80
-2883.2095 2912.0986 918.2782 -0.213 -0.977 -0.004 131 79 52
-2706.9900 2902.0769 828.0410 0.998 0.038 -0.049 207 124 72
-2316.2881 2948.7764 614.8293 0.867 0.190 0.461 222 145 93
-2160.9927 3275.4131 471.3275 0.322 -0.922 0.215 23 25 23
-2190.1311 3340.1777 474.2130 0.977 -0.210 0.046 36 34 35
-2194.2554 3380.0386 468.7675 0.947 0.214 0.239 31 31 31
-2208.7236 3412.9695 470.0528 0.064 -0.777 0.626 31 29 30
-2204.7715 3418.5408 466.9237 0.057 -0.806 0.589 38 33 34
-2208.3381 3435.4080 465.5719 0.038 -0.922 0.386 48 38 38
-2199.7178 3433.9912 461.3343 0.038 -0.922 0.386 58 47 46
-2179.3323 3414.7273 454.3483 0.136 -0.930 0.341 87 76 76
-2166.4155 3406.6262 449.1389 -0.155 -0.988 0.019 127 117 117
-2860.8723 4951.4526 517.6604 -0.279 -0.869 -0.408 156 131 126
-2564.5017 4575.3135 434.4184 0.311 -0.941 -0.131 161 136 132
-2705.7625 4839.3130 457.9374 0.207 -0.948 -0.242 174 149 145
-2709.0591 4862.2754 455.2821 0.192 -0.936 -0.294 179 154 150
-2661.1104 4794.7681 443.0834 0.865 0.441 -0.239 180 155 151
-2361.1956 5284.7368 192.8074 0.545 -0.434 -0.718 165 112 91
-2434.0713 5593.4009 172.0484 0.250 -0.289 -0.924 152 105 84
-2316.6318 5731.3525 84.3276 -0.154 -0.972 -0.176 34 13 3
-2137.6177 5459.0278 42.6543 -0.187 -0.736 0.651 92 74 64
-2126.7395 5452.8779 38.1388 -0.179 -0.733 0.656 183 164 155
-2015.3181 5292.4482 10.4710 0.404 -0.073 0.912 183 168 165
-1971.6987 5261.6675 -6.4681 0.409 -0.112 0.905 226 208 206
-1880.2290 5182.4634 -39.1938 0.281 -0.435 0.855 222 210 212
-1908.2435 5324.9238 -51.7141 0.000 -0.998 -0.059 238 229 232
-1916.6067 5370.3853 -56.0109 -0.084 -0.945 -0.317 239 230 233
-1985.1426 5609.3232 -65.7414 -0.078 -0.811 -0.579 243 234 237
-1732.6261 5863.1172 -246.1897 0.344 -0.401 0.849 251 241 245
-1806.7565 6287.7661 -288.4128 0.584 -0.413 0.699 83 60 57
-1741.5404 6141.8022 -294.6779 0.516 -0.438 0.736 94 71 62
-1726.9077 6117.6602 -297.7253 0.174 -0.764 0.621 105 87 74
-4564.4189 2787.2092 1809.8502 0.895 -0.267 0.357 26 69 82
-4532.2900 2831.0044 1784.6877 0.107 -0.729 0.676 5 35 48
-4507.0166 2826.7776 1772.3276 0.105 -0.753 0.649 10 34 45
-4508.4111 2837.9670 1770.9039 0.688 -0.013 0.726 21 34 36
-4453.6226 2889.1355 1732.5145 0.981 0.026 0.191 75 72 66
-4460.3066 2935.4114 1727.1045 0.954 -0.202 0.221 150 147 140
-3543.7520 2611.1880 1311.7130 0.654 -0.105 -0.749 128 202 234
-3758.5605 2834.7393 1380.7059 0.376 -0.571 -0.730 99 46 22
-3459.4727 2661.6943 1258.0803 -0.036 -0.617 -0.786 78 55 39
-3453.4390 2666.5337 1254.0055 -0.036 -0.617 -0.786 93 82 68
-3447.4094 2671.3699 1249.9335 -0.036 -0.617 -0.786 176 175 165
-3443.9255 2678.0295 1246.8376 -0.076 -0.632 -0.771 182 190 186
-3026.1367 2559.9224 1051.7872 0.324 -0.889 -0.324 121 72 44
-2900.3169 2544.7605 989.1245 -0.203 -0.968 -0.147 101 75 53
-2888.1309 2912.0967 912.1751 -0.212 -0.977 0.001 81 47 33
-2740.9570 2800.1501 856.9836 0.400 -0.691 -0.602 95 48 24
-2716.4546 2897.4724 825.5089 0.965 -0.209 -0.159 206 125 72
-2725.4666 2916.0569 826.6341 0.911 0.402 0.093 205 125 72
-2736.4741 2946.4023 826.5392 0.892 0.444 0.087 195 115 62
-2307.4644 2923.8665 607.2725 0.713 -0.060 0.698 209 133 83
-2309.3645 2935.7097 605.9868 0.875 0.196 0.442 215 138 86
-2315.9377 3259.3076 547.2207 0.612 -0.152 0.776 189 115 63
-2174.9631 3214.5593 482.3455 0.081 -0.826 0.558 9 11 2
-2184.5649 3382.6895 455.0370 0.999 0.026 0.044 33 29 30
-2186.3430 3396.7312 453.2651 0.999 0.025 0.048 40 33 33
-2189.1570 3412.3977 451.7208 0.134 -0.933 0.335 49 40 41
-2181.3357 3412.0815 447.7052 0.134 -0.933 0.335 58 49 51
-2170.1560 3406.6357 442.9250 0.127 -0.932 0.338 69 60 62
-2160.9475 3404.1116 438.6107 0.275 -0.957 -0.096 137 130 132
-2712.7639 4843.0835 449.6596 0.203 -0.950 -0.236 111 87 85
-2719.4373 4871.9775 447.5846 0.186 -0.939 -0.291 114 90 88
-2649.9189 4766.5986 431.6047 0.865 0.441 -0.239 116 92 90
-2658.5999 4990.6177 393.0751 0.620 0.142 0.771 204 170 168
-1977.9926 4264.7080 177.8580 0.322 -0.924 -0.206 185 136 121
-2367.5481 5151.6533 210.4310 0.042 -0.838 -0.544 182 126 104
-2335.4648 5101.5352 203.3416 0.074 -0.737 -0.672 182 126 104
-1175.3588 2600.7148 79.3310 0.898 -0.121 0.423 178 122 101
-2447.6240 5592.2139 167.4952 0.422 -0.524 -0.739 164 109 88
-2428.9172 5592.2920 157.7302 0.144 -0.400 -0.905 146 101 77
-2428.5706 5612.9326 153.5827 0.161 -0.335 -0.929 138 94 70
-1991.9403 5220.5430 1.4262 -0.262 -0.939 -0.224 183 168 165
-1983.4690 5219.1709 -2.7252 -0.262 -0.939 -0.224 170 152 150
-1951.2161 5238.4653 -23.2435 0.927 0.083 0.367 218 205 205
-1967.5521 5303.7788 -27.2818 0.943 0.083 0.323 218 206 208
-1879.2283 5190.2012 -51.4873 0.333 -0.559 0.759 238 229 230
-1917.0339 5360.4634 -64.5057 -0.093 -0.957 -0.275 238 229 232
-1847.2061 5185.7529 -67.3222 0.027 -0.999 0.021 224 218 220
-1839.6925 5185.8726 -71.2612 0.027 -0.999 0.021 211 205 207
-1831.4791 5227.0015 -83.4466 -0.028 -0.918 -0.396 248 243 247
-1733.1609 5851.5308 -254.7174 0.322 -0.421 0.848 252 241 248
-1724.0480 5846.7119 -258.5409 0.323 -0.424 0.846 134 121 124
-1767.4258 6191.2622 -302.1515 0.361 -0.722 0.591 78 58 55
-1743.0751 6132.8804 -303.6226 0.536 -0.389 0.749 82 62 58
-1726.1328 6100.4868 -306.2271 0.168 -0.772 0.613 88 69 63
-2073.1255 1268.8120 798.3699 0.236 -0.952 -0.193 126 100 74
-4570.6938 2816.8530 1795.9878 0.940 0.177 -0.291 4 30 43
-4499.6187 2817.5471 1758.9316 0.098 -0.754 0.650 7 25 36
-4489.6846 2822.1292 1752.8840 0.688 -0.013 0.726 24 32 37
-4494.8062 2835.4653 1752.9618 0.780 -0.301 0.548 28 31 32
-4451.4937 2861.9512 1725.3329 0.595 0.066 0.801 53 58 62
-4454.0376 2905.3774 1718.2443 0.983 0.005 0.186 133 125 115
-4454.6099 2926.8552 1714.3822 0.767 -0.169 0.619 150 147 140
-4358.7280 2878.8252 1673.8757 0.081 -0.787 0.611 155 152 147
-4331.6074 2872.5767 1660.9976 0.045 -0.837 0.545 161 158 151
-4223.0195 2846.4670 1609.6456 0.113 -0.893 0.436 52 67 72
-3550.4839 2611.4036 1305.8057 0.654 -0.105 -0.749 125 201 234
-3766.6965 2835.6958 1374.6849 0.395 -0.573 -0.718 98 47 23
-3488.6687 2678.0159 1260.7942 -0.009 -0.740 -0.672 85 56 36
-3466.7375 2671.6064 1250.6427 -0.036 -0.617 -0.786 89 70 49
-3460.6841 2676.4563 1246.5588 -0.036 -0.617 -0.786 144 133 112
-3454.6348 2681.3025 1242.4779 -0.036 -0.617 -0.786 147 144 128
-3819.2461 3015.0139 1367.2557 0.672 -0.699 0.246 128 194 225
-3799.1836 3010.5798 1357.6925 0.344 -0.900 -0.268 129 194 225
-2766.9563 2802.0864 861.8573 0.299 -0.834 -0.465 75 51 48
-2758.5566 2803.2976 857.2593 0.457 -0.653 -0.604 79 50 44
-2749.6196 2803.9670 852.4871 0.378 -0.689 -0.619 72 37 26
-2734.5183 2798.6929 845.6639 0.036 -0.938 -0.344 79 37 22
-2690.8098 2811.4219 820.4935 0.132 -0.942 -0.310 219 136 86
-2719.0671 2895.4685 818.8956 0.960 -0.229 -0.161 207 126 73
-2717.5520 2903.4473 816.5634 0.960 -0.229 -0.161 206 126 73
-2714.0903 2909.4827 813.5963 0.770 -0.053 -0.636 206 126 73
-2728.7893 2933.9153 816.5004 0.882 0.456 -0.117 215 137 84
-2329.8933 3283.6555 541.5536 0.317 -0.714 0.624 188 109 60
-2329.5979 3294.1599 539.3658 0.351 -0.705 0.616 184 107 58
-2338.4871 3339.3167 535.2383 0.398 -0.846 0.354 174 107 71
-2177.7014 3378.1692 444.1905 0.998 0.052 0.031 29 23 25
-2178.6704 3390.9861 442.2118 0.998 0.008 0.062 55 46 49
-2191.6028 3421.8945 442.9439 0.612 -0.788 -0.060 58 49 52
-2169.8716 3400.5476 435.7893 0.192 -0.970 0.152 60 51 54
-2164.3469 3403.6172 432.3249 0.324 -0.931 -0.168 76 70 72
-2158.5576 3406.2693 428.8039 0.324 -0.931 -0.168 141 135 135
-2152.0706 3407.8372 425.1304 0.370 -0.881 -0.296 208 198 199
-2708.0850 4826.4111 439.2393 0.219 -0.944 -0.247 204 180 178
-2720.1174 4864.6162 438.0910 0.179 -0.942 -0.284 201 177 175
-2638.8511 4738.7397 420.2529 0.865 0.441 -0.239 199 175 173
-2405.3569 5165.2559 216.3592 0.257 -0.866 -0.429 185 136 120
-2433.0552 5302.7412 204.1219 0.358 -0.518 -0.777 183 125 103
-2365.9873 5585.8789 114.4489 0.234 -0.863 0.448 141 102 79
-2274.3730 5693.8081 45.9560 -0.017 -0.625 0.780 90 67 54
-2201.8884 5556.4136 34.9105 -0.109 -0.823 0.558 116 93 82
-2151.3899 5450.7134 29.1481 -0.118 -0.775 0.620 156 131 124
-2140.0132 5443.4248 24.6497 -0.124 -0.779 0.614 193 168 161
-2001.1110 5234.0527 -6.9584 -0.208 -0.939 -0.274 182 167 164
-1935.2853 5185.1055 -31.6737 0.675 -0.198 -0.711 206 193 193
-1956.5209 5284.6079 -39.9123 0.200 -0.591 0.781 190 178 180
-1936.8693 5252.6699 -43.9356 0.141 -0.604 0.784 155 143 145
-1915.5054 5215.7295 -47.8795 0.295 -0.573 0.764 190 178 180
-1904.8865 5207.8638 -51.8725 0.311 -0.556 0.771 229 217 219
-1875.5081 5169.2607 -59.6578 0.244 -0.954 -0.175 197 188 189
-1869.4376 5173.5547 -63.6427 -0.004 -0.991 -0.130 237 231 233
-1865.7225 5205.6855 -71.7952 0.835 -0.105 -0.539 236 230 232
-1858.3416 5206.3442 -75.7569 -0.061 -0.995 -0.078 225 219 221
-1800.5488 5170.2524 -98.7890 -0.014 -0.997 0.075 251 241 249
-1733.0726 5837.8560 -263.1308 0.089 -0.771 0.630 253 242 249
-1729.3229 6097.5972 -315.3808 0.183 -0.761 0.623 87 68 62
-4619.6406 2725.9731 1827.6295 0.457 -0.320 0.830 35 83 96
-4467.0190 2793.8020 1735.3741 0.076 -0.725 0.685 16 31 36
-4450.9756 2805.0120 1724.8802 0.413 -0.154 0.898 32 35 36
-4094.1833 2801.0342 1540.9279 -0.013 -0.917 0.398 144 200 238
-3586.9143 2659.2019 1305.9668 0.872 0.018 -0.489 141 178 193
-3474.9517 2663.8762 1247.0863 -0.002 -0.959 0.283 91 57 31
-3470.5239 2669.8887 1243.6206 0.041 -0.776 -0.630 91 63 35
-3464.7903 2674.9717 1239.6602 0.044 -0.776 -0.629 130 109 80
-2850.4702 2571.7515 941.7390 0.890 -0.174 -0.422 180 153 146
-2843.3994 2625.8247 927.5266 0.579 -0.240 -0.779 174 143 135
-2863.8215 2652.0818 932.9764 0.663 -0.162 -0.731 152 112 97
-2933.6140 2935.9871 913.7112 0.555 -0.612 -0.564 62 53 56
-2768.1260 2807.9246 853.0197 0.490 -0.652 -0.579 71 49 51
-2756.7009 2806.2539 847.4304 0.465 -0.655 -0.596 68 41 37
-2746.0449 2805.2705 842.1052 0.137 -0.990 -0.015 77 43 36
-2718.8118 2788.3154 831.3138 0.112 -0.950 -0.291 81 42 30
-2716.5630 2888.3474 810.6297 0.835 -0.122 -0.537 209 128 75
-2716.4214 2897.6819 808.7349 0.835 -0.122 -0.537 209 128 75
-2718.7742 2919.1082 805.7720 0.837 -0.100 -0.539 245 165 112
