ply
format ascii 1.0
element vertex 798
property float x
property float y
property float z
property float nx
property float ny
property float nz
property uchar diffuse_red
property uchar diffuse_green
property uchar diffuse_blue
end_header
-1118.3441 2618.7598 -870.9666 0.649 -0.533 -0.543 24 15 1
-1113.1752 2617.6396 -873.3132 0.539 -0.594 -0.597 17 12 0
-1139.6761 2755.8989 -931.4584 0.567 -0.353 0.745 23 3 0
-1024.3859 3344.5403 -1308.7538 0.310 -0.860 0.406 50 29 24
-991.0170 3259.4541 -1282.6735 0.607 -0.574 -0.549 28 7 4
-1060.5355 3722.4436 -1488.3186 0.960 0.045 -0.276 194 83 74
-1058.0552 3736.0371 -1496.9281 0.991 0.084 -0.106 197 77 69
-3086.2793 1578.0043 792.1447 0.359 -0.610 0.706 35 29 17
-3077.3347 1577.6276 787.2689 0.359 -0.610 0.706 35 29 17
-3073.2686 1580.0554 783.6706 0.225 -0.584 0.780 35 29 17
-3045.6724 1578.3629 768.9095 0.530 -0.454 0.716 42 36 24
-2347.4539 1807.4919 250.8586 0.869 -0.035 0.493 46 18 14
-2363.9866 1850.1350 237.5706 0.664 -0.447 -0.600 181 152 119
-2370.0537 1861.1985 235.1321 0.622 -0.418 -0.661 179 154 116
-2349.9880 1860.7496 223.9835 0.710 -0.209 0.672 186 150 118
-2907.0796 2817.0972 31.7103 0.072 -0.995 -0.074 82 39 20
-2848.4341 2926.1973 -59.5720 0.636 0.086 -0.767 164 100 83
-2068.3728 2175.8438 -103.3466 -0.392 -0.851 -0.349 56 37 31
-1796.8851 1927.1477 -125.2017 0.640 -0.248 -0.727 58 32 23
-2489.5164 2803.7751 -198.1745 0.985 0.052 -0.164 188 141 139
-2142.0918 2940.2476 -467.8907 0.467 -0.140 -0.873 152 87 65
-1787.0647 2636.7771 -508.0348 -0.597 -0.758 -0.263 48 38 33
-1775.6180 2627.7776 -509.7463 -0.601 -0.769 -0.216 63 47 39
-1591.0276 2527.3530 -561.1129 -0.368 -0.894 -0.257 110 42 7
-1579.5942 2516.7524 -561.9656 0.051 -0.899 -0.435 110 42 7
-1575.5322 2519.2576 -565.6027 0.068 -0.888 -0.455 113 44 9
-1568.1138 2515.7297 -567.9371 0.962 -0.137 -0.237 122 47 12
-1568.0189 2525.3708 -573.1165 0.962 -0.137 -0.237 123 47 13
-1554.0616 2509.9622 -572.8455 0.967 -0.168 -0.191 122 46 12
-1570.1034 2579.0840 -600.4891 0.317 -0.948 -0.007 121 47 12
-1413.1136 2523.5896 -660.0782 0.837 -0.274 -0.473 133 57 22
-1115.7782 2614.6279 -877.2148 0.612 -0.493 -0.618 27 12 2
-1112.1630 2617.6697 -880.8835 0.466 -0.576 -0.672 14 8 0
-1142.2426 2725.3286 -921.0480 0.989 0.028 -0.144 7 12 0
-1139.5311 2731.3367 -925.7809 0.981 -0.195 -0.008 21 11 2
-1065.5376 3723.5442 -1495.2592 0.933 0.020 -0.359 187 84 73
-1101.0824 3912.9712 -1575.7925 0.862 -0.039 -0.505 196 76 68
-2757.8999 1594.4249 590.1461 0.638 -0.734 0.234 48 40 29
-2346.1194 1853.2643 218.8326 0.715 -0.216 0.665 185 150 118
-2317.0391 1981.5792 133.8852 0.501 -0.242 0.831 116 71 55
-2913.1599 2817.1138 25.5238 0.072 -0.995 -0.074 79 36 17
-2868.3733 2922.9448 -56.3179 0.826 0.171 -0.537 163 100 83
-1963.6547 1962.5674 -56.0743 0.466 -0.760 -0.452 167 104 97
-1968.3372 1980.7439 -63.1234 0.532 -0.569 -0.627 176 113 106
-2451.5342 2568.2463 -103.0557 -0.509 -0.588 0.628 106 64 57
-2412.8574 2532.0339 -105.6304 -0.509 -0.588 0.628 71 36 26
-2375.2771 2496.8479 -108.1320 -0.509 -0.588 0.628 48 19 7
-1809.6018 1931.3370 -126.6401 0.629 -0.202 -0.750 54 34 24
-1809.7245 1944.4675 -133.5783 0.565 -0.370 -0.738 118 85 78
-2464.5295 2766.4080 -201.4542 0.992 -0.117 0.046 190 144 140
-2506.2695 2826.8364 -210.0690 0.974 -0.024 -0.224 191 140 128
-2424.7397 3087.4841 -395.3411 0.767 -0.013 0.641 210 153 142
-2316.2322 3072.4561 -448.7639 -0.302 -0.430 -0.851 196 137 123
-2146.6223 2928.8452 -468.1624 0.465 -0.146 -0.873 179 114 92
-2072.3777 2984.3823 -539.8435 0.526 -0.764 -0.373 32 37 22
-2059.2578 2974.4631 -541.9789 0.312 -0.899 -0.306 27 38 21
-1777.3230 2632.9839 -519.3815 -0.605 -0.768 -0.211 98 50 41
-1616.2167 2535.1631 -558.4025 0.274 -0.885 0.376 103 37 2
-1396.0210 2372.4128 -596.2311 0.369 -0.578 -0.728 118 45 13
-1417.4730 2524.3728 -665.1837 0.434 -0.669 -0.604 127 52 19
-1415.0239 2529.8606 -669.4993 0.434 -0.669 -0.604 132 59 29
-1259.0319 2575.6362 -782.2607 0.859 -0.368 0.356 31 13 2
-1255.7460 2579.5083 -786.1879 0.859 -0.368 0.356 42 17 6
-1015.4111 3279.4861 -1295.8512 0.457 -0.649 0.609 34 15 9
-1102.4701 3898.7869 -1577.0695 0.862 -0.039 -0.505 194 78 67
-3203.8352 1609.5735 827.0787 0.917 -0.332 0.222 32 26 14
-3176.2100 1603.6731 814.6315 0.895 -0.372 -0.245 32 26 14
-2421.6729 1886.6516 236.7026 0.573 -0.468 -0.673 179 152 125
-2883.1982 2770.7073 23.8341 0.724 -0.678 -0.129 78 33 14
-2876.9011 2772.8210 19.1438 0.739 -0.663 -0.119 76 33 14
-2878.4915 2927.3735 -62.7597 0.823 0.169 -0.543 161 101 86
-2152.0276 2211.8877 -89.8963 -0.497 -0.621 -0.606 100 59 53
-2342.3213 2460.9556 -115.8170 -0.494 -0.588 0.640 59 40 28
-1750.8662 1849.7214 -122.5254 0.984 -0.153 0.092 50 28 16
-2353.5435 3107.4202 -455.8219 -0.297 -0.443 -0.846 194 135 117
-1766.1897 2578.5376 -504.3330 -0.013 -0.977 -0.215 50 35 31
-1760.7405 2579.2214 -507.7783 -0.013 -0.977 -0.215 70 47 42
-1409.1907 2390.3735 -605.2322 0.252 -0.693 -0.675 113 42 12
-1259.5312 2567.8933 -784.8983 0.868 -0.368 0.334 30 14 5
-1256.3112 2571.8857 -788.8566 0.868 -0.368 0.334 34 14 4
-1052.7124 2668.3950 -955.5973 0.300 -0.762 0.574 118 54 28
-1039.1729 3272.8936 -1287.1094 0.997 0.012 -0.077 15 4 0
-1042.3384 3303.6150 -1301.7800 0.995 0.008 -0.095 20 5 1
-1038.2153 3327.8213 -1317.0780 0.737 -0.605 0.301 35 17 11
-3199.5513 1608.7814 817.5974 0.910 -0.339 0.238 46 40 28
-2764.4756 1587.3563 583.8383 0.169 -0.966 0.196 37 31 19
-2324.6179 1748.9537 248.9513 0.964 -0.228 -0.137 41 27 12
-2433.5239 1892.8628 232.9527 0.185 -0.486 -0.854 179 155 122
-2272.5991 1973.3788 98.9259 0.834 -0.021 0.552 105 63 51
-2818.0281 2809.3479 -43.1740 0.381 -0.880 -0.284 89 34 20
-2881.6641 2924.1445 -69.0373 0.821 0.168 -0.545 162 105 91
-1760.0890 1850.0425 -123.6791 0.293 -0.605 0.740 79 54 42
-2324.7783 3068.8481 -460.8154 -0.055 -0.641 -0.765 202 142 122
-2079.7942 2864.5242 -489.0414 0.187 -0.980 -0.063 183 115 98
-1697.4510 2534.4749 -527.0894 -0.633 -0.742 0.221 103 48 15
-1690.3075 2532.0537 -529.8145 -0.641 -0.744 0.190 103 49 13
-1428.5077 2530.5266 -676.5876 0.879 -0.250 -0.405 107 53 30
-2779.7341 1589.1572 584.5524 0.010 -0.898 0.441 38 32 20
-2773.3005 1604.2830 572.7675 0.710 -0.694 -0.123 35 29 17
-2321.5510 1737.2202 246.8777 0.858 -0.326 -0.397 41 28 10
-2858.3909 2819.7039 -35.5396 0.751 -0.651 -0.110 82 33 19
-2824.5232 2792.2534 -39.7714 0.682 -0.732 -0.014 82 33 19
-2828.4397 2805.3022 -44.6130 0.381 -0.880 -0.284 82 33 19
-2884.6052 2920.6689 -75.3017 0.475 -0.028 -0.880 159 110 97
-1759.5941 1844.9437 -127.3944 0.291 -0.602 0.744 76 36 27
-2360.9219 3091.2256 -461.9658 0.375 -0.798 -0.473 203 142 118
-2344.4985 3078.4893 -464.3283 0.508 -0.630 -0.588 203 141 117
-2341.8977 3085.4592 -469.5544 0.508 -0.630 -0.588 203 141 117
-2100.5330 2888.1636 -498.8135 0.545 -0.623 -0.561 179 118 102
-1113.9790 2620.8062 -909.4362 0.550 -0.385 0.741 98 51 39
-1043.4655 3076.6238 -1195.1854 0.925 0.145 0.353 20 6 3
-1287.1091 4710.4849 -1940.2068 -0.510 -0.760 -0.402 193 8 36
-913.1531 3323.5793 -1401.8138 -0.289 -0.879 -0.380 214 5 30
-909.6668 3352.8965 -1419.6025 0.418 -0.870 -0.261 214 6 30
-2396.3413 1835.4668 228.9614 0.522 -0.474 -0.709 177 155 120
-2871.8657 2697.8267 28.5259 0.652 -0.699 0.293 104 66 45
-2840.9319 2803.4783 -46.0926 0.620 -0.781 -0.073 82 33 19
-2849.0142 2821.0195 -51.0624 -0.094 -0.876 -0.473 82 33 19
-2828.7429 2834.8567 -69.9390 0.416 -0.804 -0.425 104 53 42
-1932.9985 1897.5072 -64.7267 0.115 -0.691 -0.714 163 113 115
-1759.5193 1840.3624 -131.1291 0.291 -0.602 0.744 60 17 10
-1891.7308 2024.1610 -156.5271 0.992 0.110 0.060 192 144 132
-2351.2017 3090.8062 -476.6819 0.500 -0.638 -0.585 203 141 116
-2294.8833 3052.4685 -487.5161 0.413 -0.864 -0.289 201 139 114
-2130.8752 3021.6514 -562.8702 0.954 -0.283 0.102 11 28 18
-1762.1451 2550.6211 -514.5663 -0.339 -0.933 -0.116 95 48 26
-1769.3013 2571.6033 -521.9207 -0.368 -0.928 0.058 100 46 22
-1718.1504 2526.1135 -525.9785 -0.644 -0.656 0.395 109 50 22
-1664.4019 2484.0120 -533.3305 0.994 0.097 -0.052 125 67 38
-1669.1841 2501.3535 -540.0442 0.995 0.093 -0.035 105 50 17
-1672.7648 2516.7825 -546.3959 0.995 0.094 -0.041 105 51 17
-1540.9808 2478.4988 -599.6169 0.968 -0.163 -0.189 105 42 11
-1541.7476 2489.5728 -605.1879 0.918 -0.134 -0.373 105 42 11
-913.9261 3353.1152 -1425.5540 0.048 -0.980 -0.194 210 8 32
-2876.7495 2680.0232 31.6380 0.505 -0.692 0.516 109 68 49
-2893.9675 2714.3215 22.6228 0.444 -0.832 0.331 112 71 51
-2873.7532 2719.0525 8.7283 0.773 -0.632 -0.055 107 64 47
-2882.5112 2762.3879 -9.9407 0.743 -0.661 -0.110 92 46 30
-2886.8008 2775.5278 -14.6864 0.965 -0.264 -0.006 90 47 30
-2859.7861 2808.4038 -47.6998 0.789 -0.600 -0.132 83 34 20
-2848.1296 2804.8022 -52.2688 0.613 -0.785 -0.091 82 33 19
-2831.4436 2813.4714 -66.3295 0.048 -0.932 -0.359 91 41 30
-2827.0249 2817.5942 -71.0470 0.116 -0.915 -0.387 96 46 35
-2788.2825 2793.3115 -79.5348 -0.088 -0.877 -0.473 150 100 87
-2687.8337 2701.0977 -85.6270 0.647 -0.667 -0.369 159 109 98
-2142.6782 2124.6973 -77.3818 0.674 -0.701 -0.233 160 116 117
-1834.4601 1950.5161 -155.2443 0.980 0.023 0.196 190 142 130
-2355.5432 3110.5332 -494.4517 0.606 -0.756 -0.247 201 139 114
-2336.6426 3094.1274 -496.1122 0.172 -0.668 -0.724 201 139 114
-2308.5137 3064.2529 -495.6143 0.271 -0.923 -0.272 201 139 114
-2192.3889 3021.2913 -537.2784 0.939 -0.293 -0.181 134 90 70
-2241.3699 3128.1021 -567.9507 0.445 0.039 -0.895 40 12 11
-1809.0137 2590.1919 -517.4715 -0.668 -0.733 0.129 57 44 26
-1774.6349 2554.2188 -517.1561 -0.394 -0.918 0.032 84 51 30
-1774.5248 2563.4456 -522.2371 -0.333 -0.943 0.028 92 50 27
-1772.6613 2569.8931 -526.7881 -0.383 -0.924 -0.028 94 47 23
-1480.6045 2335.0439 -562.5968 0.567 -0.422 -0.707 106 43 12
-1478.5671 2340.4929 -566.7020 0.519 -0.431 -0.738 103 40 9
-1478.4783 2349.4602 -571.6299 0.526 -0.439 -0.729 100 37 6
-1475.0601 2361.6865 -580.1953 0.833 -0.514 -0.204 100 37 6
-1252.3593 2527.5564 -795.1481 0.947 -0.234 0.221 7 2 0
-1051.3206 2703.6753 -1003.5448 0.999 -0.042 0.019 83 36 13
-1009.2637 2704.2656 -1027.4196 -0.050 -0.571 -0.819 111 52 30
-1025.8442 2892.7563 -1120.6705 0.945 -0.133 -0.299 76 41 37
-971.4464 2990.9758 -1204.5658 -0.031 -0.397 -0.917 18 7 1
-1081.4785 3767.4414 -1565.3313 0.989 0.147 -0.029 159 49 52
-913.9387 3357.4902 -1436.1520 0.449 -0.839 -0.307 202 8 31
-2455.2307 1872.1328 227.9640 0.847 -0.484 -0.221 174 156 128
-2897.4006 2737.2273 2.6689 0.729 -0.587 -0.352 126 80 64
-2884.3193 2740.8662 -6.6280 0.764 -0.449 -0.463 122 76 60
-2884.2646 2749.3882 -11.3120 0.791 -0.474 -0.387 119 73 57
-2882.2532 2755.9106 -15.9974 0.769 -0.596 -0.228 118 72 56
-2884.1240 2766.4958 -20.7321 0.787 -0.613 -0.072 118 72 56
-2853.5146 2804.1804 -58.4140 0.637 -0.767 -0.080 123 74 60
-2873.2439 2834.1309 -63.7436 -0.096 -0.895 -0.436 123 74 60
-2828.9465 2795.5435 -67.4266 -0.080 -0.977 -0.197 133 85 73
-2824.1116 2799.1741 -72.1108 0.026 -0.966 -0.258 137 89 79
-1825.9126 1942.0022 -161.8512 0.966 -0.092 0.242 187 140 130
-2392.5549 3059.1584 -455.2281 0.831 -0.511 0.221 214 153 134
-2192.2551 3056.1785 -565.5285 0.833 -0.545 0.095 35 19 14
-2176.6299 3043.2273 -567.1880 0.889 -0.436 0.139 27 17 11
-1445.6759 2452.2717 -652.9576 0.569 -0.654 -0.497 111 48 17
-1445.6140 2462.0234 -658.3171 0.524 -0.682 -0.511 116 53 24
-1445.3275 2471.3987 -663.5964 0.569 -0.573 -0.589 113 55 28
-1045.8522 2676.5776 -998.8602 0.992 -0.086 0.091 75 29 8
-1028.8942 2905.9175 -1133.5663 0.879 -0.141 -0.456 50 31 25
-1082.5850 3429.0066 -1389.1936 0.104 -0.366 -0.925 36 21 14
-1077.2098 3731.9900 -1557.6396 0.988 0.150 -0.045 134 30 29
-3267.0684 1794.6271 716.0082 -0.288 -0.859 0.422 47 41 27
-2454.5769 1861.8318 226.1604 0.842 -0.427 0.330 169 154 133
-2871.0242 2807.6174 -60.0300 0.514 -0.592 -0.621 150 101 87
-2857.3179 2801.8708 -64.5224 0.672 -0.741 -0.001 150 101 87
-2850.4753 2803.3975 -69.1743 0.127 -0.844 0.521 150 101 87
-2840.9243 2802.0144 -73.7414 0.127 -0.844 0.521 158 109 95
-2803.7512 2788.4951 -87.0577 0.079 -0.921 0.382 164 113 103
-2200.6887 2775.7024 -416.2898 0.700 -0.712 -0.049 209 148 129
-2252.9946 3031.4155 -527.2823 0.053 -0.701 -0.711 170 114 86
-2199.9243 2995.3972 -537.1307 0.163 -0.924 -0.345 158 118 89
-2166.2964 2987.3687 -551.4798 -0.108 -0.967 0.230 39 17 7
-2144.1367 2964.4768 -551.2883 0.469 -0.790 -0.395 36 19 10
-2143.8721 2995.9045 -568.6613 0.478 -0.425 -0.769 15 11 9
-1709.3954 2481.5959 -529.0159 0.336 -0.617 0.712 133 97 61
-1448.5103 2469.9221 -668.0766 0.696 -0.425 -0.579 107 54 29
-1460.6548 2554.4399 -707.6295 -0.647 -0.655 -0.390 35 16 15
-1444.2111 2532.3865 -704.7104 -0.651 -0.653 -0.388 31 16 16
-1323.7124 2494.2317 -750.9830 -0.168 -0.914 -0.368 31 18 12
-1240.0216 2504.2253 -803.1232 0.916 -0.093 0.389 14 5 0
-1222.1813 2553.1060 -839.8618 -0.475 -0.584 -0.658 42 22 11
-1052.1152 2670.3408 -998.9402 0.982 0.165 0.093 81 35 12
-1031.3696 2749.4272 -1053.8544 0.025 -0.789 -0.614 88 43 18
-1030.8158 2762.3323 -1061.2365 -0.320 -0.637 -0.701 87 36 11
-1022.3864 2825.8181 -1100.7329 0.832 -0.125 -0.540 105 57 49
-1012.6808 3020.5964 -1212.9022 0.799 -0.001 0.601 18 13 7
-1075.0139 3385.9951 -1378.4227 0.315 -0.912 -0.263 40 25 18
-1053.0264 3366.1050 -1379.7803 0.135 -0.990 0.037 57 47 38
-1053.4138 3387.4832 -1391.2817 0.839 -0.540 -0.068 61 48 39
-1053.7168 3408.7632 -1402.7762 0.748 -0.435 -0.502 70 51 42
-1094.2401 3779.9060 -1583.6055 0.962 0.047 -0.268 123 21 19
-873.1265 3539.0847 -1574.8955 0.756 -0.601 -0.259 201 15 33
-869.1891 3545.8325 -1580.7893 0.792 -0.603 0.090 200 13 32
-864.8578 3550.7610 -1585.9055 0.792 -0.603 0.090 200 13 32
-2345.4834 1712.0619 240.8062 0.763 -0.354 -0.540 39 29 19
-2358.8152 1744.3136 230.4796 0.579 -0.356 -0.733 53 39 25
-2369.6367 1941.0581 128.2600 0.960 -0.062 0.273 38 28 18
-2861.8879 2782.8420 -61.0012 0.795 -0.602 -0.082 154 105 91
-2865.8562 2804.5935 -70.7601 0.741 -0.664 0.099 157 108 94
-2922.9868 2883.3247 -82.2916 0.210 -0.966 -0.149 162 110 96
-2921.1787 2890.4695 -87.2281 0.313 -0.945 -0.096 165 113 100
-1567.3376 1548.8510 -102.3012 0.344 -0.816 -0.465 62 59 55
-1700.6711 1735.8186 -130.9860 0.915 -0.336 -0.224 56 34 35
-2386.7090 3056.4309 -475.8691 -0.128 -0.947 0.294 192 131 112
-2206.0959 2996.6782 -543.4745 0.163 -0.924 -0.345 105 73 46
-2200.0234 2998.2180 -547.7001 0.169 -0.927 -0.335 46 20 5
-2156.0857 2974.6372 -559.1704 0.495 -0.833 -0.249 31 23 9
-1730.3103 2471.8494 -519.4274 0.321 -0.540 0.778 90 64 33
-1724.1803 2471.1401 -522.4474 0.321 -0.540 0.778 98 71 38
-1718.0654 2470.4326 -525.4600 0.321 -0.540 0.778 125 98 61
-1712.9464 2471.3064 -528.7885 0.536 -0.268 0.800 137 107 69
-1414.4460 2387.4604 -648.7223 0.443 -0.685 -0.579 101 45 17
-1452.5178 2470.0278 -672.9669 0.696 -0.425 -0.579 90 41 21
-1451.6925 2478.3826 -678.0225 0.689 -0.430 -0.583 75 29 12
-1352.4998 2547.3567 -771.1518 -0.476 -0.873 0.103 39 26 20
-1344.2756 2540.6150 -772.0181 -0.472 -0.880 0.059 39 26 20
-1224.8778 2562.0957 -850.2593 -0.558 -0.623 -0.548 39 14 3
-1173.5149 2530.8054 -861.6190 -0.206 -0.800 0.563 50 21 5
-1031.1857 2723.0090 -1046.5413 0.322 -0.815 0.482 85 45 16
-1030.8165 2736.2695 -1054.0420 0.584 -0.606 0.540 80 38 12
-1077.6189 3360.0396 -1371.1743 0.008 -0.989 -0.145 37 26 17
-1072.4650 3361.2327 -1374.6980 0.020 -0.991 -0.130 45 32 24
-1032.1417 3373.4790 -1403.8679 0.010 -0.893 0.451 72 40 33
-1030.0438 3385.9666 -1411.9052 -0.036 -0.926 0.376 89 49 44
-1081.3409 3734.1880 -1574.9429 0.974 0.008 0.226 125 7 16
-1083.7515 3862.4109 -1644.1443 0.898 -0.210 0.386 183 4 23
-2975.4260 2905.2415 -75.0203 0.682 -0.406 0.609 164 112 98
-2146.7627 2082.4453 -80.6419 -0.589 -0.689 -0.423 135 89 78
-1571.1696 1549.4727 -105.8317 0.321 -0.842 -0.433 75 71 67
-2211.5093 2996.8232 -549.6282 0.169 -0.927 -0.335 55 25 6
-2206.1260 2999.3958 -554.0370 0.169 -0.927 -0.335 35 11 0
-2214.7080 3022.7676 -562.1794 -0.017 -0.826 -0.563 26 8 0
-2200.4873 3012.1953 -564.2350 0.183 -0.771 -0.610 30 15 2
-2152.8066 2951.3535 -557.1044 0.392 -0.817 -0.423 33 21 7
-2161.4495 2974.8298 -565.2708 0.519 -0.831 -0.199 31 22 10
-2198.0227 3040.6143 -581.2962 0.609 -0.734 -0.301 28 23 13
-1762.3041 2443.6697 -493.5185 -0.447 -0.671 -0.591 22 11 7
-1759.3759 2474.8323 -512.3520 0.288 -0.548 -0.786 129 99 93
-1722.1974 2452.1511 -520.4644 0.394 -0.283 0.875 64 39 12
-1718.6084 2455.4382 -524.2719 0.377 -0.316 0.871 76 51 19
-1714.3975 2457.7358 -527.8779 0.403 -0.302 0.864 120 95 61
-1707.8705 2456.3130 -530.7152 0.403 -0.303 0.863 150 121 83
-1700.8755 2454.1084 -533.3807 0.419 -0.303 0.856 146 114 76
-1460.8105 2508.3567 -696.5926 0.339 -0.414 -0.845 38 9 6
-1261.0980 2603.7498 -860.1261 0.557 -0.392 0.732 28 11 4
-1205.2904 2540.9575 -856.4295 -0.422 -0.753 -0.504 63 36 23
-1199.8037 2539.3120 -858.5663 -0.422 -0.753 -0.504 68 41 27
-1033.9460 2720.0803 -1050.4524 0.336 -0.801 0.495 73 41 16
-1029.3231 2720.3452 -1053.1648 0.336 -0.801 0.495 68 34 11
-1041.5356 2893.1633 -1141.8173 0.941 -0.313 0.130 68 36 28
-1028.5712 3344.1140 -1398.0319 0.272 -0.841 -0.468 63 37 32
-1039.6000 3488.7732 -1471.7917 0.334 -0.929 0.157 79 29 22
-1001.6479 3406.1411 -1447.2283 0.374 -0.764 0.526 104 7 12
-2223.0649 3006.0249 -557.4095 0.141 -0.833 -0.535 37 5 0
-2161.3743 2956.3760 -564.0580 0.466 -0.873 -0.143 44 25 15
-2181.6843 3007.9624 -581.4017 -0.053 -0.392 -0.918 40 26 19
-1765.9419 2451.5144 -503.2412 0.293 -0.555 -0.779 27 11 6
-1702.5986 2441.0774 -532.5386 0.482 -0.305 0.822 162 129 93
-1691.5581 2432.3342 -533.8073 0.386 -0.317 0.866 160 125 89
-1687.4413 2434.6802 -537.3876 0.439 -0.320 0.840 147 112 75
-1530.4584 2416.3584 -614.1765 0.566 -0.797 0.212 108 45 14
-1523.9391 2414.1035 -616.5374 0.523 -0.806 0.277 109 46 15
-1519.6273 2415.7634 -619.8454 0.523 -0.806 0.277 105 42 11
-1527.4661 2597.7422 -716.3675 -0.390 -0.500 -0.773 42 18 8
-1361.0424 2548.8613 -781.4474 0.412 -0.873 0.262 36 23 17
-1211.4205 2546.6748 -863.1024 -0.257 -0.835 0.486 39 24 15
-1202.8376 2537.6230 -862.8391 -0.258 -0.827 0.499 38 23 14
-1200.2526 2542.9648 -867.2316 -0.028 -0.768 0.640 33 18 9
-1127.4170 2650.6880 -967.2775 0.114 -0.607 -0.786 29 15 6
-1037.3765 2677.0273 -1031.7446 -0.073 -0.744 -0.665 55 30 13
-1038.2852 2886.0471 -1147.0927 0.940 -0.326 0.102 44 27 20
-1015.6705 3076.2917 -1265.0624 0.969 0.170 -0.180 24 15 8
-1080.0836 3539.3564 -1486.0457 -0.681 -0.731 -0.040 61 40 34
-1072.5056 3532.3059 -1486.3347 -0.681 -0.731 -0.040 49 28 23
-1062.8566 3517.3618 -1483.3959 -0.679 -0.733 -0.037 35 16 9
-2364.7134 1917.9120 117.0851 0.885 0.091 0.457 34 30 18
-2334.8042 2204.2061 -58.7112 0.689 -0.116 0.715 161 112 95
-2240.7219 2119.2568 -63.4435 -0.418 -0.791 -0.447 162 114 97
-2225.0945 2116.2598 -70.4118 -0.385 -0.801 -0.458 173 125 112
-2224.3411 3010.5881 -568.3526 0.120 -0.792 -0.599 41 11 3
-1796.2377 2482.6526 -511.2285 -0.516 -0.811 -0.276 23 8 0
-1789.9904 2481.9905 -514.3126 -0.514 -0.815 -0.269 36 18 8
-1674.8737 2407.7136 -536.6055 0.457 -0.287 0.842 174 129 96
-1506.9237 2423.3914 -638.1373 -0.140 -0.948 -0.284 103 40 7
-1499.9048 2420.1172 -640.1944 -0.139 -0.958 -0.251 98 33 1
-1491.9435 2415.0825 -641.7931 -0.162 -0.954 -0.252 96 32 0
-1581.2057 2681.2708 -740.5497 -0.430 -0.498 -0.753 57 25 13
-1353.2607 2503.0083 -767.3440 0.744 -0.003 -0.668 43 30 24
-1363.8684 2546.5476 -785.7034 0.410 -0.876 0.253 33 20 12
-1250.9017 2585.0273 -869.5361 0.489 -0.520 0.701 18 13 7
-1054.5298 2689.0349 -1035.9127 -0.168 -0.781 -0.601 62 36 23
-1007.0033 2644.3264 -1037.3043 0.743 -0.436 -0.507 47 20 6
-1070.7429 3347.4502 -1393.2367 -0.436 -0.833 0.342 16 7 1
-1012.3090 3272.0737 -1383.5948 0.108 -0.955 0.276 47 28 24
-2360.8032 1910.1826 112.1952 0.879 0.083 0.469 33 29 17
-2372.6482 2252.8977 -72.6325 -0.677 -0.736 -0.031 160 113 99
-1799.1078 2489.3171 -520.8715 -0.535 -0.802 -0.266 58 35 19
-1518.3425 2417.9651 -635.8362 0.200 -0.893 -0.404 114 51 18
-1632.9034 2770.7329 -769.6426 -0.334 -0.455 -0.825 47 18 10
-1366.5878 2544.0159 -789.8907 0.400 -0.883 0.246 31 18 12
-1043.4381 2908.9988 -1171.8572 0.916 -0.096 -0.390 27 16 12
-1034.4059 2895.8225 -1169.4800 0.969 -0.023 -0.244 22 11 7
-1041.2863 3363.1150 -1426.6042 0.234 -0.555 -0.799 34 15 11
-1003.6752 3384.6008 -1459.3386 0.787 -0.616 -0.011 100 8 19
-2375.2300 1739.2161 208.9177 0.745 -0.496 -0.447 171 151 117
-2375.1328 1744.4705 205.9196 0.881 -0.436 0.186 179 156 124
-2357.5537 1903.0763 107.3645 0.879 0.083 0.469 35 31 19
-2427.1572 2297.5945 -75.4364 0.604 -0.686 -0.405 165 122 113
-2330.2256 2217.3501 -83.7917 0.994 -0.109 0.010 83 42 33
-3004.5605 3002.2825 -152.7033 0.343 -0.579 0.740 95 78 79
-1558.0560 1524.7539 -120.4483 -0.293 -0.916 -0.274 94 81 70
-1785.7329 2453.2031 -515.5085 0.058 -0.395 -0.917 51 24 10
-1655.7059 2398.8911 -556.6033 0.958 -0.286 -0.007 161 115 81
-1360.8948 2492.3333 -771.1540 0.405 -0.179 -0.897 32 18 15
-1375.7108 2533.5925 -786.1253 0.384 -0.193 -0.903 31 19 15
-1233.5980 2572.5356 -886.1301 -0.196 -0.574 0.795 18 9 2
-1082.8860 2708.2932 -1045.1215 -0.008 -0.768 0.640 65 36 25
-1049.8333 2916.8962 -1180.2079 0.947 -0.025 -0.319 27 16 12
-1073.0983 3463.6990 -1473.8429 0.081 -0.564 -0.822 26 8 4
-2584.7190 1571.6754 411.4500 0.043 -0.756 -0.653 43 35 24
-2335.5933 1661.6697 224.0880 0.629 -0.340 -0.698 44 31 14
-2347.1462 1889.5461 102.2585 0.903 0.102 0.416 33 29 17
-2214.1394 1993.1841 -29.0403 0.013 -0.478 -0.879 38 27 15
-2241.6401 2092.3889 -69.7438 0.871 -0.166 0.462 141 106 102
-2380.5715 2258.0691 -86.6733 -0.518 -0.802 -0.298 76 43 38
-2939.2974 2916.0166 -150.0597 0.557 -0.490 0.671 78 72 70
-2471.3926 2452.2939 -146.0656 -0.446 -0.816 0.366 93 83 82
-1806.9163 2496.8442 -535.8509 -0.406 -0.727 -0.554 141 102 84
-1802.1080 2498.4485 -539.3924 -0.088 -0.631 -0.771 135 90 65
-1620.6552 2406.0852 -587.0405 0.906 0.007 -0.423 95 42 8
-1512.2684 2374.5310 -628.7855 0.279 -0.868 -0.411 111 46 16
-1375.4230 2503.9050 -776.6666 0.274 -0.204 -0.940 31 18 12
-1388.6364 2541.6426 -790.6397 0.256 -0.230 -0.939 28 13 8
-1393.5656 2573.2058 -805.6871 0.361 -0.288 -0.887 27 14 8
-1042.3025 2834.6042 -1145.5194 0.104 -0.577 -0.810 68 37 27
-1040.3202 2843.5811 -1151.6565 0.104 -0.577 -0.810 54 37 29
-1032.8569 2866.0840 -1168.4100 0.973 -0.039 -0.227 17 3 1
-1084.2089 3529.4055 -1513.3140 0.068 -0.842 -0.535 26 7 3
-2667.4980 1695.3402 380.3728 0.241 -0.719 0.652 42 34 23
-2659.0938 1694.4442 376.2758 0.241 -0.719 0.652 42 32 22
-2646.6409 1690.6248 371.6121 0.165 -0.964 0.208 45 35 25
-1793.2533 1825.0201 -171.6206 0.888 -0.075 -0.453 187 137 132
-1814.0016 2492.0007 -536.7719 0.091 -0.391 -0.916 115 73 63
-1813.3538 2509.0032 -546.7245 -0.380 -0.673 -0.634 117 65 35
-1654.4094 2392.3025 -567.8938 0.995 0.069 0.073 162 114 81
-1610.4376 2400.2512 -596.4625 0.967 -0.253 0.001 106 47 15
-1521.7444 2321.2419 -600.4349 0.479 -0.773 -0.417 106 40 10
-1527.6818 2422.6653 -654.4372 -0.421 -0.810 0.409 111 47 12
-1510.7732 2411.1306 -657.1860 -0.422 -0.818 0.392 105 42 9
-1493.1130 2397.9963 -659.4434 0.664 -0.728 0.170 103 43 9
-1051.2174 2850.3813 -1156.8254 0.098 -0.585 -0.805 55 24 14
-1048.7632 2857.9436 -1162.4385 0.105 -0.580 -0.808 43 25 17
-2656.3618 1619.1581 410.4944 0.273 -0.745 -0.608 32 24 13
-2651.1438 1620.4546 406.9085 0.470 -0.576 -0.669 31 23 12
-2650.8684 1625.1609 404.0918 0.462 -0.552 -0.694 31 23 12
-2667.0579 1691.5195 375.3423 0.201 -0.752 0.628 35 27 16
-2658.0186 1690.1688 371.1683 0.241 -0.719 0.652 35 27 16
-2647.5276 1687.7578 366.8018 0.173 -0.964 0.202 37 29 18
-2392.5723 1736.9742 199.6044 0.973 -0.063 -0.221 184 165 137
-2348.8821 1842.6547 115.8575 0.694 -0.009 -0.720 35 24 8
-2276.7073 1806.8966 96.6782 0.637 -0.658 -0.402 34 25 12
-2251.8574 2009.2928 -31.5683 -0.159 -0.523 -0.837 43 35 24
-2436.0139 2312.9797 -102.9950 0.954 -0.287 0.086 47 23 26
-2965.0205 2921.1614 -158.4994 0.850 -0.371 0.374 46 51 45
-1621.4282 1580.0093 -132.8389 -0.374 -0.822 -0.430 86 76 72
-1690.2754 1668.4536 -145.3273 -0.191 -0.947 -0.259 72 59 45
-2326.0789 3055.6345 -583.8185 0.912 -0.205 0.356 46 3 0
-1832.7278 2513.8459 -546.4464 0.304 -0.239 -0.922 104 57 47
-1838.3649 2531.5056 -553.3712 -0.446 -0.654 -0.611 110 62 46
-1597.3903 2389.5823 -604.6388 -0.366 -0.595 0.716 106 47 15
-1524.4425 2319.1897 -604.6183 0.491 -0.769 -0.409 105 41 10
-1391.1318 2499.3433 -779.5287 0.232 -0.217 -0.948 35 22 14
-1379.7821 2496.8862 -784.3384 0.062 -0.305 -0.950 26 13 7
-1401.8544 2552.5793 -803.8307 0.020 -0.317 -0.948 26 13 7
-1381.7448 2521.7534 -797.3546 0.323 -0.172 -0.931 26 13 7
-1105.4156 3637.7793 -1580.6340 -0.371 -0.915 0.158 40 4 2
-1073.4178 3582.8254 -1566.9841 0.228 -0.962 -0.153 111 16 28
-1069.0333 3587.9006 -1572.2552 0.234 -0.960 -0.153 121 9 27
-2688.1399 1632.6907 413.3433 -0.081 -0.790 -0.608 28 20 9
-2661.4521 1619.3138 406.3995 0.254 -0.746 -0.616 27 19 8
-2656.4006 1620.7303 402.8401 0.284 -0.754 -0.592 27 19 8
-2653.8701 1623.8805 399.6692 0.467 -0.552 -0.691 27 19 8
-2677.5684 1690.3950 374.7693 0.178 -0.656 0.733 34 26 15
-2654.3167 1689.1172 362.8193 0.232 -0.967 -0.103 39 31 20
-2647.5051 1689.3336 358.9826 0.149 -0.985 -0.085 39 31 20
-2373.6423 1717.8365 193.4687 0.700 -0.666 0.258 186 166 135
-2220.1265 1985.7101 -42.5387 0.247 -0.537 -0.807 37 34 22
-2438.4485 2295.7510 -99.8000 0.941 -0.312 0.128 35 16 20
-2544.0579 2506.1694 -161.8662 -0.261 -0.657 0.708 86 76 75
-2311.8896 2986.0747 -561.3148 0.848 0.104 0.520 140 86 63
-1528.3275 2310.3887 -604.3120 0.541 -0.687 -0.486 100 40 11
-1499.1649 2404.0647 -673.4750 0.594 -0.288 -0.751 85 29 2
-1527.5763 2493.9861 -709.1144 0.445 -0.511 -0.736 55 26 16
-1391.6547 2482.2627 -776.5517 0.160 -0.259 -0.953 34 24 15
-1063.5032 2534.2322 -985.0063 0.609 -0.224 0.761 29 15 10
-1073.7224 2820.9929 -1142.4862 -0.444 -0.657 -0.609 89 60 49
-1054.3514 2821.2654 -1153.2019 -0.039 -0.562 -0.826 35 8 2
-1066.6450 3583.1482 -1579.7040 0.401 -0.486 -0.776 130 5 25
-2664.5398 1622.9792 399.2026 0.282 -0.759 -0.587 28 18 9
-2660.7979 1625.3033 395.8409 0.473 -0.547 -0.691 29 19 10
-2666.0957 1653.6827 382.5283 0.693 -0.621 -0.365 36 28 17
-2657.1941 1672.4857 366.9564 0.070 -0.584 0.809 40 32 21
-2656.3472 1687.0714 358.1725 0.391 -0.719 -0.574 50 42 31
-2655.1069 1691.2761 355.0986 0.400 -0.743 -0.536 50 42 31
-2386.4180 1714.0654 195.9389 0.858 -0.514 0.022 181 162 134
-2385.7449 1718.7620 192.8927 0.857 -0.515 0.023 186 168 140
-2354.9614 1719.8917 175.5032 0.732 -0.674 0.100 187 164 128
-2214.8542 1957.4181 -36.2513 0.301 -0.107 -0.948 41 35 23
-2265.7207 2014.0236 -40.8836 -0.134 -0.487 -0.863 38 32 20
-2377.2705 2878.4739 -473.4964 -0.295 -0.519 -0.802 191 130 108
-2327.9160 3042.5820 -593.9900 0.923 -0.217 0.317 51 14 6
-1646.9613 2377.9595 -585.1387 0.635 -0.525 0.567 92 39 7
-1548.8612 2277.8613 -581.3807 0.177 -0.801 -0.571 94 38 8
-1534.2729 2287.8064 -594.9912 0.503 -0.670 -0.546 88 32 2
-1531.6945 2309.4988 -608.7723 0.526 -0.694 -0.492 89 31 2
-1506.0834 2418.8142 -685.0834 0.441 -0.261 -0.858 69 27 9
-1483.0745 2424.1602 -700.6500 0.906 -0.285 -0.311 26 11 13
-1059.9493 2841.5732 -1169.0046 -0.038 -0.570 -0.821 29 9 3
-1051.1719 2829.5273 -1166.9054 -0.077 -0.782 -0.619 15 8 2
-973.6595 2975.1089 -1292.1436 0.416 -0.307 -0.856 33 19 14
-2610.4143 1577.7826 388.9180 0.269 -0.892 -0.364 34 24 15
-2612.2200 1588.5814 383.7137 0.569 -0.775 0.275 34 24 15
-2606.7070 1589.5870 380.1458 0.506 -0.823 0.257 37 27 18
-2592.7639 1594.3656 369.8419 0.488 -0.848 0.209 37 27 18
-2592.7534 1599.1818 367.0781 0.386 -0.882 0.272 43 33 23
-2586.5662 1599.6973 363.4249 0.409 -0.883 0.230 42 34 21
-2580.7656 1600.4744 359.8319 0.867 -0.489 -0.092 42 34 21
-2570.2156 1602.7440 352.8062 0.237 -0.910 0.340 46 38 25
-2391.8569 1709.5842 194.8212 0.376 -0.841 -0.389 180 159 130
-2392.9070 1715.6572 191.9131 0.407 -0.800 -0.440 187 166 137
-2351.6345 1708.2483 173.7565 0.789 -0.385 -0.479 188 164 125
-1709.1405 1672.2109 -154.3019 -0.251 -0.962 0.105 64 31 17
-1647.8994 2372.8733 -588.7974 0.635 -0.525 0.567 96 41 10
-1550.8120 2283.1931 -590.1306 0.231 -0.746 -0.625 89 35 4
-1541.7957 2293.9241 -601.1694 0.457 -0.664 -0.591 84 31 0
-1511.3938 2421.2461 -690.5845 0.423 -0.266 -0.866 65 29 8
-1515.2208 2437.6025 -697.8745 0.423 -0.262 -0.867 55 24 6
-1488.4321 2417.2771 -700.7734 0.507 -0.726 -0.465 25 10 5
-1095.7002 2790.9954 -1127.9407 -0.547 -0.814 -0.194 35 16 9
-1073.0498 2825.1406 -1159.7881 -0.006 -0.884 -0.468 62 43 33
-1068.5167 2826.1853 -1162.8467 -0.018 -0.867 -0.498 52 32 23
-1064.8534 2829.8640 -1166.9415 0.102 -0.742 -0.663 39 19 11
-1060.9318 2832.7646 -1170.7311 0.091 -0.747 -0.659 26 9 3
-1057.2424 2836.3840 -1174.8062 -0.077 -0.782 -0.619 17 8 1
-2621.7024 1587.0121 383.0955 0.221 -0.853 0.473 40 30 21
-2611.4568 1584.7830 378.8288 0.570 -0.775 0.274 41 31 22
-2604.2883 1584.6450 375.0264 0.517 -0.846 0.128 43 33 24
-2598.4453 1585.4077 371.4240 0.321 -0.947 -0.015 44 34 25
-2592.7764 1591.0811 365.0938 0.184 -0.982 0.041 44 34 25
-2588.9822 1593.2555 361.7896 0.194 -0.980 -0.041 49 39 29
-2584.9517 1595.2648 358.4524 0.260 -0.965 -0.036 48 40 27
-2617.3059 1642.4114 348.8755 -0.021 -0.995 -0.093 52 44 31
-2415.1414 1724.6632 192.1328 0.399 -0.643 -0.653 188 167 136
-1895.9177 1770.8263 -115.5531 0.261 -0.957 -0.125 58 56 59
-1891.2883 1771.6224 -118.5175 0.203 -0.979 -0.010 65 62 64
-1713.3292 1661.9562 -151.8526 -0.334 -0.879 -0.339 75 56 50
-1652.6443 2373.9360 -593.9067 0.719 -0.487 0.496 95 42 10
-1525.1576 2448.3364 -705.6996 0.471 -0.252 -0.845 52 25 7
-1394.5215 2424.8052 -762.9138 0.188 -0.267 -0.945 36 27 22
-1096.3007 2753.5168 -1113.3170 -0.193 -0.573 -0.797 28 13 4
-1072.5176 2841.4165 -1176.7136 0.796 -0.603 0.053 37 19 12
-1069.2147 2846.2649 -1181.2886 0.758 -0.650 0.052 25 9 4
-1025.8473 3008.4521 -1297.9850 -0.083 -0.743 -0.665 17 12 8
-1009.1182 2985.5706 -1293.8931 -0.380 -0.716 -0.585 37 32 28
-1025.5050 3201.9675 -1409.3888 0.667 -0.181 -0.723 19 8 2
-2629.1250 1574.4941 387.6656 -0.241 -0.754 -0.611 36 26 16
-2610.5261 1580.8799 373.9343 0.570 -0.769 0.291 47 37 28
-2604.5066 1581.5272 370.3088 0.269 -0.920 -0.286 48 38 29
-2601.7837 1584.4348 367.1608 0.333 -0.943 -0.027 48 38 29
-2595.1357 1589.4290 360.6887 0.190 -0.892 -0.410 48 38 29
-2592.2708 1592.2468 357.5156 0.233 -0.971 -0.045 51 41 31
-2588.5286 1594.4574 354.2189 0.260 -0.965 -0.036 50 42 29
-2581.9324 1599.4996 347.7470 0.856 -0.506 -0.110 51 43 30
-2573.4795 1598.4060 343.8110 0.196 -0.937 0.291 53 45 32
-2556.8506 1596.3586 336.0080 0.080 -0.865 0.495 52 44 31
-2257.7412 2920.1521 -589.1102 0.848 -0.245 0.469 63 33 23
-2211.6467 2904.8325 -605.1774 0.824 0.071 0.562 46 26 19
-1617.8236 2901.6167 -924.1407 0.054 -0.303 -0.952 20 11 6
-1111.6061 2786.4138 -1131.1840 -0.335 -0.672 -0.661 27 13 4
-1086.4292 2842.0645 -1176.8835 0.745 -0.659 -0.100 53 34 27
-1074.8152 2851.5063 -1188.6039 0.846 -0.508 -0.160 29 13 8
-1044.7826 3041.5417 -1314.4357 -0.225 -0.608 -0.762 15 10 6
-1088.7534 3554.6836 -1586.6438 0.520 -0.546 -0.656 90 6 14
-2612.1724 1578.7478 369.4253 0.395 -0.919 0.005 47 37 28
-2607.8760 1580.5758 366.0513 0.395 -0.919 0.005 46 36 27
-2603.5815 1582.4028 362.6790 0.395 -0.919 0.005 46 36 27
-2600.7979 1585.2683 359.5199 0.358 -0.932 -0.054 46 36 27
-2596.1353 1586.8395 356.0973 0.371 -0.927 -0.060 46 36 27
-2591.9468 1588.7354 352.7422 0.371 -0.927 -0.060 45 37 26
-2580.3081 1595.0591 342.8085 0.623 -0.761 -0.181 45 37 24
-2554.4314 1591.3491 331.0075 0.078 -0.929 0.361 45 37 24
-2546.7522 1590.7423 327.2195 0.082 -0.926 0.369 44 36 23
-2550.2830 1598.0585 324.8880 0.576 -0.763 -0.293 38 32 20
-2549.5349 1602.3644 321.9925 0.474 -0.656 -0.588 38 32 20
-2399.5481 1694.5115 187.8099 0.991 -0.134 0.010 192 171 140
-1731.5317 1668.7532 -157.3602 -0.213 -0.893 0.396 82 65 61
-2217.5413 2895.7480 -605.5825 -0.482 -0.785 0.389 51 22 13
-1539.6471 2459.9453 -718.7399 0.401 -0.761 0.510 43 14 1
-1526.1101 2454.6172 -722.9528 0.430 -0.757 0.492 28 9 1
-1100.1732 2842.0334 -1176.7842 0.480 -0.704 0.524 49 29 22
-1097.5685 2848.9500 -1182.1915 0.480 -0.709 0.516 43 25 16
-1020.8241 3084.3086 -1359.7864 0.627 -0.212 -0.750 51 41 32
-1044.4540 3239.5132 -1436.8831 0.663 -0.186 -0.725 22 15 7
-1097.4216 3486.9426 -1551.5460 0.401 -0.578 -0.711 102 60 54
-1092.9213 3553.2175 -1592.3325 0.567 -0.526 -0.634 103 24 29
-1088.8602 3559.3142 -1598.0502 0.432 -0.782 -0.449 105 17 25
-2809.8352 1544.2720 489.1279 0.279 -0.759 -0.588 29 27 14
-2813.4553 1555.8601 484.3440 0.117 -0.885 0.451 30 26 15
-2808.1997 1557.2595 480.7046 -0.082 -0.850 0.521 30 26 15
-2571.1101 1585.3512 336.8816 0.707 -0.691 0.151 40 32 19
-2548.1509 1588.4332 322.7440 0.362 -0.822 0.440 39 31 18
-2551.3271 1595.4858 320.3557 0.480 -0.821 -0.310 39 33 21
-2544.7104 1595.6240 316.7169 0.490 -0.801 -0.343 38 32 20
-2358.4407 1789.9547 103.6651 0.554 -0.095 -0.827 42 24 12
-2164.1287 1927.9414 -80.9844 0.888 0.103 -0.448 18 15 8
-1735.2078 1668.8531 -161.1660 -0.203 -0.895 0.398 71 57 51
-2353.7788 2978.5569 -589.2385 -0.701 -0.663 -0.261 41 13 0
-2263.5247 2883.5554 -582.5956 -0.693 -0.662 -0.287 63 34 22
-1544.1411 2460.7693 -723.9036 0.395 -0.919 0.021 42 11 1
-1531.1725 2456.5088 -728.4033 0.423 -0.759 0.495 26 8 2
-1429.1157 2479.7810 -796.8068 0.024 -0.394 -0.919 26 17 12
-1105.5682 2831.9229 -1175.3503 -0.435 -0.804 0.405 49 31 21
-1101.5884 2834.7285 -1179.1202 0.475 -0.712 0.518 43 24 15
-1099.8395 2844.1260 -1185.5193 0.473 -0.710 0.521 37 20 10
-1092.5822 2837.2434 -1185.4246 0.792 -0.599 -0.119 32 14 4
-1013.5417 3010.9812 -1328.8475 0.594 -0.716 0.366 28 19 14
-1028.1260 3131.0049 -1390.7196 -0.062 -0.518 -0.853 29 18 12
-1103.7474 3576.1348 -1608.6033 0.686 -0.561 -0.463 134 55 60
-1100.0841 3583.8206 -1615.0377 0.533 -0.758 -0.377 121 37 42
-1077.0076 3583.3672 -1627.1848 -0.213 -0.977 -0.009 91 4 2
-2817.3645 1541.1564 488.1893 0.272 -0.746 -0.608 31 27 15
-2814.9053 1544.2797 485.0493 0.273 -0.754 -0.597 30 26 14
-2806.6919 1553.1550 475.4690 -0.077 -0.857 0.510 30 26 15
-2763.5684 1540.0677 459.9588 0.035 -0.882 0.470 29 25 14
-2824.9429 1597.8284 459.2224 0.188 -0.962 0.200 32 25 15
-2562.7222 1571.4858 333.8781 0.627 -0.297 0.720 33 25 12
-2570.6414 1581.7499 332.1446 0.698 -0.696 0.167 33 25 12
-2400.3289 1672.6160 187.7960 0.487 0.071 -0.870 174 157 132
-1523.8967 2380.5076 -695.0883 0.537 -0.225 -0.813 88 30 2
-1541.2126 2429.5488 -714.3826 -0.237 -0.631 -0.739 71 25 4
-1383.0337 2334.7217 -743.9828 0.554 -0.161 -0.817 13 8 2
-1391.8757 2370.6084 -760.1563 0.586 -0.147 -0.797 27 20 14
-1463.0348 2548.5698 -825.7059 0.147 -0.386 -0.911 20 11 6
-1127.4624 2784.5579 -1143.3169 0.947 -0.317 -0.057 28 12 5
-1073.0134 2825.7603 -1196.5488 0.865 -0.421 0.272 17 10 4
-1082.8160 3144.0305 -1376.8043 -0.121 -0.843 0.524 13 8 4
-1043.2227 3187.2893 -1423.2638 -0.008 -0.484 -0.875 37 25 19
-1085.3253 3391.9934 -1519.9919 0.687 -0.202 -0.698 54 21 19
-1107.8293 3574.2458 -1614.1494 0.564 -0.722 -0.401 140 63 68
-1029.9818 3515.7261 -1621.8093 0.127 -0.788 0.602 83 17 10
-1017.6107 3510.8064 -1625.5797 0.151 -0.798 0.583 86 17 10
-917.0736 3386.4646 -1607.0475 -0.421 -0.561 -0.713 81 12 2
-911.4884 3384.9949 -1609.1877 -0.421 -0.561 -0.713 68 22 5
-835.8099 3299.4827 -1599.9504 0.313 -0.732 0.605 166 8 21
-2806.0144 1549.5795 470.3923 -0.075 -0.859 0.507 37 33 21
-2764.4810 1537.5089 455.2181 0.035 -0.882 0.470 36 32 20
-2249.6140 1648.8342 114.4739 0.888 -0.409 -0.210 186 165 134
-2281.1240 2834.8228 -562.3698 -0.365 -0.757 -0.542 52 6 0
-2407.5955 3047.7446 -619.2077 -0.710 -0.677 -0.194 59 31 13
-2376.3826 3015.0242 -616.7782 -0.709 -0.673 -0.211 63 36 17
-2266.5098 2912.7236 -615.7592 -0.448 -0.758 -0.475 49 21 13
-1546.9471 2441.9673 -725.6118 0.460 -0.381 -0.802 42 18 6
-1550.7706 2458.1873 -733.0522 -0.072 -0.720 -0.690 34 14 4
-1090.6439 3173.4929 -1397.7740 0.051 -0.731 0.681 12 8 5
-1019.2216 3003.3425 -1336.4841 0.583 -0.753 0.305 19 16 11
-1015.9659 3026.2078 -1351.6014 0.505 -0.731 0.459 27 21 13
-1068.4417 3279.0332 -1471.3927 0.220 -0.394 -0.892 42 22 21
-1038.0266 3529.5657 -1634.2172 0.041 -0.800 0.598 63 18 8
-1029.8005 3519.3174 -1632.6265 0.158 -0.767 0.622 63 18 7
-1024.0050 3518.4219 -1635.2053 0.158 -0.767 0.622 63 18 8
-2740.5637 1492.1188 462.3674 0.659 -0.540 0.524 44 40 29
-2765.2434 1534.8613 450.4610 0.028 -0.885 0.465 45 41 29
-2738.2271 1531.6880 437.8939 0.302 -0.953 -0.008 38 32 20
-2079.8030 1908.2087 -134.7783 0.895 -0.442 0.064 35 33 34
-1809.6941 2129.4983 -408.9337 0.356 0.061 -0.932 189 121 98
-2289.7957 2917.8699 -615.2496 -0.663 -0.661 -0.351 50 26 20
-1850.9856 2389.1738 -539.2986 0.602 -0.097 -0.793 29 13 6
-1486.7706 2328.4475 -698.1849 0.667 -0.179 0.724 28 11 2
-1386.3917 2336.2004 -756.3487 0.712 -0.017 -0.702 26 19 13
-1413.5326 2426.6926 -794.9679 0.703 -0.214 -0.678 18 11 5
-1112.5479 2789.9871 -1168.9653 -0.347 -0.770 0.535 13 9 6
-1042.6025 3103.2615 -1390.2030 0.675 -0.694 0.250 17 15 6
-1090.0771 3339.3638 -1503.4290 0.243 -0.386 -0.890 39 16 16
-1037.2853 3173.9517 -1434.5354 0.839 -0.039 -0.543 50 20 21
-1055.3706 3557.3118 -1649.8927 0.280 -0.633 0.722 49 20 9
-1043.7371 3534.2788 -1642.5869 0.270 -0.623 0.734 48 20 8
-1037.2598 3530.8984 -1644.0624 0.261 -0.651 0.713 46 20 7
-1029.1993 3521.2793 -1642.7213 0.233 -0.679 0.696 46 20 7
-1028.3939 3539.9272 -1654.0972 -0.060 -0.794 0.605 46 21 7
-1027.5652 3558.6711 -1665.5417 -0.162 -0.842 0.514 47 22 9
-985.8862 3502.8735 -1655.0519 -0.344 -0.558 -0.755 55 26 15
-979.6768 3499.8831 -1656.6130 -0.343 -0.556 -0.757 54 26 15
-2824.7031 1545.5852 469.1187 -0.110 -0.788 0.605 44 40 28
-2802.7568 1536.6411 462.6920 -0.119 -0.790 0.602 44 40 28
-2738.9783 1533.6573 430.4631 -0.173 -0.846 -0.504 44 38 26
-2297.3438 2216.9895 -207.3541 -0.539 -0.587 0.604 85 73 75
-2415.0198 3063.3462 -643.1465 -0.679 -0.665 -0.312 51 32 26
-1118.5399 2782.0952 -1168.3594 0.881 -0.458 0.116 13 9 6
-2233.2910 2005.9438 -124.1945 -0.374 -0.670 0.641 22 22 20
-2473.6667 3125.6973 -658.2050 -0.650 -0.660 -0.376 56 30 23
-2441.5293 3092.1050 -655.4370 -0.658 -0.653 -0.376 44 26 19
-2408.6624 3057.2671 -652.3204 -0.662 -0.657 -0.359 38 20 16
-2376.6409 3023.3521 -649.3000 -0.662 -0.657 -0.359 32 14 10
-1919.8218 2510.0715 -588.8052 0.518 0.114 -0.847 84 43 18
-1923.6387 2524.4336 -595.2643 0.554 0.117 -0.824 86 42 16
-1092.0320 3373.0991 -1538.9760 0.971 0.090 -0.223 71 29 28
-831.0753 3295.3860 -1631.7834 0.210 -0.732 0.648 148 11 30
-775.4192 3059.4133 -1521.9065 0.478 -0.860 0.177 155 9 27
-2403.9006 1637.7977 177.6254 0.465 -0.124 -0.876 177 158 126
-2414.1750 1650.7130 175.4157 0.372 -0.060 -0.926 176 157 125
-2123.6013 1873.8738 -111.0602 0.420 -0.791 0.444 15 14 10
-2431.6021 2787.2451 -489.3750 -0.273 -0.439 -0.856 199 139 113
-1862.6378 2378.9170 -549.0039 0.401 -0.109 -0.910 20 7 1
-1073.4032 3274.1335 -1498.5531 0.675 -0.182 -0.715 49 17 15
-1068.6692 3371.9819 -1559.0942 0.346 -0.909 0.234 47 10 4
-2141.2996 1887.1816 -116.2167 0.417 -0.805 0.421 20 19 15
-2487.4060 2840.8440 -500.5772 -0.318 -0.466 -0.826 193 136 109
-1847.3982 2359.3486 -552.7331 0.565 -0.078 -0.822 18 7 2
-1555.5472 2254.6411 -644.8693 0.798 -0.576 -0.175 88 38 11
-1559.7557 2269.9385 -651.7455 0.643 -0.749 -0.158 88 38 11
-1440.4064 2429.1616 -809.6579 0.473 -0.153 -0.868 18 13 9
-1452.7690 2462.4797 -822.9431 0.579 -0.133 -0.805 13 8 4
-1036.8923 3151.1414 -1452.8434 0.970 0.104 -0.220 43 14 8
-1118.8859 3495.1592 -1614.1755 0.120 -0.728 0.675 43 14 6
-1114.1808 3498.6021 -1618.7144 0.060 -0.768 0.638 40 12 3
-872.9368 3288.6714 -1621.4518 0.582 -0.813 -0.019 37 17 3
-867.8600 3288.5823 -1624.0853 0.387 -0.809 -0.442 40 16 1
-862.3525 3286.5496 -1625.7903 0.248 -0.875 -0.417 44 14 0
-857.3744 3286.8154 -1628.5828 0.301 -0.950 0.086 53 10 0
-853.2178 3290.7358 -1633.1155 0.289 -0.954 0.079 66 10 5
-850.1433 3299.5603 -1639.9939 0.110 -0.955 -0.274 83 9 11
-847.2913 3309.4778 -1647.4052 0.128 -0.949 -0.286 99 12 17
-843.2836 3314.2026 -1652.3376 0.274 -0.956 0.102 113 13 19
-814.1190 3203.0312 -1601.6140 0.301 -0.863 0.405 133 11 20
-2104.9797 1841.2651 -114.6232 -0.002 -0.773 0.634 22 21 17
-2145.1147 1886.7145 -120.5720 0.382 -0.768 0.515 21 20 16
-2190.3672 1968.1608 -145.3136 -0.055 -0.823 0.565 37 37 37
-2190.6963 1980.9211 -152.7594 -0.062 -0.852 0.520 33 33 33
-1869.7483 2376.6982 -558.5400 0.851 -0.525 0.004 20 7 0
-1791.2607 2388.3152 -606.9160 0.433 -0.881 -0.190 73 26 0
-1788.9867 2393.4138 -611.1613 0.452 -0.854 -0.257 74 27 1
-1048.7778 3214.3926 -1492.1992 0.973 0.071 -0.218 41 15 6
-867.1312 3289.6787 -1633.0590 0.368 -0.832 -0.415 32 20 0
-862.5716 3291.8420 -1636.7581 0.369 -0.829 -0.421 42 14 0
-2151.6633 1819.3020 -83.3809 0.905 -0.269 -0.328 35 28 18
-2105.2090 1837.3585 -118.6693 0.284 -0.626 0.726 21 20 16
-2189.6816 1963.0447 -149.4793 0.499 -0.540 0.678 39 39 39
-1878.0826 2382.3359 -564.8342 0.389 -0.891 0.235 18 8 0
-1922.3727 2479.0869 -599.4735 0.426 -0.846 -0.320 60 39 27
-1778.2056 2329.4421 -585.7526 -0.075 -0.846 0.528 69 23 1
-1799.7362 2386.1121 -608.3655 0.441 -0.884 -0.157 73 26 0
-1566.0504 2250.8210 -650.3984 0.724 -0.688 0.037 77 28 2
-1233.6088 1975.2115 -660.3780 0.407 -0.140 -0.903 18 11 5
-1032.1945 3142.0991 -1465.6207 0.983 0.120 -0.136 39 16 8
-2327.8645 1514.4459 185.9751 0.898 -0.021 -0.440 38 24 15
-2203.5955 2094.4797 -228.0394 -0.550 -0.762 0.341 50 38 39
-1589.1594 2281.9297 -663.6315 0.508 -0.842 0.180 70 24 0
-1582.0549 2278.8406 -665.5081 0.423 -0.905 0.051 69 23 0
-1558.7493 2266.0818 -670.0853 0.538 -0.811 -0.230 70 22 1
-1411.2786 2333.6252 -788.1907 0.390 -0.127 -0.912 26 19 13
-1111.6711 3442.1741 -1612.0850 0.442 -0.748 0.495 36 18 8
-1109.5692 3454.4985 -1620.5990 0.670 -0.673 0.313 36 18 8
-1103.6588 3453.4395 -1623.0681 0.693 -0.650 0.313 37 17 8
-1098.9012 3456.4414 -1627.3732 0.693 -0.650 0.313 43 21 10
-1096.2148 3466.8623 -1635.0498 0.494 -0.644 0.585 50 26 16
-2338.6650 1514.6511 185.4028 0.996 0.075 -0.051 34 22 13
-2159.4336 1841.4484 -105.6967 0.530 -0.402 -0.747 13 8 3
-2155.6589 1843.5782 -108.9606 0.585 -0.296 -0.755 11 7 3
-2190.1721 1942.4917 -150.5314 0.824 -0.227 0.519 29 30 32
-2269.5271 2710.5132 -572.2072 -0.324 -0.821 -0.470 42 23 8
-2155.8730 2631.7444 -584.2812 -0.268 -0.464 -0.844 33 8 3
-1905.5214 2400.3271 -575.9462 -0.520 -0.854 -0.009 18 8 0
-1932.5796 2480.8196 -610.3138 0.290 -0.957 0.023 51 32 22
-1821.5818 2363.7681 -597.9027 -0.436 -0.672 0.598 52 12 3
-1574.6205 2277.2537 -675.1974 0.660 -0.751 0.025 64 22 3
-1563.5939 2267.6733 -675.1996 0.524 -0.818 -0.238 60 22 2
-1094.5887 3386.2554 -1595.8429 0.575 -0.714 0.400 43 23 15
-1102.2816 3452.5774 -1631.8159 0.631 -0.687 0.362 47 24 16
-838.0861 3217.7874 -1628.7045 0.914 -0.165 -0.371 28 10 1
-839.1318 3244.6860 -1644.3818 0.919 -0.203 -0.337 58 9 6
-2165.2214 1842.8975 -110.1114 0.520 -0.409 -0.750 11 7 4
-2101.8330 1856.4117 -151.4478 -0.454 -0.736 0.501 30 31 33
-2420.3127 2270.1836 -235.2908 -0.661 -0.750 0.023 48 38 39
-2157.4451 2036.2761 -231.2199 -0.650 -0.706 0.280 37 25 25
-2295.0469 2709.9033 -566.9510 0.751 -0.659 -0.048 34 10 0
-1941.6876 2478.7490 -611.8802 0.232 -0.973 -0.006 43 28 21
-1472.7245 2424.5007 -824.3497 0.392 -0.119 -0.912 31 24 14
-1026.3929 3097.3298 -1465.0388 0.969 0.061 -0.239 47 27 20
-1080.9479 3323.2708 -1573.2513 0.656 -0.743 0.132 50 29 23
-1084.2794 3353.9883 -1590.1001 0.468 -0.782 0.411 52 29 23
-1100.3402 3449.7075 -1639.6324 0.561 -0.577 0.594 52 27 20
-2309.6453 1477.9747 180.2905 0.991 0.013 -0.130 27 18 9
-2159.5811 1822.0205 -106.9489 0.784 -0.503 -0.364 15 11 8
-2187.3018 1912.9084 -147.6761 -0.460 -0.735 0.498 22 22 20
-2552.2832 2386.5144 -244.8157 -0.627 -0.740 0.245 43 40 44
-2304.8977 2715.9792 -573.9878 0.661 -0.749 0.048 31 8 0
-2248.8247 2670.2080 -575.4542 -0.253 -0.927 -0.276 45 23 12
-2245.7068 2738.6914 -618.6689 -0.303 -0.509 -0.806 32 8 6
-1854.7521 2390.8711 -611.4693 -0.445 -0.701 0.557 42 14 8
-1595.1260 2393.7300 -748.6918 0.687 -0.599 -0.413 22 15 9
-2165.8459 1795.7675 -94.2109 0.511 -0.672 -0.537 36 28 17
-2171.1104 2107.2585 -281.2596 0.462 -0.435 -0.772 182 134 114
-2351.9260 2576.6677 -473.1295 0.861 -0.268 -0.432 193 133 105
-2351.8149 2584.9375 -478.2261 0.864 -0.265 -0.427 192 132 104
-2351.8577 2593.4272 -483.3766 0.861 -0.268 -0.432 192 132 104
-2304.9106 2709.3533 -578.4515 0.654 -0.756 0.022 29 6 0
-2263.2566 2673.4688 -578.2739 0.535 -0.710 0.457 37 17 8
-2149.1479 2594.3665 -589.4855 -0.226 -0.457 -0.860 32 8 6
-1886.9106 2364.2134 -585.7834 0.416 -0.070 -0.907 18 9 1
-1620.8240 2265.7061 -664.2960 -0.125 -0.932 0.342 70 32 11
-1598.7189 2263.7815 -674.6320 -0.122 -0.936 0.330 64 28 5
-1511.1447 2196.0679 -678.9682 0.514 -0.732 -0.448 56 24 4
-1503.5717 2191.7627 -680.2878 0.411 -0.909 -0.073 56 23 4
-1496.8893 2445.0735 -838.1075 0.363 -0.140 -0.921 23 16 10
-997.2990 2986.7839 -1428.2697 0.877 -0.017 -0.480 53 34 27
-849.7432 3260.6118 -1671.9331 0.940 -0.336 -0.065 47 4 0
-2399.1216 2254.1934 -259.7606 -0.264 -0.494 -0.828 21 9 9
-2175.9143 2107.5972 -286.0793 0.470 -0.438 -0.766 174 125 104
-2313.2393 2704.4429 -579.6142 0.700 -0.631 0.336 32 9 3
-2300.7803 2697.4280 -581.7972 0.474 -0.880 -0.004 37 14 6
-2281.2883 2681.2874 -582.0543 0.724 -0.687 -0.059 44 21 13
-1817.2155 2292.7366 -585.5695 -0.664 -0.725 -0.182 29 16 8
-1814.6729 2321.2446 -604.3174 -0.251 -0.938 0.238 25 10 1
-1798.0967 2313.6802 -608.3030 -0.007 -0.680 0.734 27 11 1
-1788.9762 2308.6357 -609.9566 -0.082 -0.698 0.711 27 11 1
-1073.7202 3347.6394 -1616.6277 0.321 -0.772 -0.548 54 30 20
-1073.0411 3384.0642 -1639.2476 0.457 -0.716 -0.527 40 16 6
-862.6065 3299.9001 -1697.0979 0.872 -0.473 -0.127 36 7 0
-2282.4463 1573.0452 89.8760 0.803 -0.487 -0.344 186 165 136
-2391.4011 2637.2905 -506.4108 0.344 -0.125 -0.931 178 118 89
-2286.2646 2681.1306 -587.7802 0.627 -0.779 0.004 44 22 11
-1920.4136 2398.6533 -604.1042 0.402 -0.072 -0.913 21 11 2
-1935.6219 2428.1082 -614.2892 0.404 -0.094 -0.910 28 15 7
-1866.0317 2339.2500 -595.8496 -0.662 -0.726 -0.188 28 15 7
-2138.8508 2006.4575 -257.2208 -0.191 -0.790 -0.583 34 24 22
-2412.4519 2647.7827 -510.4268 0.050 -0.316 -0.947 171 111 83
-2296.8188 2679.2212 -589.5512 0.608 -0.791 0.072 40 17 7
-2264.1865 2681.7256 -607.9622 -0.450 -0.858 -0.246 35 13 3
-1773.6974 2282.6780 -615.9688 -0.607 -0.674 0.421 20 13 0
-1759.8381 2270.6633 -615.7402 -0.691 -0.668 0.278 25 12 0
-1602.2172 2155.0232 -626.0641 0.060 -0.833 -0.551 54 18 1
-1622.0034 2257.2581 -678.7469 -0.034 -0.738 0.674 54 19 0
-1499.6949 2400.4543 -830.0942 0.300 -0.166 -0.939 43 36 27
-2289.2698 1566.9500 84.8484 0.792 -0.494 -0.358 182 163 135
-2308.0078 1586.3440 82.5389 0.962 -0.161 -0.223 187 168 146
-2374.8645 1678.7585 59.9644 0.972 0.126 -0.199 39 35 21
-3366.9702 3045.6836 -272.2805 -0.395 -0.906 -0.151 29 30 32
-2124.0623 1999.0399 -267.1230 0.342 -0.873 -0.349 15 9 5
-2116.5435 1997.4520 -270.0204 0.344 -0.882 -0.323 17 11 7
-2535.8545 2582.9956 -415.2685 0.734 -0.242 0.634 188 131 105
-2525.6660 2579.8218 -418.5636 0.727 -0.264 0.634 188 132 105
-2314.4219 2668.5547 -582.2943 0.630 -0.775 0.055 30 3 1
-2309.6821 2671.3748 -586.4800 0.631 -0.764 0.137 28 5 0
-2294.6636 2661.1226 -587.8962 0.572 -0.641 0.511 31 11 3
-1616.9407 2163.7754 -630.3741 0.204 -0.978 0.039 50 19 7
-1578.6807 2159.8142 -647.6611 -0.412 -0.760 0.503 50 16 3
-1590.2251 2556.1909 -886.4243 0.293 -0.171 -0.941 39 35 26
-2335.9246 1456.2657 171.2655 0.976 -0.206 -0.064 31 19 10
-2367.7832 1664.5149 58.6667 0.978 0.056 -0.200 42 34 20
-3709.0500 3330.8650 -283.3631 0.265 -0.546 0.795 23 23 23
-2131.6191 2002.4214 -272.1473 0.340 -0.928 -0.150 16 13 8
-2125.5259 2002.3578 -275.2431 0.357 -0.895 -0.267 20 17 12
-2588.1038 2553.2700 -378.4728 0.813 -0.287 0.508 183 130 108
-2541.5994 2575.2727 -416.0291 0.729 -0.250 0.637 180 123 94
-2537.7026 2579.1172 -420.4154 0.734 -0.248 0.633 180 123 93
-2345.4575 2563.4321 -509.6152 -0.062 -0.301 -0.952 192 131 102
-2325.4382 2667.1772 -584.1760 0.703 -0.377 -0.603 28 8 0
-2317.0776 2665.4412 -587.4024 0.715 -0.505 0.483 29 10 8
-2311.3125 2666.9592 -591.3090 0.687 -0.546 0.480 41 22 15
-2300.0908 2661.5454 -593.7295 0.585 -0.617 0.526 41 22 15
-2304.1392 2675.5159 -600.2999 0.626 -0.780 -0.003 41 22 16
