ply
format ascii 1.0
element vertex 783
property float x
property float y
property float z
property float nx
property float ny
property float nz
property uchar diffuse_red
property uchar diffuse_green
property uchar diffuse_blue
end_header
-3257.4683 5655.8960 1042.5145 -0.031 -0.978 -0.207 83 69 62
-1598.6929 5331.8086 123.7262 0.127 -0.992 0.002 33 32 30
-1674.4176 5617.4834 119.2451 -0.224 -0.890 0.397 33 32 30
-1639.7109 5526.3628 114.4758 0.076 -0.796 -0.600 34 33 31
-1625.4244 5504.8037 109.7790 0.213 -0.746 -0.632 35 34 32
-1529.8528 5473.1763 59.0626 -0.618 -0.621 -0.482 82 78 75
-1295.7847 4816.0459 34.1978 -0.231 -0.641 -0.732 129 91 83
-4440.6587 3310.6089 2126.3674 -0.154 -0.284 -0.946 208 205 200
-3130.1956 2743.7979 1456.9614 -0.405 -0.903 0.144 6 17 0
-3019.8191 2674.5908 1404.2928 -0.170 -0.820 0.546 91 24 30
-2992.6643 2659.8599 1390.9382 -0.133 -0.917 0.376 131 30 48
-2974.2573 2652.9604 1381.3518 -0.129 -0.914 0.384 166 41 66
-2896.4868 2630.3562 1339.7167 0.410 -0.560 0.720 207 55 64
-2856.6604 2612.6511 1319.4556 -0.097 -0.991 0.095 181 54 67
-2849.5798 2635.1321 1311.4199 -0.278 -0.819 0.502 190 126 115
-2822.3213 2638.4670 1294.8794 0.845 -0.421 0.329 224 183 171
-2815.1182 2760.9536 1269.4723 0.200 -0.758 0.620 188 174 165
-2801.9233 2757.8711 1262.2781 0.204 -0.760 0.617 179 162 150
-3078.0588 3114.9265 1362.2272 0.861 0.068 -0.504 194 124 76
-3107.8328 3180.5342 1368.3146 0.621 0.028 -0.783 189 133 90
-3101.7119 3185.8318 1363.8136 0.662 0.007 -0.750 191 139 101
-3142.5459 3264.3687 1374.1416 0.780 0.075 -0.621 181 142 115
-3142.9165 3276.7722 1372.2129 0.775 0.071 -0.629 188 160 145
-3130.3752 3275.4521 1365.0966 0.588 -0.762 0.271 189 161 149
-2999.3572 3170.4817 1306.5260 0.668 -0.693 0.272 184 160 150
-2986.5784 3168.3223 1299.4159 0.713 -0.697 0.078 188 162 153
-2983.9321 3177.1079 1296.3463 0.740 -0.671 0.055 195 168 157
-2975.8354 3179.9749 1291.1086 0.723 -0.688 0.060 201 173 161
-3678.6541 4453.4727 1482.4059 1.000 0.022 -0.010 164 129 108
-3514.8931 5496.3950 1206.0875 0.338 0.291 -0.895 135 105 93
-3501.6843 5538.0586 1191.1447 0.151 -0.363 -0.919 137 108 99
-3454.5989 5483.3711 1173.0299 0.525 -0.816 0.242 143 115 105
-3501.1848 5730.1714 1157.6188 0.290 -0.943 -0.163 166 138 127
-3404.8833 5810.5435 1087.3175 0.460 0.323 -0.827 134 107 96
-3259.1880 5623.3813 1034.3696 -0.094 -0.990 -0.105 98 74 65
-3260.4436 5647.3638 1030.9563 -0.187 -0.953 -0.239 95 73 65
-3232.2646 5619.5947 1019.2573 -0.166 -0.970 -0.179 100 79 71
-1938.1570 6123.3877 174.2276 -0.283 -0.941 -0.184 34 28 28
-1790.4938 5932.2319 120.8181 -0.288 -0.956 -0.061 30 28 29
-1644.5050 5521.5293 106.3682 0.140 -0.777 -0.613 27 25 26
-1604.6288 5466.6294 92.5123 0.253 -0.815 -0.521 40 36 37
-3343.5298 2854.6167 1552.3127 0.777 -0.218 0.591 32 27 21
-3293.1897 2821.2246 1528.7490 0.685 -0.330 0.650 26 21 15
-2937.8831 2634.7017 1353.8505 0.477 -0.480 0.736 215 56 65
-2819.8218 2612.0251 1288.8734 -0.279 -0.821 0.499 196 154 140
-3119.4282 3163.4424 1367.5421 0.638 0.083 -0.766 192 128 81
-3121.4736 3177.2029 1366.3340 0.645 0.096 -0.758 185 125 81
-3136.0520 3251.4595 1361.8820 0.696 0.133 -0.705 130 96 72
-3135.9299 3263.2822 1359.7466 0.315 -0.762 -0.566 148 124 108
-3113.7473 3251.6646 1348.8225 0.149 -0.885 0.442 151 125 112
-3643.1660 4565.8037 1428.5154 -0.477 -0.355 -0.804 178 147 127
-3631.3672 4567.5723 1421.3173 0.838 -0.528 -0.134 178 147 127
-3175.1387 4212.2441 1216.9618 0.267 -0.813 0.517 172 138 119
-3163.6211 4275.1777 1199.2493 0.194 -0.980 0.035 192 154 136
-3683.1858 5475.3921 1293.0785 -0.681 -0.726 -0.094 160 127 118
-3521.6768 5685.3120 1162.1237 0.473 -0.868 0.149 179 150 142
-3542.5811 5763.2075 1160.7297 0.624 -0.777 -0.081 171 143 132
-3223.1565 5589.9155 1004.4728 -0.136 -0.978 -0.160 90 67 59
-2285.3765 4887.6138 579.5173 0.170 -0.881 0.441 38 29 22
-1738.4668 5734.9062 112.2485 0.972 0.219 -0.082 35 33 34
-1636.7173 5528.7622 88.8275 0.444 -0.214 -0.870 44 40 41
-2929.9441 2622.8542 1341.9750 0.481 -0.626 0.614 219 51 66
-3150.0364 3200.9656 1368.2490 0.813 0.340 -0.472 127 76 38
-3153.8188 3216.6609 1367.6858 -0.232 -0.091 -0.968 99 54 20
-3116.2268 3248.2651 1340.2327 0.142 -0.893 0.428 84 61 47
-3867.8958 4385.8408 1577.4015 -0.715 -0.639 -0.284 200 162 153
-3776.8867 4606.3975 1485.5601 -0.278 -0.063 -0.958 176 141 121
-3673.4507 4595.0054 1427.3503 -0.312 -0.342 -0.886 178 147 127
-3647.3623 4578.6919 1415.0369 0.844 -0.510 -0.165 178 147 127
-3626.3909 4568.7441 1404.5807 0.767 -0.627 -0.137 172 141 121
-3582.0085 4528.6304 1385.8103 0.800 -0.589 0.117 172 141 121
-3570.8237 4530.9160 1378.8962 0.780 -0.617 0.103 172 141 121
-3541.2722 4526.0542 1362.5491 0.819 -0.573 0.033 167 139 122
-3190.8574 4287.5786 1200.5662 0.117 -0.882 -0.456 197 146 133
-3265.1423 4571.8052 1193.7352 -0.218 -0.918 -0.331 191 157 145
-3236.6287 4548.1577 1181.3020 -0.303 -0.877 -0.373 191 157 145
-3560.7600 5399.4619 1220.0107 -0.264 -0.675 -0.689 184 151 142
-3530.5332 5413.7651 1199.8938 -0.453 -0.847 -0.276 176 146 135
-3515.2434 5726.5698 1135.8802 0.478 -0.878 -0.018 177 149 138
-3375.9929 5732.9712 1053.6858 0.537 0.256 -0.804 146 118 107
-3201.0610 5559.0254 982.4937 -0.317 -0.720 -0.618 74 51 43
-3098.6689 5792.2856 881.7871 -0.602 -0.306 -0.738 60 47 38
-1568.2291 5546.0757 34.1980 -0.551 -0.579 -0.600 133 127 126
-4545.3042 3373.7285 2136.7988 -0.264 -0.493 -0.829 200 197 192
-4499.1685 3351.5608 2113.9609 -0.085 -0.763 -0.641 194 191 186
-3091.7209 2501.8931 1448.0887 -0.470 -0.508 -0.722 24 20 16
-2969.6602 2644.8013 1351.8341 0.208 -0.780 0.590 169 42 62
-2922.9158 2611.8796 1330.5551 0.475 -0.629 0.616 192 45 57
-2911.2686 2620.5525 1322.2527 0.123 -0.877 0.465 195 44 58
-2889.2671 2609.9292 1311.3711 0.535 -0.623 0.570 189 47 61
-2871.9490 2603.5337 1302.4562 0.874 -0.391 -0.288 169 50 64
-3223.7151 3584.7808 1332.1842 0.347 -0.836 0.425 195 161 149
-3623.7341 4556.0991 1391.6848 0.542 -0.807 -0.236 175 144 124
-3223.3245 4275.1465 1209.2225 0.585 -0.622 -0.520 192 128 119
-3202.4421 4326.2500 1188.0164 0.409 -0.894 0.182 215 152 147
-3540.4385 5416.9224 1190.2981 -0.452 -0.856 -0.250 187 157 146
-3478.3484 5401.4023 1157.0182 -0.501 -0.675 -0.542 160 130 119
-3502.4570 5480.5435 1156.9419 0.618 -0.679 -0.396 165 135 125
-3286.8308 5990.8276 941.0658 -0.400 -0.902 -0.161 48 34 25
-3053.5015 5874.7510 826.2702 -0.647 -0.316 -0.694 54 44 35
-2920.1829 6234.0869 685.0042 -0.610 -0.679 -0.409 49 40 33
-1556.2955 5453.2095 32.1858 -0.145 -0.960 -0.239 134 129 125
-1441.2864 5093.7534 29.3358 0.023 -0.926 0.377 135 129 129
-4522.4312 3363.8049 2112.0786 -0.249 -0.845 -0.474 191 188 183
-3367.9060 2685.5662 1565.6097 0.131 -0.974 0.185 29 25 22
-3351.9272 2682.5754 1556.8994 0.842 -0.003 -0.539 29 24 21
-2971.8003 2632.4180 1345.9155 -0.130 -0.880 0.457 94 16 24
-2951.1265 2623.3779 1335.5731 -0.132 -0.882 0.452 106 19 29
-2915.3721 2600.4719 1318.9906 0.477 -0.633 0.610 122 21 25
-2909.0881 2613.9951 1312.9285 0.140 -0.871 0.470 128 20 25
-2874.1953 2591.4824 1296.7739 0.796 -0.429 -0.427 125 20 30
-2871.9058 2598.9546 1294.1086 0.891 -0.107 -0.441 121 31 43
-3154.5750 3159.0481 1357.2238 0.855 -0.134 -0.501 105 51 35
-3241.9753 3296.2112 1383.1992 -0.261 -0.110 -0.959 54 33 20
-2953.0884 3272.2012 1220.3260 0.526 0.037 -0.849 197 161 149
-2923.7317 3250.9131 1207.1558 0.297 -0.142 -0.944 203 166 153
-3262.0928 4318.3750 1211.4910 0.472 -0.757 0.451 203 119 117
-3238.3606 4318.2183 1197.7850 0.472 -0.754 0.457 200 95 100
-3231.2930 4340.5913 1189.6819 0.191 -0.852 0.487 233 133 137
-3465.1455 5268.4424 1158.5802 0.306 -0.798 -0.519 192 162 151
-3574.8784 5458.0205 1188.0775 -0.432 -0.675 -0.597 192 162 151
-3460.3264 5525.2583 1109.7251 -0.158 -0.967 0.201 182 153 145
-3213.5237 5490.2217 973.1841 0.076 -0.996 -0.039 156 130 121
-3241.2922 5581.0737 972.9575 0.184 -0.975 0.122 157 134 126
-3216.4705 5559.1113 962.5324 0.235 -0.960 0.154 156 133 125
-3059.8081 5871.8491 815.7742 -0.546 -0.743 -0.386 39 29 20
-2813.1379 5985.8945 652.5685 -0.479 -0.754 -0.450 54 45 38
-1889.6378 5743.0073 161.7036 0.324 -0.889 -0.323 12 11 7
-1740.7889 5819.9336 61.7656 0.952 -0.112 0.285 67 65 66
-1721.4011 5840.5298 46.8514 0.760 -0.367 0.536 88 86 87
-3371.3396 2683.9351 1557.7723 0.127 -0.975 0.182 9 8 4
-3252.1348 2756.2173 1475.9135 0.539 -0.464 0.704 32 27 21
-3301.8909 2851.6433 1487.3528 -0.508 -0.832 0.222 26 22 14
-2946.2856 2614.4551 1325.0992 -0.116 -0.892 0.437 54 11 7
-2907.0337 2607.5750 1303.6968 0.133 -0.874 0.468 66 7 5
-2874.4890 2587.2495 1288.5974 0.798 -0.406 -0.445 67 6 8
-2875.4441 2597.7014 1287.2571 0.891 -0.107 -0.441 88 31 38
-3159.3774 3158.2095 1349.6484 0.835 -0.116 -0.538 86 43 36
-3249.9875 4309.0063 1193.6755 -0.312 -0.595 -0.741 209 95 103
-3588.2998 5507.6738 1171.9585 -0.484 -0.768 -0.418 192 162 151
-3256.2781 5529.6895 976.4054 0.055 -0.988 0.144 161 133 122
-3211.5974 5473.7256 960.7532 -0.348 -0.721 -0.599 160 132 123
-3110.9202 5594.1118 880.8790 0.702 -0.620 0.352 91 76 66
-3076.4866 5684.3857 844.6754 0.014 -0.958 -0.286 55 45 33
-2905.1746 5898.9370 707.0061 -0.321 -0.101 -0.942 43 38 35
-1939.8285 5877.4116 153.9185 -0.015 -0.820 -0.572 13 11 6
-1653.5033 5995.8696 -32.7212 0.670 -0.118 -0.733 131 97 89
-4539.9370 3340.9680 2099.9729 0.664 -0.747 0.023 186 183 178
-3380.2195 2686.7312 1552.2712 0.186 -0.968 0.171 49 45 39
-3364.5791 2684.0493 1543.7635 0.840 -0.002 -0.542 74 69 63
-3354.6775 2685.9995 1537.7117 0.485 0.173 -0.857 96 90 85
-3351.1462 2693.1514 1534.3748 0.479 0.160 -0.863 109 104 98
-3273.0002 2759.3440 1477.3374 0.764 -0.514 0.390 46 39 31
-3264.9666 2762.6555 1472.1115 0.787 -0.465 0.406 32 25 17
-3243.8135 2806.0449 1452.0222 -0.504 -0.828 0.246 35 36 22
-3191.5247 2770.0852 1428.5073 -0.477 -0.830 0.289 38 41 24
-2907.6272 2603.6021 1295.5856 0.158 -0.870 0.468 24 7 0
-2879.4373 2587.3098 1282.3435 0.793 -0.383 -0.473 29 3 0
-2876.2200 2593.9031 1279.2891 0.879 -0.164 -0.447 60 32 35
-2818.6604 2734.7524 1220.4655 0.600 -0.392 0.698 26 91 129
-3153.7349 3146.7463 1338.0089 0.809 -0.067 -0.584 65 31 29
-3089.2805 3092.4629 1310.8407 0.982 0.175 -0.070 53 32 24
-3068.7729 3174.2744 1284.1090 0.130 -0.965 0.228 75 56 46
-3004.3230 3117.6680 1257.3674 -0.035 -0.992 0.118 89 67 56
-3009.0286 3227.0356 1240.1091 -0.533 -0.347 -0.772 168 111 74
-3125.0532 3910.4880 1182.0883 -0.186 -0.947 0.260 182 154 133
-3266.7791 4322.6191 1188.3820 -0.315 -0.599 -0.736 218 90 105
-3246.1038 4310.6772 1178.6685 -0.168 -0.471 -0.866 226 81 102
-3242.5295 4321.7495 1174.5909 -0.263 -0.571 -0.778 241 96 116
-3226.9167 4316.4927 1166.5695 -0.255 -0.597 -0.760 248 122 136
-3251.0205 4365.3140 1171.5228 -0.555 -0.530 -0.641 220 147 146
-3239.1848 4365.2437 1164.7271 -0.373 -0.514 -0.773 212 151 146
-3346.6936 5564.4941 1007.6482 -0.374 -0.226 -0.899 170 142 131
-2334.9077 4369.2925 643.7986 -0.076 -0.984 0.159 43 33 24
-1962.5090 5898.5771 150.4028 0.761 -0.648 -0.021 12 7 3
-1715.2290 5661.4941 51.4335 -0.271 -0.215 -0.938 77 72 77
-1705.9087 5657.9604 46.7171 -0.379 -0.264 -0.887 94 88 93
-1711.0183 5788.9414 25.7457 0.647 -0.501 0.574 58 52 56
-3374.5876 2697.8347 1536.8962 0.781 -0.049 -0.623 130 116 109
-3424.0347 2748.4509 1555.9357 0.776 -0.625 0.078 133 119 112
-3505.6035 2825.8218 1588.4714 -0.561 -0.769 -0.306 129 115 108
-3353.2546 2741.0352 1516.7062 -0.573 -0.765 -0.294 139 127 117
-3323.0603 2736.1089 1500.2958 -0.453 -0.641 -0.620 138 127 116
-3309.7949 2765.7405 1487.2314 -0.417 -0.901 -0.118 98 86 76
-3299.4036 2767.1199 1481.0178 -0.414 -0.892 -0.180 67 59 49
-3266.5647 2749.1709 1465.4885 0.840 -0.540 0.051 50 42 32
-3262.6013 2755.9609 1461.9651 0.853 -0.519 0.050 36 29 18
-3104.7095 3068.7429 1313.8147 -0.428 -0.810 0.400 74 61 72
-3058.6428 3033.3677 1293.9077 -0.055 -0.733 0.678 65 41 46
-3049.1147 3034.8032 1288.1787 0.593 -0.721 -0.358 56 26 27
-3033.4788 3029.9819 1280.0986 0.833 -0.333 -0.442 50 31 25
-3004.4822 3011.4175 1266.8866 0.863 -0.303 -0.404 47 33 27
-3103.7852 3889.8137 1162.0975 0.042 -0.954 0.296 184 156 135
-3264.2290 4326.1182 1173.7791 -0.168 -0.471 -0.866 237 89 111
-3248.9937 4321.4829 1165.8945 -0.246 -0.520 -0.818 248 102 123
-3233.3127 4316.1582 1157.8815 -0.250 -0.585 -0.772 248 124 138
-3447.6440 5571.1323 1049.7242 -0.313 -0.071 -0.947 154 126 115
-3399.3447 5618.4946 1013.3019 -0.327 -0.262 -0.908 178 149 138
-1967.3959 5892.8130 141.5182 0.767 -0.641 -0.017 16 8 5
-1866.5999 5664.9917 125.6579 -0.290 -0.656 -0.697 42 32 30
-1848.2251 5634.7515 120.6876 -0.262 -0.692 -0.673 73 63 63
-1862.6670 5872.1533 85.2568 -0.525 -0.228 -0.820 220 211 218
-1851.1333 5863.2607 80.2792 -0.523 -0.226 -0.822 221 216 222
-1853.5349 5899.3623 75.0091 -0.520 -0.213 -0.827 217 214 220
-1801.6194 5815.0298 60.7622 -0.434 -0.166 -0.886 213 212 218
-1763.2312 5716.6030 56.8690 -0.462 -0.172 -0.870 207 206 211
-1765.8311 5753.1851 51.6240 -0.449 -0.164 -0.878 203 201 207
-1759.6995 5789.2456 41.4674 -0.449 -0.166 -0.878 193 188 195
-1697.8097 5749.9614 13.2050 -0.021 -1.000 0.002 153 146 150
-3348.2781 2752.7280 1501.5671 -0.453 -0.641 -0.620 143 123 105
-3333.2971 2750.3469 1493.4430 -0.465 -0.584 -0.665 141 123 105
-3257.1460 2746.6270 1450.5892 0.819 -0.574 0.025 45 32 19
-3094.9380 2695.1592 1367.3940 -0.375 -0.826 0.420 49 43 38
-3008.1082 2647.0286 1326.6818 0.524 -0.689 0.501 27 20 15
-3107.6707 3066.1990 1305.7672 -0.429 -0.810 0.399 64 56 68
-3003.4233 3037.9810 1251.3972 0.984 -0.154 -0.091 59 47 43
-3228.5603 4300.7378 1145.6217 0.198 -0.979 -0.056 241 136 146
-2905.1365 5100.9448 812.0717 -0.601 -0.758 -0.252 152 121 110
-3016.7595 5751.4980 755.0823 0.922 0.225 -0.314 38 32 26
-1926.6909 5775.5947 127.2864 0.759 -0.647 0.078 32 23 18
-1906.4622 5740.7285 122.1944 0.549 -0.823 0.147 38 29 24
-1890.7970 5746.5122 112.1627 -0.222 -0.617 -0.755 99 87 88
-1816.0023 5647.4238 87.7959 -0.172 -0.973 -0.152 208 193 203
-1785.9935 5913.0918 21.2978 -0.298 -0.190 -0.935 220 209 216
-1762.4366 5862.4683 17.2291 -0.350 -0.242 -0.905 220 209 217
-1637.1592 5716.6240 -27.3213 0.301 -0.908 -0.291 173 168 168
-4597.0430 3405.9502 2081.0356 0.875 -0.167 -0.455 152 147 141
-4618.9019 3500.4060 2075.8066 -0.503 -0.848 0.168 93 91 79
-3427.3525 2742.1262 1538.5197 0.603 -0.768 0.215 135 107 95
-3297.2695 2766.2585 1459.8389 -0.417 -0.835 -0.359 58 40 26
-3197.3647 2720.6367 1411.4275 0.721 -0.500 0.480 49 32 20
-3186.4561 2721.1929 1405.1041 0.746 -0.483 0.459 50 33 21
-3149.1245 2698.5742 1388.0576 0.972 0.174 -0.158 49 32 21
-3030.5605 2652.8665 1329.0245 0.449 -0.738 0.503 35 24 22
-3006.8914 2641.4033 1317.6777 0.524 -0.689 0.501 28 19 17
-3072.0840 3013.9077 1285.0767 0.660 -0.651 0.375 65 76 90
-3099.0361 3052.0134 1293.3054 -0.360 -0.801 0.479 70 63 71
-3090.8342 3054.9055 1288.0878 -0.366 -0.799 0.477 65 47 47
-2977.0557 2994.3411 1234.5654 0.008 -0.965 0.263 49 32 25
-3007.1655 3080.9333 1235.5131 0.101 -0.968 -0.231 59 49 43
-3239.5613 4306.6558 1138.4337 0.053 -0.975 0.217 229 143 146
-1893.6816 5681.5894 113.6265 0.898 -0.280 0.338 62 53 48
-1912.8560 5767.1089 108.5406 0.941 -0.320 0.110 96 85 81
-1814.2244 5568.4570 89.5165 0.851 -0.202 0.484 181 165 175
-1864.9861 5865.0972 62.8973 0.885 0.171 -0.434 213 201 210
-1879.5475 5940.1104 57.1494 0.865 0.211 -0.455 207 199 209
-1651.1646 5743.9072 -36.3052 0.159 -0.968 -0.195 209 203 205
-4438.4443 3159.6548 2024.1458 0.185 -0.226 -0.957 166 167 162
-4580.4155 3388.0500 2061.7048 0.915 -0.180 -0.361 152 147 141
-4653.4790 3521.4031 2078.0476 -0.503 -0.848 0.167 93 91 79
-3295.2336 2689.2068 1463.2047 -0.501 -0.858 0.115 112 78 63
-3143.5503 2679.2280 1378.8735 0.971 0.173 -0.167 52 30 20
-3013.0605 2642.4202 1311.6559 0.337 -0.899 0.279 29 18 16
-2916.5762 2565.3337 1271.3738 0.533 -0.633 0.562 22 14 12
-2900.5276 2598.2695 1256.0314 0.280 -0.897 0.343 28 33 36
-3178.7014 3207.2253 1299.1312 0.819 -0.516 -0.252 52 35 27
-3012.3152 3047.1816 1234.7855 0.987 -0.110 -0.114 52 35 27
-2938.0400 2981.3630 1204.9991 0.838 -0.306 0.451 54 35 28
-3019.6260 3110.8857 1226.9094 0.859 -0.243 0.451 33 26 18
-2920.3435 3186.9399 1156.1136 0.979 -0.203 0.004 17 14 9
-2876.6643 3400.2163 1091.0055 0.108 -0.943 0.314 196 158 138
-2869.8870 3404.4458 1086.3545 0.111 -0.942 0.318 194 159 140
-2384.2166 2837.8809 917.3086 0.294 -0.954 -0.057 194 159 140
-2860.1038 5420.8770 699.9542 0.994 0.108 0.026 38 32 26
-1871.4823 5415.6206 139.0207 0.971 0.236 0.018 33 22 16
-1902.8083 5533.3647 134.5880 0.985 0.155 -0.075 32 21 15
-1918.1846 5630.6646 124.9510 0.962 0.187 -0.199 32 21 17
-1921.3639 5666.3579 120.0167 0.993 0.071 -0.090 30 21 16
-1921.5150 5773.3911 99.8875 0.975 -0.172 0.142 120 109 105
-1810.5786 5616.5913 66.4464 0.837 -0.293 0.463 203 188 195
-1639.9943 5406.6719 9.1345 0.409 -0.609 0.680 202 191 199
-1658.2847 5746.6548 -44.6813 0.179 -0.962 -0.205 218 212 214
-4673.7524 3439.8181 2091.5583 0.898 -0.132 0.419 157 152 146
-4538.3389 3351.0964 2031.7174 0.938 -0.265 -0.222 151 146 140
-3424.8457 2700.7554 1524.5675 -0.267 -0.772 0.577 80 56 44
-3140.5115 2691.8608 1365.1332 0.119 -0.992 0.040 45 29 26
-3134.7722 2696.7583 1360.9482 0.103 -0.993 0.063 39 28 24
-2846.2261 2687.9497 1199.1106 -0.033 -0.998 -0.056 26 80 115
-2834.1179 2695.9043 1190.7341 -0.582 -0.800 0.147 44 96 131
-3193.9294 3124.6777 1312.9785 -0.224 -0.788 0.573 76 88 101
-3013.3923 3042.7598 1226.2712 0.959 -0.276 0.060 45 28 21
-2889.6729 3216.3125 1123.1096 0.237 -0.854 -0.463 10 5 0
-2879.6943 3397.2080 1083.0050 0.108 -0.943 0.314 200 154 131
-2880.5386 3410.6277 1080.9277 -0.060 -0.995 -0.073 200 155 134
-3201.8555 3910.6899 1167.7816 -0.357 -0.191 -0.915 184 165 153
-3213.0537 3996.8088 1157.7269 -0.251 -0.073 -0.965 227 207 197
-3256.5613 4066.6428 1169.0829 0.012 0.152 -0.988 235 214 208
-3355.7512 4238.6924 1192.5272 -0.155 -0.966 -0.207 218 213 209
-3306.2124 4205.7349 1170.7306 0.010 -0.805 -0.594 218 210 208
-2832.0276 5374.2495 679.4843 0.976 0.183 0.121 28 24 20
-2857.1216 5917.6294 590.2231 0.886 -0.407 0.223 48 42 39
-1881.5237 5426.7056 130.8570 0.994 0.110 -0.016 31 22 15
-1900.4301 5532.8892 121.3493 0.993 0.104 -0.048 31 22 17
-1910.4998 5588.4551 116.4737 0.959 0.181 -0.216 40 31 26
-1818.4451 5490.3057 82.9991 0.992 -0.117 0.044 169 154 160
-1774.3834 5379.9893 79.0388 0.947 -0.308 0.086 176 160 171
-1831.5587 5771.4756 36.8844 0.246 -0.081 -0.966 212 189 205
-1806.0533 5716.9634 32.8122 0.301 -0.179 -0.937 210 190 206
-1620.6653 5347.7949 -1.9401 0.994 0.096 0.045 179 168 176
-1575.3322 5298.6455 -18.2697 0.492 -0.654 0.575 199 193 197
-4255.0229 2971.8569 1931.4398 0.859 -0.364 -0.360 155 156 151
-3316.9482 2738.6450 1446.2239 0.800 -0.413 0.435 84 40 29
-3349.1729 2807.0088 1451.3036 -0.507 -0.545 -0.668 69 32 26
-3289.2490 2765.9285 1425.3356 -0.518 -0.623 -0.586 68 31 28
-3124.7625 2683.4153 1348.2471 -0.085 -0.996 -0.014 44 32 28
-2862.0110 2708.3118 1195.0168 -0.062 -0.941 0.334 57 91 119
-3031.7825 3123.5830 1211.1985 0.896 -0.243 0.371 18 11 3
-2857.8882 3083.2070 1120.7039 0.125 -0.094 -0.988 31 28 23
-2913.7957 3167.7073 1136.0657 0.766 0.248 -0.593 19 16 11
-2898.4807 3185.2656 1124.0416 0.995 -0.078 -0.061 12 9 4
-2877.3936 3207.9338 1107.7751 0.319 -0.523 -0.790 23 20 5
-2866.6675 3207.3757 1101.8224 0.360 -0.515 -0.778 44 30 13
-2834.9856 3194.3645 1086.4210 -0.107 -0.992 -0.068 112 67 46
-2819.9221 3188.6243 1079.0126 -0.097 -0.994 -0.049 151 92 70
-2947.8745 3409.8137 1108.8328 -0.681 -0.428 -0.594 169 108 64
-2884.8840 3409.1902 1073.3640 -0.047 -0.997 -0.065 198 148 123
-3096.4695 3744.9199 1128.4424 0.660 0.059 -0.749 203 160 139
-3268.4890 3971.0598 1182.2091 0.388 -0.857 -0.340 188 162 156
-3272.7236 3990.7896 1180.8134 -0.335 -0.160 -0.929 195 174 171
-3268.5459 4000.1467 1176.6564 -0.336 -0.168 -0.927 209 188 186
-3269.5737 4016.0220 1174.1887 -0.189 0.048 -0.981 220 199 195
-3290.8335 4057.3164 1178.2711 -0.177 0.015 -0.984 232 211 206
-3315.3208 4102.9194 1183.3499 -0.177 0.015 -0.984 232 212 206
-3032.4473 5296.6587 794.3216 -0.291 -0.884 0.366 157 125 114
-3182.5554 5648.7808 811.5189 -0.305 -0.887 0.346 159 129 118
-3057.3960 5550.6777 759.6429 0.332 -0.074 -0.940 100 76 60
-2894.4563 6407.2217 503.1199 0.199 -0.177 -0.964 94 68 57
-1928.2399 5545.0771 122.7658 -0.542 -0.782 -0.307 35 28 20
-1769.7457 5579.6094 26.5890 0.205 -0.784 -0.586 205 177 195
-1660.9457 5711.4932 -60.2041 0.719 -0.674 -0.168 238 237 235
-1617.8923 5588.4922 -60.9111 -0.230 -0.925 -0.303 240 236 235
-4448.5557 2798.6570 2062.0527 -0.372 -0.907 -0.198 178 172 160
-4378.5166 2786.0601 2025.0393 0.957 -0.027 -0.290 179 172 162
-4370.5093 2791.6814 2019.4409 0.934 -0.079 -0.347 177 171 163
-4257.9717 2958.0833 1923.8392 0.816 -0.378 -0.437 161 160 156
-4198.5010 3017.1641 1878.9039 0.514 -0.844 0.154 168 165 160
-3281.2288 2754.4304 1413.0818 -0.516 -0.604 -0.608 78 35 31
-2859.3508 2681.3135 1189.6000 -0.181 -0.945 0.273 128 134 161
-2866.6362 2708.0083 1188.5363 -0.048 -0.952 0.301 108 128 148
-2957.3755 3017.8071 1179.6780 0.611 -0.543 0.576 42 35 27
-2918.4209 3178.4080 1126.6470 0.515 0.086 -0.853 15 12 7
-2894.2141 3162.9812 1115.9980 -0.356 -0.735 -0.577 12 9 4
-2898.3940 3179.1653 1115.2196 0.995 -0.075 -0.059 15 12 7
-2810.2969 3103.0564 1080.3292 0.501 -0.745 -0.441 22 21 14
-2866.3638 3200.9309 1092.9644 0.348 -0.471 -0.811 45 34 14
-2996.3843 3562.3833 1096.2335 0.542 -0.107 -0.834 201 149 119
-3184.9915 5617.7700 804.5969 0.953 -0.243 0.181 161 129 118
-3235.7112 5730.4243 811.3592 0.952 -0.306 0.017 158 128 117
-3108.2031 5630.2666 758.9245 -0.412 -0.911 0.006 106 80 65
-1944.2516 5547.7090 119.2749 -0.608 -0.771 -0.189 42 33 26
-1904.9005 5533.7891 99.8038 0.995 0.064 0.078 66 56 51
-1790.2925 5519.3550 38.0415 0.715 -0.017 -0.699 186 166 178
-1719.5334 5398.7349 21.5336 0.966 -0.119 -0.229 196 163 181
-1612.4781 5306.3701 -20.8889 0.979 0.046 -0.199 212 201 209
-4273.4185 2671.8879 1976.4722 -0.347 -0.878 0.329 177 173 162
-4110.6401 2914.9880 1837.6200 -0.240 -0.935 -0.261 165 166 161
-3158.5989 2654.6418 1353.7751 0.056 -0.910 0.410 79 34 28
-2866.8030 2693.5601 1182.3135 0.038 -0.997 -0.069 157 159 176
-2913.2258 2829.4602 1181.8640 0.958 0.059 -0.281 99 110 120
-3100.3013 3037.1079 1246.4017 -0.224 -0.785 0.577 92 68 66
-3086.5542 3034.3799 1239.2139 0.060 -0.997 0.049 81 50 46
-3078.3926 3037.2139 1234.0775 -0.314 -0.801 -0.509 58 35 26
-3068.5752 3038.3540 1228.3418 -0.293 -0.582 -0.759 55 33 23
-3011.5161 3024.3521 1199.0308 0.959 -0.244 -0.142 49 31 23
-2908.4614 3172.8958 1112.1703 -0.356 -0.735 -0.577 7 6 1
-2874.9321 3204.5977 1087.1543 0.348 -0.471 -0.811 47 38 19
-2754.2803 3123.6174 1035.2010 0.477 -0.875 -0.087 176 93 64
-2899.1831 3413.0593 1060.0940 0.013 -1.000 -0.019 182 123 86
-3005.7217 3579.6836 1087.4088 0.647 -0.648 0.402 190 132 96
-2998.4692 3583.8860 1082.5159 0.647 -0.648 0.402 207 149 113
-2969.5271 3574.5493 1068.0846 0.551 -0.518 0.654 240 190 161
-3046.1643 5315.6255 771.3676 0.985 -0.151 0.085 160 128 117
-3075.3635 5492.3506 753.2791 -0.134 -0.951 -0.278 146 117 103
-3008.2209 5433.2134 727.1130 0.537 0.143 -0.831 111 85 70
-2744.0674 6161.1162 436.7257 -0.111 -0.994 0.003 84 63 49
-2667.6582 6036.7783 418.0791 -0.062 -0.991 -0.119 85 64 50
-2654.9465 6032.5029 411.7748 -0.061 -0.993 -0.106 79 60 46
-1950.5507 5522.2026 115.7793 -0.558 -0.804 -0.205 48 38 29
-1950.6616 5547.6582 110.8743 -0.601 -0.779 -0.179 48 38 29
-1897.8798 5519.5586 86.7163 0.769 -0.143 -0.623 129 115 112
-1865.3379 5448.1968 82.3670 1.000 -0.023 -0.003 145 130 127
-1762.2551 5189.2417 75.0103 0.484 -0.867 -0.116 165 152 146
-1513.7018 5054.2695 -38.2341 0.745 -0.562 0.359 242 236 240
-1498.9967 5028.8574 -41.5333 0.489 -0.700 0.521 247 242 244
-1595.5516 5522.2305 -83.5871 -0.157 -0.935 -0.319 240 244 246
-4102.2715 2904.4150 1823.4628 -0.217 -0.927 -0.306 166 165 161
-3723.0217 2773.1951 1636.9370 -0.042 -0.947 0.318 96 97 83
-3136.4004 2631.1721 1336.4319 -0.064 -0.930 0.362 85 38 28
-3156.8550 2697.9023 1334.7583 0.824 -0.453 0.342 37 15 9
-2797.5107 2428.3413 1186.5895 -0.643 -0.661 -0.386 27 17 19
-2829.8662 2634.1206 1164.2277 -0.158 -0.609 -0.777 175 167 185
-2865.1794 2687.2812 1173.5424 0.126 -0.978 -0.165 189 190 202
-3082.1404 3024.5442 1228.6754 0.291 -0.939 0.183 96 58 46
-3077.8252 3031.2134 1224.9476 0.058 -0.998 -0.001 83 53 40
-2914.6921 2973.3254 1144.9983 0.383 -0.630 0.675 22 16 7
-2913.0952 3115.1213 1116.2128 0.685 -0.622 0.379 25 24 19
-2838.2268 3077.7515 1081.6456 0.598 -0.747 -0.291 21 20 16
-2792.3853 3138.8145 1043.9683 0.554 -0.830 -0.062 143 78 52
-2778.9006 3134.6973 1037.2284 0.527 -0.818 -0.230 169 92 63
-2950.0393 3417.3689 1077.4446 0.053 -0.985 0.162 186 112 51
-2936.4775 3413.7200 1070.5692 0.021 -0.988 0.152 183 111 51
-2782.5542 3278.6389 1010.9603 -0.036 -0.982 0.188 187 118 78
-3187.2410 4078.3381 1080.2366 -0.374 -0.926 -0.044 216 156 159
-3306.3213 4279.7573 1107.2885 0.282 -0.631 0.723 214 130 139
-3254.6941 4273.7822 1079.5583 0.518 -0.566 0.641 208 150 148
-2383.4521 3299.8979 783.3268 0.353 -0.819 -0.452 203 168 158
-2616.5254 5529.4194 475.2701 0.247 -0.669 0.701 120 89 77
-2820.0684 6264.5845 444.6227 0.267 -0.964 0.002 112 82 68
-2347.7812 5823.9429 266.8705 0.605 -0.044 -0.795 40 26 14
-2020.0308 5652.0830 117.1728 0.967 0.227 -0.117 44 34 25
-1901.9242 5462.5503 88.3279 -0.475 -0.880 0.021 106 89 85
-1865.4061 5429.8218 74.3197 0.779 -0.444 -0.442 161 142 139
-1716.7634 5129.5337 50.1640 -0.229 -0.330 -0.916 182 163 170
-1653.1827 5173.6738 5.8836 0.601 -0.776 0.194 175 153 165
-1634.3236 5212.2207 -12.2577 0.958 -0.193 0.214 206 192 200
-1614.7637 5173.3994 -15.5728 0.998 0.022 -0.065 223 213 219
-1579.3669 5156.5435 -32.0753 0.943 -0.333 -0.022 249 238 246
-1627.8160 5614.3354 -94.9979 0.519 -0.752 -0.408 240 240 247
-4340.6304 2857.2766 1954.3582 -0.473 -0.266 -0.840 153 152 147
-4233.7061 2983.3125 1869.6859 -0.240 -0.970 -0.051 166 165 161
-3902.5022 2851.0583 1711.0306 -0.237 -0.822 0.518 135 133 128
-3585.2671 2674.2490 1569.0061 0.032 -0.995 0.095 73 74 58
-3208.5542 2591.1589 1375.2008 0.939 -0.249 0.236 113 77 59
-3208.2368 2600.4985 1373.1719 0.938 -0.250 0.241 113 69 53
-3221.7922 2621.4050 1376.5935 0.637 -0.542 -0.549 114 65 54
-3214.0806 2624.6711 1371.6414 0.646 -0.582 -0.493 115 62 51
-3202.1641 2624.3984 1365.0437 0.512 -0.835 -0.201 112 54 45
-3202.7219 2634.5728 1363.3379 0.488 -0.779 -0.393 108 47 38
-2849.0671 2638.1382 1165.2231 -0.031 -0.804 -0.594 176 180 189
-2837.3145 2646.2354 1157.0575 -0.053 -0.877 -0.478 185 197 201
-2868.4961 2685.7539 1166.6281 0.134 -0.979 -0.155 190 202 206
-2919.2686 2846.0020 1163.1980 0.894 -0.424 0.146 136 82 59
-3078.3262 3015.3423 1218.4095 0.456 -0.886 0.086 145 81 55
-3050.5691 3009.3635 1204.1010 -0.355 -0.867 0.349 121 75 49
-2837.3159 3048.8223 1077.2412 0.628 -0.673 -0.391 34 34 30
-2839.7253 3073.6553 1073.6627 0.496 -0.763 -0.415 45 45 43
-2837.9465 3116.5254 1064.1704 -0.315 -0.936 -0.155 43 40 40
-2795.6919 3136.6316 1036.5979 0.568 -0.821 -0.059 144 87 51
-2785.5110 3136.3208 1030.9766 0.880 -0.296 -0.371 165 99 57
-2761.3147 3119.8057 1020.7447 0.705 -0.706 0.071 166 94 47
-2926.6580 3546.5815 1028.4255 0.007 -0.692 0.721 214 189 160
-3094.9026 3950.2180 1042.3136 -0.260 -0.938 0.229 221 188 187
-3074.3210 3937.8125 1033.2845 -0.316 -0.905 0.284 218 182 182
-3184.7825 4096.6147 1063.4594 0.431 0.117 -0.895 213 175 175
-2401.8069 3258.3264 792.6063 -0.341 -0.905 -0.253 205 167 156
-2387.8630 3262.9053 783.9151 0.886 0.178 -0.429 207 169 158
-2386.6567 3309.5815 773.9878 0.872 0.112 -0.477 202 159 143
-2325.3772 3294.9475 742.6833 0.876 0.235 -0.422 204 161 146
-3120.2422 5278.1094 793.1897 -0.496 -0.867 0.057 157 127 117
-3284.5449 5775.8569 786.2190 -0.572 -0.323 -0.754 168 135 126
-2921.5159 5878.0854 563.3104 0.900 0.384 -0.206 20 14 10
-2297.3662 5728.4741 244.5759 -0.123 -0.972 -0.201 41 28 17
-2220.2017 5628.9897 221.2267 0.898 0.047 -0.437 30 20 10
-1975.7069 5557.5366 98.9177 -0.496 -0.868 0.032 50 40 30
-1945.1803 5519.8701 89.3456 -0.544 -0.802 -0.247 69 56 48
-1931.1909 5504.3848 84.6070 -0.555 -0.803 -0.219 97 82 75
-1904.7365 5452.3657 80.1536 -0.496 -0.865 0.077 124 105 101
-1881.3893 5408.9116 75.7366 -0.421 -0.905 0.064 138 117 114
-1856.2552 5359.7451 71.4546 -0.461 -0.880 -0.111 154 133 129
-1837.1024 5352.2354 62.2526 0.970 0.189 -0.156 166 144 140
-1778.0760 5200.8965 59.3089 0.157 -0.979 -0.132 167 144 140
-1734.0768 5093.1211 56.1163 0.724 -0.662 0.195 166 145 143
-1715.3070 5083.6865 47.5097 0.733 -0.658 0.174 155 135 138
-1718.1907 5116.0747 42.6980 0.981 0.193 -0.011 149 130 134
-1714.8977 5129.8608 38.1267 -0.226 -0.514 -0.828 146 127 131
-1703.4999 5118.8755 33.9424 -0.247 -0.412 -0.877 147 128 132
-1706.0157 5174.7246 24.2741 -0.200 -0.571 -0.796 165 144 149
-1697.2570 5171.8208 19.9607 -0.306 -0.863 -0.402 170 151 155
-1682.3082 5149.5029 16.0411 -0.249 -0.441 -0.863 169 152 158
-1667.6637 5127.8721 12.1552 0.825 -0.564 -0.037 169 153 160
-1620.3425 5098.9238 -8.5198 0.918 -0.226 0.327 203 188 195
-3742.2058 2349.8916 1710.9064 -0.534 -0.452 -0.715 160 161 153
-4484.8076 2949.5503 2004.3464 -0.535 -0.417 -0.735 144 143 138
-4188.6724 2946.4143 1840.1724 -0.508 -0.562 -0.652 166 165 161
-4085.4871 2894.2402 1793.1744 -0.401 -0.907 0.128 166 165 161
-3378.6897 2667.2703 1445.1907 -0.405 -0.851 0.333 112 98 87
-3286.5100 2612.2202 1404.8921 -0.563 -0.790 -0.244 112 95 85
-3227.3745 2573.6941 1379.6812 -0.593 -0.691 -0.412 112 96 84
-3184.2588 2547.9563 1360.8298 -0.599 -0.684 -0.415 115 91 75
-3227.3274 2621.6909 1370.0643 0.702 -0.525 -0.482 113 65 51
-3226.7285 2630.8899 1367.8931 0.687 -0.541 -0.485 115 61 49
-2945.5706 2617.5842 1214.0859 -0.505 -0.841 0.195 39 45 45
-2927.9822 2828.9880 1162.0562 0.954 0.079 -0.290 157 140 138
-2934.0220 2855.6111 1160.0975 0.823 0.040 -0.567 163 109 85
-3081.3718 3013.0168 1210.6462 0.456 -0.886 0.086 182 117 89
-3047.1985 3000.6047 1194.1088 -0.366 -0.874 0.321 184 137 105
-2844.5974 3073.2939 1066.8358 0.495 -0.712 -0.498 44 46 43
-2868.1274 3110.4780 1072.5004 -0.182 -0.983 -0.027 53 55 52
-2799.2224 3134.7119 1029.3121 0.568 -0.821 -0.059 146 87 52
-2789.1582 3134.5396 1023.7458 0.880 -0.296 -0.371 166 99 56
-2768.1248 3121.7002 1014.6061 0.687 -0.720 0.100 165 92 45
-2832.4990 3436.0374 987.6212 0.078 -0.675 0.734 189 149 120
-3213.1404 4095.4229 1067.6940 -0.604 -0.565 -0.562 207 179 173
-3037.4670 3967.6794 995.4561 0.299 -0.677 0.673 192 161 155
-2331.5007 3260.4465 743.8991 -0.493 -0.610 -0.620 199 153 137
-3119.5764 5264.5132 782.0223 -0.497 -0.866 0.046 157 127 117
-3224.7351 5634.0425 766.7056 -0.604 -0.359 -0.712 173 140 131
-2175.6199 4689.6357 371.5758 -0.400 -0.862 -0.312 124 87 69
-2029.1030 4421.8442 343.5475 -0.222 -0.975 0.027 118 83 64
-2333.9280 5778.6865 242.0653 -0.150 -0.953 0.263 51 38 22
-1851.2004 5326.8311 63.7130 -0.484 -0.673 -0.559 163 142 139
-1733.2894 5050.0723 53.3959 0.678 -0.373 0.633 166 145 142
-1647.1217 5093.2988 -3.1942 0.679 -0.686 0.262 199 184 191
-1602.8062 5096.9219 -28.5799 0.976 -0.035 -0.214 235 224 230
-1516.6647 4934.8521 -44.1339 -0.297 -0.823 -0.484 248 239 244
-3831.3420 2403.5737 1739.5596 -0.553 -0.519 -0.652 160 161 153
-4362.5444 2841.4087 1946.1141 -0.485 -0.390 -0.782 145 146 140
-3209.8611 2564.7151 1362.3016 -0.362 -0.827 -0.430 115 92 75
-3181.4893 2550.9521 1349.3319 -0.387 -0.875 -0.291 114 85 66
-3167.8237 2549.1531 1342.1123 -0.176 -0.967 -0.182 114 78 59
-3183.0112 2707.0850 1318.7361 0.588 -0.535 0.606 83 44 23
-2942.5940 2838.3826 1158.9089 -0.054 0.002 -0.999 145 129 126
-2951.2258 2857.2358 1159.9015 -0.071 -0.025 -0.997 151 118 102
-2937.2319 2853.7300 1152.8434 0.814 0.045 -0.579 171 123 100
-3021.8994 2948.4297 1180.7490 0.916 -0.400 -0.017 199 141 115
-2862.4226 3177.7991 1046.0804 -0.504 -0.860 0.079 76 43 23
-2823.6631 3145.2551 1031.1293 -0.113 -0.930 0.351 112 67 38
-2809.5898 3140.5984 1024.2589 -0.146 -0.960 0.239 144 87 51
-2801.1633 3142.3325 1019.2345 0.838 -0.295 -0.459 164 99 55
-2789.6306 3140.4712 1013.2108 0.815 -0.477 -0.330 165 94 47
-2468.7363 3300.5708 802.9337 0.563 -0.400 -0.723 204 164 154
-2188.8586 3141.5654 679.6711 0.568 -0.279 -0.775 198 164 152
-3077.0620 5238.7114 750.1628 -0.579 -0.812 0.070 159 126 117
-3222.7070 5659.9390 746.1472 -0.629 -0.399 -0.667 178 145 135
-2924.4861 5350.3555 643.0292 -0.606 -0.349 -0.715 44 32 26
-2023.4167 4487.8521 316.7809 0.935 -0.265 0.238 117 81 65
-2007.4425 4470.0732 311.4981 0.976 0.016 0.216 117 81 65
-2245.4578 5586.8862 218.6619 -0.275 -0.957 -0.091 36 27 17
-1909.3770 5429.3486 63.9214 -0.221 -0.917 0.333 161 141 140
-1864.3044 5322.9385 60.3419 -0.469 -0.883 0.017 164 143 142
-1843.7135 5287.0308 56.1485 -0.501 -0.344 -0.794 169 149 148
-1696.1451 4991.2427 33.8373 0.280 -0.913 0.296 146 127 130
-1657.2375 5035.5586 3.3268 0.854 -0.455 0.252 190 174 179
-1596.8783 4987.4932 -20.4827 0.998 0.050 0.039 248 233 240
-3253.9404 2586.9099 1372.7693 -0.437 -0.844 -0.310 113 97 85
-3212.3450 2718.0286 1323.1548 0.770 -0.548 0.326 100 48 25
-3191.4863 2709.9141 1313.2639 0.470 -0.882 0.019 94 48 24
-2975.8372 2626.4763 1210.9117 0.052 -0.895 0.443 31 39 41
-2848.0457 2594.9558 1146.6221 0.118 -0.988 -0.103 193 190 204
-2991.9526 2892.3889 1165.8672 -0.045 -0.022 -0.999 146 116 105
-2968.5303 2879.6833 1155.4895 0.079 -0.001 -0.997 169 125 108
-3017.2461 2938.5737 1170.4861 0.929 -0.367 -0.047 195 143 122
-3010.1575 2995.8965 1154.9332 -0.248 -0.894 0.374 164 140 127
-2682.9937 2832.6277 1007.0979 -0.279 -0.721 -0.634 23 22 18
-2862.8584 3093.0864 1053.7352 0.106 -0.219 -0.970 43 42 40
-2864.6096 3174.2830 1038.2275 -0.500 -0.861 0.099 81 48 28
-2817.0032 3131.7610 1020.5233 0.719 -0.688 0.096 120 75 46
-2817.8245 3144.0339 1018.4872 -0.183 -0.950 0.251 145 89 52
-2794.7585 3140.3904 1006.4680 0.830 -0.437 -0.346 164 93 45
-3195.8210 5349.4478 780.0500 0.449 -0.875 -0.180 170 142 131
-3227.5439 5676.5093 731.2302 -0.639 -0.404 -0.655 181 149 137
-3084.1455 5589.5894 669.5490 -0.629 -0.344 -0.697 96 81 74
-2523.7314 6011.9155 273.8666 -0.510 -0.583 -0.632 85 66 51
-1940.1738 4679.3618 221.4809 -0.268 -0.703 -0.659 75 59 44
-2081.7861 5291.7910 175.5381 1.000 -0.027 0.000 23 15 4
-1694.9208 4993.4312 22.0923 0.184 -0.891 0.415 148 129 133
-1683.3585 5122.5103 -10.4958 0.630 -0.640 0.439 245 230 235
-1654.1532 5055.4775 -13.0481 0.876 -0.482 -0.016 244 229 236
-1633.8468 5015.6440 -16.1973 0.293 -0.892 0.344 244 229 236
-1571.7394 4889.7690 -25.0087 0.066 -0.994 0.088 255 242 249
-1550.9348 4846.5801 -27.7525 0.489 -0.849 0.198 254 241 248
-1532.4312 4856.3960 -39.9794 0.972 -0.081 0.220 245 239 243
-4369.1973 2859.1360 1922.6194 -0.530 -0.746 -0.403 155 154 149
-3325.1436 2621.0352 1395.5548 -0.406 -0.846 0.345 108 95 86
-3257.5188 2585.6108 1365.5060 -0.052 -0.991 0.126 109 96 86
-3279.7173 2701.3669 1354.0791 -0.073 -0.993 0.092 126 56 40
-3218.0161 2708.4514 1318.6051 0.845 -0.531 0.062 119 50 33
-2826.7419 2570.6580 1131.0093 0.323 -0.946 0.019 193 189 206
-2823.2268 2576.7493 1127.8254 0.294 -0.955 0.039 190 180 197
-2892.6528 2759.2590 1128.7937 0.315 0.323 -0.892 116 138 146
-3009.2629 2936.0535 1156.9503 0.581 -0.667 -0.466 203 153 126
-2999.6313 2937.0679 1151.4315 0.425 -0.905 0.029 203 156 128
-2692.9204 2838.1055 1002.5290 -0.268 -0.598 -0.756 17 16 12
-2857.0652 3137.0706 1031.9191 0.313 -0.119 -0.942 76 60 58
-2857.9048 3149.3584 1029.8696 0.936 0.284 -0.210 89 65 56
-2871.7581 3176.3787 1031.9843 -0.508 -0.858 0.079 103 68 50
-2809.0022 3116.7983 1009.5594 0.666 -0.745 -0.047 142 93 66
-2785.7009 3101.5913 999.8192 0.818 -0.575 -0.014 150 92 55
-2813.6338 3144.6694 1006.4148 0.836 -0.294 -0.463 157 90 45
-2804.9263 3146.0784 1001.3250 0.839 -0.382 -0.387 162 89 39
-2227.2058 3172.3286 677.3712 0.232 -0.755 -0.613 193 159 147
-2208.2312 3156.3184 670.1810 0.523 -0.285 -0.803 197 163 151
-3028.0244 5536.4985 635.5930 -0.602 -0.352 -0.717 96 81 76
-2691.1821 5351.7598 487.6126 0.923 0.265 -0.278 29 25 21
-637.0647 1285.9313 186.1854 -0.550 -0.221 -0.806 127 90 72
-1941.7008 5293.3760 86.2453 -0.212 -0.380 -0.901 46 33 25
-1895.3945 5426.2021 33.5510 -0.439 -0.897 0.057 166 142 140
-1704.4183 5169.7109 -19.3198 0.398 -0.790 0.466 250 233 241
-1696.9794 5170.7998 -23.6447 0.404 -0.788 0.465 248 234 241
-1574.9862 4836.8237 -22.6315 0.213 -0.955 -0.204 252 237 244
-1548.0221 4842.8652 -38.7363 0.256 -0.946 0.198 251 240 246
-1717.2366 5874.0171 -156.2581 0.617 -0.782 0.094 235 245 254
-4362.3999 2700.4763 1939.7913 -0.360 -0.163 -0.918 129 130 122
-4612.1387 2947.9519 2026.1091 -0.249 -0.846 0.471 148 149 144
-4083.4338 3018.4263 1720.9209 0.537 -0.641 0.549 15 14 21
-3289.8130 2607.5806 1369.2450 -0.297 -0.925 0.238 89 75 64
-3260.5500 2593.4309 1356.0719 -0.246 -0.913 0.325 99 74 59
-2836.4133 2575.2219 1126.6426 0.299 -0.954 0.027 187 183 198
-2843.1216 2590.8608 1127.1088 0.512 -0.853 0.102 191 180 196
-2864.6035 2707.4202 1114.9065 0.877 -0.308 -0.370 167 184 191
-2858.2620 2711.1018 1110.6617 0.861 -0.483 -0.159 136 159 164
-2998.1533 2930.3840 1142.3961 0.456 -0.473 -0.754 202 157 128
-2872.0186 3125.3013 1032.8951 0.101 -0.093 -0.991 110 108 108
-2864.8994 3139.9612 1025.9611 0.261 -0.194 -0.946 138 124 120
-2807.6677 3109.4263 1000.7869 0.657 -0.752 -0.052 139 96 66
-2803.7585 3138.7944 992.5876 0.172 -0.934 -0.313 159 91 40
-2609.7336 3396.3254 832.8629 0.454 -0.778 0.435 199 160 150
-2391.2883 3175.0486 758.3522 0.576 -0.740 0.348 192 155 146
-2312.5769 3170.9583 715.9211 -0.102 -0.985 0.142 133 89 74
-2233.4028 3174.5161 671.6600 0.224 -0.750 -0.622 191 157 145
-2215.0203 3159.4226 664.6631 0.523 -0.285 -0.803 198 164 152
-2219.4929 3177.6321 663.3707 0.816 0.329 -0.475 200 166 154
-3229.8264 5696.5073 699.9131 -0.597 -0.706 -0.381 183 153 143
-2321.6379 5655.0137 209.1600 0.355 -0.817 0.455 71 54 39
-1982.1135 5340.6865 87.2521 -0.339 -0.258 -0.905 47 37 27
-1953.6909 5333.0562 73.1979 0.676 -0.692 0.254 71 58 51
-1933.2076 5299.6182 68.8253 0.784 -0.535 0.315 88 75 67
-1922.4926 5293.2134 64.2538 0.792 -0.528 0.307 101 88 80
-1817.9735 5326.7310 -0.1133 -0.418 -0.538 -0.732 219 200 203
-4336.2744 2700.8979 1913.8843 -0.516 -0.500 -0.695 138 138 128
-4587.3599 2927.4587 2004.4817 -0.254 -0.846 0.470 148 149 143
-4336.4023 2983.4802 1855.3038 0.506 -0.253 -0.825 150 144 137
-4071.4185 3027.1213 1701.0076 0.462 -0.798 0.386 24 25 41
-4086.3711 3049.7734 1704.5017 0.076 -0.955 0.286 19 19 35
-4081.3511 3057.3035 1700.1874 0.521 -0.755 0.397 14 12 26
-3294.2642 2616.5947 1360.2532 -0.318 -0.861 0.397 68 37 23
-3223.2576 2587.4084 1327.3921 0.511 -0.101 -0.854 101 54 37
-3223.6511 2597.2783 1325.5592 0.495 -0.158 -0.855 114 62 47
-3225.1274 2608.0759 1324.1273 0.505 -0.167 -0.847 122 66 53
-3088.2698 2569.3611 1257.1506 0.555 -0.604 0.572 137 60 42
-2846.9124 2580.5378 1122.5422 0.498 -0.862 0.099 186 178 189
-2845.4824 2588.6023 1120.0847 0.512 -0.853 0.102 197 183 194
-2859.8201 2707.8674 1103.1895 0.864 -0.479 -0.155 132 144 144
-2944.8284 2841.1003 1122.1298 0.704 -0.636 0.317 193 163 158
-2998.5100 2915.0010 1136.2146 0.773 -0.531 -0.346 200 159 134
-2997.2407 2924.2869 1133.5916 0.777 -0.523 -0.351 198 159 132
-2812.8979 3109.4875 994.1139 0.653 -0.757 -0.036 142 95 65
-2529.6858 3307.3250 797.8228 0.179 -0.974 0.140 202 161 149
-2392.7788 3170.5120 751.1796 0.576 -0.740 0.348 175 137 128
-2392.0334 3181.0811 748.5775 0.973 0.229 0.007 169 133 121
-2335.5156 3161.4946 721.6651 0.726 -0.276 -0.630 130 94 82
-2316.8958 3170.3340 709.6248 -0.082 -0.986 0.147 124 83 68
-2237.2305 3173.2593 665.3529 0.240 -0.732 -0.637 190 156 146
-2221.8230 3162.5330 659.1343 0.523 -0.285 -0.803 200 166 156
-2989.5598 5522.6284 590.0886 -0.619 -0.294 -0.729 160 147 142
-1959.7192 5170.8501 98.6427 -0.019 -0.108 -0.994 42 29 20
-2040.1926 5434.4468 88.0402 -0.261 -0.209 -0.942 48 35 26
-2011.6034 5404.2383 78.6402 -0.410 -0.311 -0.857 49 36 27
-1936.5635 5268.3940 65.7055 0.666 -0.715 -0.212 98 83 80
-1894.0745 5290.1895 37.8934 0.779 -0.594 0.203 161 146 143
-1905.9976 5372.1167 27.4243 0.508 -0.675 0.535 165 148 147
-1867.9539 5286.6733 24.3064 0.939 -0.184 -0.291 166 149 148
-1891.3647 5427.2661 7.9576 -0.234 -0.149 -0.961 183 164 163
-1897.8066 5470.8613 2.4401 -0.308 -0.174 -0.935 199 181 180
-1864.6146 5422.5845 -5.7325 -0.411 -0.264 -0.873 237 221 224
-1656.2076 4939.6299 -19.7224 0.956 -0.024 0.294 249 235 240
-1649.1641 5621.6064 -165.1291 -0.047 -0.540 -0.841 240 245 248
-4341.8701 2648.5271 1916.4558 -0.285 -0.324 -0.902 122 122 111
-3230.4067 2589.0569 1321.5525 0.354 -0.194 -0.915 94 45 25
-3210.6208 2582.3308 1312.1472 0.314 -0.007 -0.949 116 63 44
-3226.2078 2604.7122 1315.9846 0.502 -0.174 -0.847 130 73 57
-2835.9424 2565.9556 1110.8352 -0.441 -0.824 0.357 187 177 182
-2851.6533 2589.8921 1114.4152 0.038 -0.976 0.214 200 184 189
-2839.7742 2588.2327 1108.2710 0.678 -0.680 -0.280 202 182 187
-2841.2927 2627.5007 1100.8901 0.350 -0.934 0.070 151 124 124
-3050.7778 2950.9773 1147.7230 0.703 -0.212 -0.679 208 174 168
-2529.2107 3287.9658 792.2608 -0.126 -0.992 -0.009 204 159 140
-2394.2651 3165.9880 744.0270 0.576 -0.740 0.348 166 129 117
-2388.8081 3170.1418 740.1765 0.974 0.224 0.009 116 82 70
-2247.2654 3180.9883 660.5653 0.243 -0.699 -0.673 189 155 145
-2228.6389 3165.6494 653.5945 0.523 -0.285 -0.803 201 167 157
-2983.3975 5561.3745 565.0911 -0.610 -0.282 -0.740 164 142 138
-2740.1355 6540.4731 227.4436 0.030 -0.443 -0.896 88 60 43
-2430.4026 6014.8159 168.1066 0.973 0.048 0.224 61 47 36
-2050.3513 5444.6792 79.6456 0.879 -0.077 -0.470 51 39 27
-2009.6174 5381.6001 70.5768 0.188 -0.500 -0.845 70 57 48
-1951.4324 5269.1943 62.2858 0.178 -0.853 -0.490 125 110 105
-1896.3314 5279.2412 30.0762 0.782 -0.588 0.209 198 182 182
-1957.2798 5601.0972 -3.9172 -0.242 -0.156 -0.958 233 218 218
-1689.1022 5738.5435 -179.1968 0.191 -0.471 -0.861 245 243 250
-4225.7256 2908.0137 1787.1843 0.848 -0.035 -0.529 140 131 120
-3288.8860 2603.7812 1340.9092 -0.382 -0.878 0.289 83 29 10
-3245.4019 2597.1189 1318.6239 0.338 -0.173 -0.925 115 59 32
-3225.7993 2590.5923 1309.3198 0.404 -0.044 -0.914 131 74 48
-3217.2354 2593.0752 1304.1316 0.457 -0.120 -0.882 142 85 60
-2982.6497 2629.4819 1168.6697 0.988 -0.005 -0.158 49 47 42
-2840.3506 2565.6382 1104.5979 -0.442 -0.824 0.355 199 180 170
-2821.4202 2557.4038 1096.0197 -0.458 -0.870 0.184 205 182 169
-2835.5173 2579.8252 1098.9767 0.345 -0.891 -0.294 196 170 154
-2780.5806 2641.0063 1056.1627 0.969 -0.145 0.201 184 158 147
-2954.1426 2840.2673 1108.7429 0.660 -0.660 -0.357 205 177 166
-3022.2683 2917.6868 1129.5483 0.449 -0.721 -0.528 206 176 167
-3011.0210 2917.1057 1123.5436 0.801 -0.592 0.094 200 176 168
-2873.6130 3143.4053 1001.0238 -0.149 -0.416 -0.897 158 89 59
-2845.1558 3168.1140 980.3170 0.946 -0.080 -0.315 177 82 53
-2687.2859 3427.9229 839.5923 0.372 -0.728 0.576 193 112 59
-2407.2651 3177.0046 739.8979 -0.669 -0.738 -0.088 170 133 119
-2386.3550 3160.2922 732.0270 -0.474 -0.881 0.002 130 98 88
-2386.3516 3171.8113 729.5989 0.977 0.134 -0.165 87 56 46
-2253.6912 3183.4734 654.8740 0.254 -0.700 -0.667 187 154 145
-2236.3486 3170.0474 648.2545 0.529 -0.266 -0.806 201 168 159
-2860.7095 4869.6182 630.4050 -0.178 -0.983 -0.043 189 156 151
-2774.0498 5253.3003 502.3816 -0.621 -0.378 -0.686 156 127 122
-2722.9312 5338.9751 456.4886 0.350 -0.068 -0.934 137 105 98
-2178.9524 5601.2285 104.9113 -0.066 -0.661 -0.748 27 16 10
-2054.2883 5438.0903 71.3605 0.828 -0.509 -0.234 53 40 31
-1977.8679 5301.4453 58.5109 0.142 -0.544 -0.827 97 82 74
-2001.8624 5560.2461 17.0713 0.405 -0.586 0.702 219 205 204
-1856.8716 5243.5322 4.7947 0.953 0.148 -0.264 223 212 213
-1974.1672 5631.4619 -13.0161 -0.452 -0.307 -0.837 230 218 220
-1963.1221 5624.7412 -17.6176 -0.475 -0.316 -0.821 237 225 227
-1915.3599 5535.4004 -24.8188 -0.498 -0.373 -0.783 245 235 238
-4513.9551 3047.3264 1902.6344 -0.377 -0.173 -0.910 139 130 118
-4506.2310 3053.5493 1897.1193 -0.388 -0.421 -0.820 138 130 119
-4452.7627 3028.0876 1873.4827 -0.046 -0.320 -0.946 139 129 119
-4294.3691 2940.5347 1806.0352 0.819 -0.184 -0.543 142 129 114
-4248.9028 2919.8115 1785.7393 0.241 -0.267 -0.933 146 131 117
-4208.1523 2946.2134 1758.0063 -0.163 -0.780 0.604 87 97 102
-3273.1572 2605.9780 1322.3982 0.354 -0.923 -0.150 124 69 40
-3257.3403 2621.8523 1310.4402 0.570 -0.816 -0.096 146 89 60
-3230.3623 2628.4319 1294.3926 -0.061 -0.792 0.608 163 102 73
-2842.3179 2563.0688 1097.5144 -0.440 -0.824 0.358 197 177 164
-2858.9062 2587.7446 1101.2882 0.058 -0.976 0.211 198 173 157
-2840.4031 2579.9438 1092.8942 0.345 -0.891 -0.294 183 156 137
-2842.5891 2619.6594 1085.6553 0.324 -0.942 0.082 126 93 78
-2831.2578 2618.4370 1079.7607 0.809 -0.588 -0.032 120 87 72
-2827.2551 2624.1284 1076.3793 0.809 -0.588 -0.032 119 86 71
-2823.2502 2629.8225 1072.9962 0.809 -0.588 -0.032 119 86 71
-2779.7075 2635.5454 1048.1340 0.959 -0.171 0.224 164 135 121
-2774.7412 2640.2493 1044.4390 0.964 -0.163 0.210 195 166 152
-2934.4614 2929.8474 1069.7407 0.873 -0.153 -0.464 14 16 4
-2986.2498 3004.1890 1082.0944 0.240 -0.784 -0.573 12 16 5
-2975.0271 3003.4512 1076.1559 0.297 -0.820 -0.489 13 17 6
-2885.6982 3139.7170 998.7313 0.943 -0.225 -0.247 153 91 60
-2872.8608 3148.0085 990.0001 0.966 -0.157 -0.206 161 87 58
-2851.9180 3135.8433 981.2072 0.824 -0.564 0.047 167 84 57
-2845.5454 3139.9573 976.8733 0.895 -0.446 -0.011 171 82 57
-2831.6990 3135.6165 970.2744 0.908 -0.418 -0.036 174 81 56
-2816.4639 3140.9001 960.8792 0.898 -0.095 0.429 178 92 49
-2772.0828 3101.5254 945.1298 0.845 -0.124 0.520 177 93 46
-2568.7961 3314.8877 789.4581 -0.125 -0.705 -0.698 194 128 87
-2553.6973 3306.9688 782.9379 -0.085 -0.336 -0.938 198 137 101
-2428.3230 3198.8179 737.7931 -0.664 -0.744 -0.074 171 134 119
-2391.2449 3160.3970 725.8076 -0.494 -0.869 0.021 136 107 95
-2374.0244 3148.5720 718.9639 0.614 -0.714 0.337 87 60 48
-2345.0591 3120.6523 709.1564 0.745 0.171 -0.644 46 19 7
-2261.0068 3187.2302 649.3826 0.262 -0.693 -0.672 187 154 145
-2246.0525 3177.3101 643.3657 0.525 -0.220 -0.822 201 168 159
-3024.4021 5140.4751 649.5757 -0.191 -0.817 -0.544 182 149 144
-2707.4617 5253.3604 453.4964 0.707 0.241 -0.665 152 121 113
-2502.5464 6030.7842 177.2676 -0.509 -0.678 -0.531 96 61 45
-2089.6609 5491.9956 67.3412 0.857 -0.471 0.210 52 38 27
-2059.4553 5434.8438 63.0620 0.689 -0.658 -0.304 59 45 34
-2036.2863 5396.1123 58.6963 0.721 -0.654 -0.227 77 63 52
-1933.6899 5187.1279 47.3152 -0.117 -0.991 -0.061 149 131 127
-2014.8494 5529.4214 18.7709 0.702 -0.331 0.631 233 215 215
-1856.1184 5224.0674 -2.6509 0.974 0.132 -0.183 228 216 218
-1894.3903 5357.8066 -10.2399 0.957 -0.289 -0.014 225 213 215
-1765.9210 5959.2842 -207.6219 0.087 -0.964 0.250 247 242 246
-4334.6587 2757.3955 1855.3115 0.931 -0.338 0.141 150 154 142
-4192.6421 2908.7053 1746.0852 -0.195 -0.821 0.536 126 125 120
-3447.5054 2654.0010 1397.0712 0.491 -0.430 0.757 72 54 29
-3293.5847 2608.7554 1323.4017 -0.278 -0.894 0.351 127 71 49
-3276.2590 2604.2852 1314.9763 0.152 -0.982 -0.111 127 70 45
-3259.1780 2609.5085 1304.6118 0.437 -0.325 -0.839 130 70 44
-3258.1372 2618.2495 1302.1804 0.460 -0.877 -0.137 133 72 47
-3257.2402 2627.1326 1299.7966 0.201 -0.956 0.213 140 79 53
-2986.8523 2624.3870 1153.9858 0.946 -0.108 -0.307 48 48 44
-2860.1487 2584.4717 1093.9139 0.106 -0.929 0.355 169 145 128
-2860.8545 2594.5054 1092.1520 0.628 -0.444 -0.640 149 122 103
-2819.6289 2631.3196 1061.9640 0.031 -0.945 0.325 112 80 65
-2786.1636 2627.6953 1044.6191 0.901 -0.342 0.265 164 132 119
-2956.9075 2947.4707 1068.7319 0.951 -0.255 -0.173 13 17 1
-2966.5020 2967.8887 1069.5637 0.291 -0.881 0.372 11 18 1
-2958.8604 2970.7458 1064.8157 0.287 -0.886 0.364 11 18 1
-2865.1143 2895.4084 1030.1573 0.322 -0.911 0.259 11 18 1
-2871.9526 2997.8777 1011.9630 0.207 -0.385 -0.899 18 17 3
-2901.7947 3084.5686 1009.5951 0.921 -0.168 -0.350 104 71 59
-2847.6631 3125.2317 971.5970 0.835 -0.551 -0.001 160 87 62
-2777.2991 3090.5156 940.9180 0.645 -0.443 0.623 178 93 51
-2576.0461 3317.7087 783.4033 -0.112 -0.727 -0.678 188 118 72
-2417.4644 3177.6875 727.4632 -0.561 -0.827 -0.021 146 106 86
-2270.4783 3194.0698 644.3790 0.257 -0.689 -0.678 187 154 145
