ply
format ascii 1.0
element vertex 781
property float x
property float y
property float z
property float nx
property float ny
property float nz
property uchar diffuse_red
property uchar diffuse_green
property uchar diffuse_blue
end_header
-2969.5649 2643.1040 1399.6393 0.426 -0.898 0.110 39 26 25
-2957.6641 2640.2080 1391.9572 0.448 -0.881 -0.149 54 25 19
-3005.4541 2712.7402 1406.5189 0.825 -0.156 0.543 112 38 40
-2867.5137 2646.5310 1326.2056 0.608 -0.414 0.678 177 81 83
-2861.5247 2649.2148 1321.2321 0.588 -0.452 0.671 161 83 88
-2872.5095 2695.3650 1316.6958 0.039 -0.524 0.851 221 199 188
-2850.7185 2682.0520 1304.7715 0.104 -0.496 0.862 222 213 191
-2831.7227 2671.4907 1294.0975 0.270 -0.486 0.831 214 208 190
-2821.9529 2679.1021 1285.1198 0.380 -0.437 0.816 214 217 211
-2819.1279 2685.0339 1281.5258 0.341 -0.442 0.830 186 196 194
-3247.3594 3579.6699 1346.5696 -0.136 -0.645 0.752 196 167 138
-3187.8403 3533.6455 1316.5840 -0.105 -0.650 0.753 203 176 172
-2982.7344 3314.3604 1229.4807 0.776 -0.354 0.521 191 164 168
-2955.8115 3293.5627 1215.9114 0.863 -0.221 0.454 193 166 168
-3027.5598 3390.3113 1241.0216 0.585 -0.594 0.552 200 172 175
-3009.9888 3380.7646 1231.0889 0.702 -0.512 0.495 194 168 171
-2929.6016 3306.9214 1193.7142 0.565 -0.565 0.602 188 158 150
-3930.4517 4777.9541 1511.5106 0.446 -0.188 -0.875 187 161 138
-3353.1108 4287.4199 1232.4398 0.086 -0.873 0.480 180 163 154
-3330.1414 4271.3525 1220.4148 0.760 -0.327 -0.561 186 165 159
-3315.1780 4325.9746 1195.1741 0.382 -0.921 0.081 208 88 102
-3307.8003 4330.9863 1188.5913 0.380 -0.922 0.070 228 112 123
-3246.5488 5530.0879 824.3856 0.748 -0.161 0.644 144 113 105
-3233.0532 5570.4478 804.0021 0.737 -0.168 0.655 191 160 152
-2923.1550 5472.2363 610.0546 0.551 -0.614 0.566 23 20 10
-2873.4707 5463.4336 577.1034 0.712 -0.552 0.434 23 20 10
-2817.4912 5486.0215 531.2838 0.532 -0.621 0.576 16 11 2
-2528.9348 6126.7427 154.8860 0.003 -0.945 0.327 113 79 61
-2302.0376 5852.3975 67.0230 0.634 -0.753 -0.176 51 26 16
-2340.2100 5981.9556 59.4998 0.958 -0.197 0.208 60 34 25
-1966.1575 5264.9155 -14.5397 -0.014 -0.864 -0.504 241 221 217
-1962.3173 5280.4551 -21.4244 0.055 -0.857 -0.512 243 222 220
-1897.5861 5364.0137 -89.7685 0.230 -0.833 -0.503 237 228 233
-1890.2977 5370.1431 -96.5868 0.230 -0.833 -0.503 241 232 237
-1868.7478 5389.5562 -117.0919 0.163 -0.384 -0.909 252 243 248
-4966.5303 3448.9810 2589.1208 -0.107 -0.901 -0.421 179 184 178
-4970.8794 3538.1567 2568.1726 0.120 -0.717 -0.687 196 201 197
-4540.5854 3450.2839 2286.6514 -0.095 -0.892 0.443 196 198 193
-4499.1411 3427.4263 2263.4153 0.096 -0.981 0.171 198 200 195
-4465.6836 3410.8972 2244.1389 0.215 -0.934 -0.284 198 200 195
-4666.4048 3675.1287 2315.2979 0.779 -0.158 -0.606 16 18 15
-4509.9814 3772.7183 2178.0481 0.065 -0.714 0.697 23 24 19
-4468.9014 3748.0762 2155.5515 -0.150 -0.744 0.651 23 24 19
-4726.8579 4027.0122 2263.3440 0.078 -0.672 0.736 16 17 12
-4730.2607 4042.6829 2261.5344 -0.053 -0.664 0.746 11 13 8
-3387.8330 2916.0771 1612.9844 0.997 -0.012 -0.076 52 52 50
-3086.9556 2724.2383 1451.2756 -0.036 -0.593 0.805 21 13 10
-2998.8420 2648.8042 1409.1072 0.931 -0.323 0.171 30 22 19
-2977.7935 2637.2219 1397.2991 0.459 -0.884 0.083 30 20 19
-2979.3491 2647.2957 1395.6875 0.816 -0.363 0.450 36 17 15
-2976.2488 2652.9170 1391.9735 0.811 -0.365 0.457 78 24 19
-2998.5737 2700.6565 1394.9427 0.828 -0.154 0.539 183 52 61
-2885.1609 2641.4666 1330.4517 0.139 -0.599 0.789 195 58 69
-2834.2380 2625.1570 1298.7281 0.691 -0.439 0.575 169 136 135
-2815.2095 2631.8572 1283.4257 0.659 -0.455 0.600 208 184 176
-2825.2710 2650.7429 1285.4724 0.210 -0.518 0.829 207 199 179
-2816.7788 2650.8169 1279.4291 0.281 -0.483 0.829 213 208 190
-2925.0906 2929.8738 1281.0479 -0.688 -0.690 -0.225 184 125 89
-3289.1831 3584.6692 1362.8276 0.222 -0.516 0.827 178 144 118
-2972.4773 3272.8135 1222.2366 0.745 -0.277 0.607 188 160 157
-3020.2598 3374.1653 1228.8138 -0.100 -0.640 0.762 187 161 164
-2898.4622 3273.2615 1169.6176 -0.032 -0.617 0.786 186 160 147
-3220.2354 3686.0222 1286.6091 0.453 -0.563 0.692 188 162 141
-3198.4812 3672.0229 1274.9519 0.314 -0.584 0.749 185 158 141
-3181.3118 3663.5054 1265.0692 0.307 -0.590 0.747 182 154 138
-2920.9866 3426.5264 1144.2892 0.998 0.063 -0.018 184 158 138
-3445.6958 4311.3330 1278.0048 0.407 -0.687 -0.601 177 163 137
-3476.9133 4367.4258 1285.0300 0.266 -0.610 -0.746 181 165 141
-3430.8362 4336.4351 1260.7000 -0.341 -0.721 0.603 187 178 151
-3336.4971 4255.0840 1215.7103 0.549 -0.580 -0.602 216 200 193
-3313.1738 4328.0776 1179.4956 0.380 -0.922 0.070 228 111 124
-2283.3296 3249.0273 739.8416 0.153 -0.250 -0.956 207 170 154
-3214.0759 5415.3906 816.1758 0.777 -0.118 0.618 181 148 143
-2932.2922 5451.6113 606.5481 0.735 -0.572 0.366 45 36 27
-2928.9871 5467.2192 599.9974 0.483 -0.711 0.511 45 37 27
-2894.2141 5465.6182 575.7648 0.527 -0.690 0.496 27 19 10
-2677.5645 5522.5815 406.7458 0.935 0.009 -0.354 175 131 122
-2668.7395 5574.5430 386.4828 0.821 -0.518 -0.239 168 124 115
-2320.6033 5907.5356 49.8119 0.952 -0.226 0.205 76 49 40
-1978.1438 5199.8442 -2.3684 0.424 -0.336 -0.841 170 145 141
-1970.0845 5281.3247 -30.0438 0.055 -0.854 -0.517 234 213 211
-1904.8373 5363.2905 -98.4126 0.225 -0.825 -0.518 241 232 237
-1889.2598 5372.5762 -111.9641 0.279 -0.508 -0.815 243 234 239
-1962.7697 5738.1880 -158.3567 0.898 -0.074 -0.434 234 223 229
-5044.0093 3384.0596 2647.5864 0.376 -0.624 -0.685 172 175 166
-5042.1943 3393.1597 2643.8301 0.584 -0.572 -0.576 178 181 174
-5044.6753 3405.3691 2642.2710 0.621 -0.562 -0.547 184 187 180
-4463.3955 3402.9868 2231.3809 0.204 -0.855 -0.477 198 200 195
-4608.6113 3913.5361 2195.5447 0.335 -0.517 0.788 15 16 11
-3089.7837 2712.8152 1446.3097 -0.163 -0.663 0.731 25 17 14
-2999.1785 2643.9192 1400.8722 0.933 -0.319 0.166 24 16 13
-2979.0884 2641.8250 1387.2175 0.861 -0.168 0.480 28 15 10
-2977.3511 2648.7395 1384.1099 0.803 -0.250 0.541 101 36 30
-2983.8940 2663.6746 1384.6863 0.844 -0.167 0.509 182 59 54
-2884.9053 2635.9160 1322.1418 0.098 -0.587 0.804 184 54 67
-2844.3843 2612.8516 1299.7172 0.379 -0.520 0.766 128 88 81
-2835.5107 2612.5564 1293.5149 0.580 -0.402 0.709 162 156 142
-2831.2881 2616.8984 1289.3462 0.655 -0.452 0.605 176 173 167
-2820.1387 2622.8757 1279.8295 0.657 -0.458 0.599 173 136 146
-3135.7163 3255.8745 1331.3545 0.061 -0.758 0.650 69 52 40
-2936.6924 3267.4824 1187.2964 0.860 -0.234 0.455 168 148 149
-2934.8850 3276.3892 1183.5980 0.078 -0.598 0.798 175 155 157
-2905.2786 3263.1270 1166.2385 0.414 -0.561 0.717 183 164 159
-2874.9211 3248.6909 1148.6664 0.534 -0.626 0.568 184 162 149
-2857.6897 3238.8813 1139.1306 0.947 -0.268 0.178 185 162 146
-2944.9348 3390.3040 1159.7780 0.414 -0.481 0.773 187 153 131
-3078.4507 3819.2427 1137.8212 -0.187 -0.680 -0.708 178 163 142
-3071.7310 3823.6360 1131.8707 -0.196 -0.681 -0.706 181 164 145
-3333.4951 4255.8511 1199.8220 0.579 -0.346 -0.738 240 224 219
-3337.0012 4290.2607 1192.9600 0.628 -0.383 -0.678 208 199 192
-3318.5410 4325.1714 1170.4100 0.380 -0.922 0.070 232 108 127
-3316.6111 4337.6577 1165.6528 0.475 -0.725 -0.499 255 178 180
-2304.9692 3167.1821 767.2838 -0.169 -0.811 -0.560 203 170 163
-3247.3967 5396.4468 829.1220 0.698 -0.243 0.674 197 164 159
-3074.0408 5400.8638 705.1893 -0.333 -0.771 0.543 194 161 154
-3025.5762 5482.5459 648.6951 0.893 -0.447 -0.046 161 132 128
-2965.7051 5455.9707 613.5242 0.454 -0.657 0.603 129 103 98
-2932.3357 5457.4131 589.5075 0.483 -0.711 0.511 107 95 87
-2681.2637 5512.7935 396.7132 0.935 0.009 -0.354 179 135 126
-2698.9580 5574.3218 392.5316 0.850 -0.133 -0.511 175 131 122
-2753.5193 5814.5352 365.9270 0.649 -0.093 -0.755 169 122 106
-2830.5198 6035.2593 360.5017 0.609 -0.759 0.230 169 122 106
-2309.0259 5826.9565 47.8594 0.839 -0.544 -0.031 85 58 49
-2305.5408 5845.6362 40.3193 0.786 -0.579 0.219 102 75 66
-1998.8533 5236.3442 -11.3496 0.235 -0.682 -0.692 167 142 138
-1994.7067 5250.7461 -18.1964 0.183 -0.714 -0.676 114 89 85
-1977.8903 5256.1572 -31.5715 -0.279 -0.734 -0.619 244 221 219
-1955.7347 5299.2197 -58.9515 -0.375 -0.912 -0.168 207 186 191
-1742.0120 5498.5957 -264.4071 0.476 -0.769 0.426 244 233 239
-1158.3519 3721.2061 -194.9561 0.976 0.201 0.084 255 250 251
-5054.2856 3385.7395 2640.4204 0.376 -0.624 -0.685 166 169 162
-5052.2212 3394.6611 2636.5208 0.393 -0.650 -0.650 171 174 167
-5059.1670 3410.0647 2637.2141 0.472 -0.623 -0.624 178 181 174
-5062.9175 3423.2322 2636.2617 0.739 -0.483 -0.469 180 183 176
-3012.1509 2651.0911 1398.2996 0.910 -0.258 0.325 24 16 13
-2979.2092 2628.2058 1381.2822 0.840 -0.183 0.511 22 14 11
-2975.2251 2632.9199 1377.1769 0.861 -0.168 0.480 38 21 18
-2982.9485 2648.8977 1378.2629 0.844 -0.167 0.509 119 46 40
-2979.5667 2654.2424 1374.4106 0.844 -0.167 0.509 196 63 57
-2976.1804 2659.5945 1370.5532 0.844 -0.167 0.509 204 58 52
-2890.3735 2627.4543 1318.7094 0.051 -0.626 0.778 206 63 73
-2839.7500 2594.4954 1291.9529 -0.085 -0.996 -0.020 101 35 40
-2825.9441 2589.2710 1283.6261 -0.288 -0.957 0.032 101 84 76
-2810.9729 2599.8108 1270.1624 0.246 -0.911 0.330 145 145 150
-2794.6877 2591.9646 1260.8009 0.428 -0.658 -0.620 165 148 157
-2791.6250 2597.3921 1257.1512 0.428 -0.658 -0.620 153 148 152
-2785.9202 2600.1589 1252.3628 0.501 -0.688 -0.525 165 173 174
-2791.2808 2614.1560 1252.3210 0.856 -0.454 -0.247 187 201 202
-2787.9758 2619.3945 1248.5521 0.482 -0.872 -0.081 194 212 216
-2789.3545 2629.4285 1246.7809 0.288 -0.893 -0.346 185 211 218
-2753.4221 2679.7100 1207.6300 0.649 -0.723 0.235 4 89 142
-3167.7373 3252.0564 1343.8110 0.661 -0.429 0.616 55 45 28
-3156.0381 3260.7004 1333.1783 0.497 -0.539 0.680 49 42 26
-3117.2700 3228.6042 1314.5638 -0.080 -0.748 0.659 58 48 34
-3080.6365 3209.2756 1293.9644 -0.035 -0.737 0.675 60 44 31
-2994.0371 3196.9478 1236.1394 0.221 -0.601 0.768 151 116 104
-2960.4121 3190.4377 1214.1587 0.857 -0.221 0.466 107 63 54
-2897.2319 3246.2893 1154.2281 0.443 -0.540 0.715 150 138 136
-2884.7356 3242.2969 1146.4895 0.440 -0.540 0.717 150 137 132
-2865.6497 3230.3181 1136.2797 0.455 -0.548 0.702 145 128 120
-2854.2004 3227.4661 1128.9691 0.932 -0.292 0.214 150 130 117
-2853.6870 3237.8281 1125.7710 0.932 -0.287 0.222 160 133 116
-2850.4854 3244.9631 1121.5560 0.932 -0.287 0.222 170 137 116
-2821.3120 3220.4353 1107.6512 0.228 -0.516 0.826 176 138 112
-3087.2478 3835.1560 1127.3809 -0.199 -0.686 -0.700 192 175 161
-3609.9932 4537.7432 1304.5505 -0.586 -0.681 0.439 207 189 175
-3500.2705 4408.2065 1262.4559 -0.613 -0.686 0.393 217 203 189
-3364.9509 4273.2490 1203.7557 -0.205 -0.897 -0.391 231 217 209
-3339.8958 4254.4819 1191.1848 0.611 -0.369 -0.700 228 214 206
-3341.7444 4286.5923 1183.7050 0.619 -0.380 -0.687 209 196 188
-3337.9954 4311.4009 1174.2675 0.285 -0.957 -0.050 180 87 104
-3330.4680 4316.1772 1167.6411 0.337 -0.941 -0.003 199 71 92
-3320.4797 4332.6812 1156.0667 0.430 -0.756 -0.493 255 167 175
-2293.4978 3165.3848 749.7180 -0.191 -0.821 -0.539 208 172 159
-2315.3284 3256.7366 740.1491 0.642 -0.292 -0.709 201 164 148
-3153.1543 5258.9053 784.3840 0.700 -0.683 0.207 189 156 151
-3176.5125 5381.4790 767.3516 0.749 -0.148 0.646 170 140 132
-3164.1106 5549.8994 712.5038 -0.015 -0.828 0.561 198 165 158
-2954.5872 5228.5747 652.3595 0.098 -0.259 -0.961 193 160 153
-2880.8491 5428.6426 545.5068 0.532 -0.700 0.477 157 138 132
-2836.5032 5429.2651 513.9981 0.295 -0.785 -0.545 152 130 125
-2645.1416 5606.4487 330.2848 0.846 -0.458 -0.274 172 125 109
-2511.6243 5357.9756 303.9188 0.803 -0.584 0.121 166 119 103
-2412.3765 5717.9575 135.2825 0.137 -0.880 -0.455 134 91 72
-2402.7053 5720.3345 127.7977 0.249 -0.844 -0.474 132 91 71
-2288.1658 5778.1040 31.0478 0.419 -0.512 0.750 125 98 89
-2004.4730 5180.5806 -5.9361 0.419 -0.422 -0.804 188 163 159
-2006.8224 5263.5591 -26.9806 -0.278 -0.729 -0.626 143 118 114
-1909.1624 5387.0439 -129.7836 0.220 -0.524 -0.823 200 191 196
-1904.4583 5400.8945 -136.8977 0.173 -0.540 -0.824 240 231 236
-5065.4067 3388.0146 2633.6707 0.491 -0.613 -0.619 166 169 160
-5061.7114 3395.7729 2628.9250 0.491 -0.613 -0.619 171 174 167
-5066.4106 3409.5571 2628.4399 0.700 -0.506 -0.504 178 181 174
-3911.8252 2740.9182 1998.3506 0.738 -0.073 -0.671 183 189 185
-3351.3130 2820.3611 1581.0758 0.192 -0.875 0.443 4 6 3
-3301.8176 2784.3604 1556.0875 0.078 -0.360 -0.930 8 10 7
-3012.5632 2646.2900 1390.1169 0.915 -0.268 0.301 25 17 14
-2886.8062 2601.6960 1313.7042 -0.183 -0.982 0.052 202 45 53
-2871.8589 2604.0078 1302.5234 -0.297 -0.940 0.168 180 58 66
-2851.2507 2592.1929 1291.2440 -0.146 -0.987 0.061 128 45 54
-2844.3267 2593.8201 1285.9113 -0.086 -0.996 -0.010 83 38 44
-2831.9001 2589.9788 1278.2048 -0.243 -0.965 0.101 91 84 80
-2821.2561 2587.8677 1271.2788 -0.216 -0.976 0.023 70 96 85
-2816.3413 2591.4419 1266.8265 0.239 -0.907 0.347 39 72 65
-2807.3997 2590.9866 1260.6448 0.236 -0.902 0.361 81 102 106
-2800.4717 2592.5308 1255.3324 0.510 -0.774 -0.375 123 136 145
-2797.8120 2598.3628 1251.8484 0.428 -0.658 -0.620 135 158 170
-2796.2451 2613.8762 1246.4664 0.880 -0.424 -0.213 144 179 199
-2794.3784 2620.5728 1243.3036 0.467 -0.880 -0.082 124 163 186
-2793.3223 2628.1165 1240.4790 0.302 -0.921 -0.247 75 122 150
-2789.2654 2632.6172 1236.3765 0.332 -0.941 -0.067 52 110 142
-2783.2312 2635.0974 1231.4364 0.332 -0.941 -0.067 44 106 141
-2807.3813 2712.9216 1227.0167 0.843 -0.471 -0.262 0 96 153
-3066.2129 3052.6301 1315.9396 -0.611 -0.779 0.143 51 40 31
-3119.1465 3192.0942 1314.8303 0.030 -0.924 0.381 52 50 30
-3093.9751 3185.5352 1298.8829 0.385 -0.871 0.305 47 47 31
-3086.8081 3188.1729 1293.1005 0.120 -0.933 0.339 55 53 35
-3073.0349 3183.4856 1284.6774 0.012 -0.979 0.204 66 56 39
-3049.1665 3167.5281 1272.2402 -0.090 -0.994 0.065 99 85 69
-3038.4412 3166.0962 1265.0696 -0.083 -0.994 0.074 145 127 113
-2957.5627 3180.2778 1204.1100 0.857 -0.221 0.466 36 4 0
-2889.2947 3229.6504 1142.3439 0.458 -0.538 0.707 28 25 23
-2876.7227 3225.5317 1134.6113 0.442 -0.550 0.708 36 30 28
-2858.9009 3215.0525 1124.9291 0.468 -0.527 0.710 60 49 46
-2837.8921 3211.5244 1111.0826 0.524 -0.485 0.700 129 103 88
-2831.5623 3214.7732 1105.7220 0.231 -0.514 0.826 127 91 67
-2797.7175 3195.3877 1087.1927 0.391 -0.474 0.789 149 101 67
-2912.2969 3427.5698 1104.0063 0.869 -0.262 0.419 207 163 130
-2942.1956 3500.8127 1104.9045 0.956 -0.291 -0.032 191 163 141
-2935.9661 3504.9341 1099.3743 0.932 -0.362 0.018 190 162 140
-2934.4922 3515.1123 1095.5286 0.931 -0.364 0.015 191 163 139
-2908.1250 3505.5708 1079.5602 0.950 -0.295 -0.101 193 165 141
-2911.7686 3522.3535 1077.5035 0.952 -0.287 -0.107 193 165 145
-3060.7761 3765.4702 1115.5876 -0.642 -0.498 -0.583 193 178 173
-3105.0322 3836.3340 1127.2690 -0.236 -0.674 -0.700 201 184 179
-3423.0776 4281.3726 1228.9227 0.301 -0.693 -0.655 222 203 198
-3437.6138 4330.2012 1225.7151 -0.627 -0.683 0.374 226 222 210
-3368.3821 4267.8765 1194.0621 0.401 -0.662 -0.634 228 217 207
-3343.8853 4309.2456 1165.3779 0.271 -0.961 -0.049 181 88 105
-3327.2698 4331.7246 1147.4606 0.437 -0.750 -0.497 255 130 147
-2373.2100 3192.8254 788.4603 -0.375 -0.926 -0.038 204 174 166
-3152.9526 5244.0723 772.9832 0.732 -0.645 0.218 198 165 160
-2887.1074 5402.7324 541.7217 0.496 -0.659 0.565 180 153 150
-2870.8884 5392.8555 533.0040 0.456 -0.746 0.486 180 153 150
-2404.3223 5730.2119 110.8948 -0.004 -0.913 0.409 133 92 75
-2016.5865 5269.8530 -35.6934 -0.193 -0.706 -0.681 200 175 171
-2008.7832 5274.3374 -42.4340 -0.173 -0.707 -0.686 116 90 89
-1923.3450 5379.0430 -131.5658 0.225 -0.825 -0.518 233 224 229
-1919.5011 5395.3247 -138.7658 0.226 -0.529 -0.818 237 228 233
-1915.4812 5411.2007 -145.9780 0.173 -0.540 -0.824 246 237 242
-5092.3887 3391.1541 2637.8269 0.461 -0.887 -0.006 175 178 169
-5073.0029 3387.7764 2625.1162 0.704 -0.481 -0.523 166 169 160
-3945.4802 2770.1897 2002.7776 0.896 -0.443 0.023 184 189 185
-3312.1650 2788.4573 1551.7998 0.421 -0.413 -0.808 8 10 7
-3304.5222 2790.4131 1545.8754 0.408 -0.412 -0.815 32 34 33
-2997.8132 2627.1106 1375.2831 0.871 -0.491 -0.026 25 17 14
-2894.5950 2612.6072 1306.6375 -0.431 -0.889 0.153 142 30 39
-2850.3494 2594.5737 1280.4935 -0.137 -0.988 0.067 75 41 47
-2838.7112 2591.5293 1273.1449 -0.229 -0.968 0.102 90 80 84
-2828.8643 2590.2253 1266.5740 -0.242 -0.970 0.009 77 93 93
-2818.0510 2587.9312 1259.5979 -0.008 -0.955 0.296 27 59 60
-2807.2881 2585.6533 1252.6526 0.200 -0.906 0.372 21 57 62
-2805.8879 2592.7253 1249.7026 0.508 -0.807 -0.303 24 65 74
-2806.6492 2601.9932 1247.6646 0.432 -0.658 -0.617 29 80 101
-2796.9302 2609.2683 1238.8009 0.862 -0.313 -0.398 47 109 147
-2791.6792 2612.5122 1234.2029 0.373 -0.890 -0.262 34 100 141
-2809.5979 2639.3318 1239.3702 -0.348 -0.691 -0.634 27 101 147
-2758.3457 2647.4680 1201.0250 -0.287 -0.702 -0.652 3 100 149
-3077.6875 3181.9231 1277.4288 0.012 -0.979 0.204 73 68 49
-3051.2290 3163.1289 1264.0198 -0.411 -0.895 -0.170 107 96 80
-3035.5144 3156.1448 1254.8951 -0.357 -0.932 -0.066 84 65 52
-2871.5129 3212.1863 1123.8602 0.319 -0.660 0.680 14 13 15
-2846.0459 3192.5249 1111.3903 0.518 -0.498 0.696 46 39 40
-2837.8679 3193.5186 1105.3563 0.516 -0.501 0.695 100 84 81
-2811.4795 3215.9519 1080.5460 0.930 -0.296 0.216 180 131 94
-2932.5542 3480.6904 1092.2645 0.922 -0.324 0.210 192 161 140
-2810.5249 3443.3733 1016.7105 0.885 -0.336 0.323 212 196 196
-3113.9133 3865.6360 1113.0420 -0.275 -0.452 -0.849 228 210 209
-3361.8411 4220.0610 1189.1655 -0.417 -0.664 0.620 225 221 211
-3305.3723 4159.7632 1166.1542 -0.410 -0.687 0.600 224 218 208
-3382.9851 4277.3867 1188.1312 0.354 -0.672 -0.650 228 217 208
-3357.9795 4303.2461 1163.3434 0.329 -0.944 -0.030 162 113 117
-3350.3452 4307.8687 1156.6841 0.271 -0.961 -0.049 178 89 105
-3341.9817 4311.5015 1149.7866 0.285 -0.957 -0.050 199 70 89
-2358.4001 3186.5771 769.7008 -0.197 -0.946 0.256 215 185 177
-2347.1809 3181.8506 763.1143 -0.201 -0.944 0.261 225 195 187
-2347.5767 3205.5852 756.8010 -0.565 -0.818 0.108 211 181 173
-3156.1479 5235.1934 762.4012 0.728 -0.653 0.210 198 165 160
-2999.9734 5344.5879 622.0590 0.689 0.052 -0.723 193 164 160
-2983.3149 5355.7598 607.2272 0.926 -0.366 -0.091 193 164 160
-3030.3281 5465.3193 609.8995 0.559 -0.540 0.629 193 164 160
-3036.4990 5564.6260 586.6632 0.711 -0.407 0.573 191 160 158
-3031.3054 5576.9253 579.5904 0.707 -0.414 0.574 191 160 158
-3013.5535 5565.1348 570.3661 0.712 -0.402 0.576 191 160 158
-2997.3123 5738.5991 510.7536 -0.209 -0.143 -0.967 187 154 152
-2996.7642 5760.9263 504.1667 -0.234 -0.143 -0.962 179 146 145
-2191.8027 4536.4785 277.4850 -0.080 -0.844 -0.530 183 136 120
-2546.2104 5399.2827 287.3831 0.956 -0.225 0.189 177 130 114
-2533.1565 5440.6274 266.7090 -0.150 -0.672 0.725 170 118 101
-2563.0999 5780.4951 193.3976 0.549 -0.771 -0.323 154 98 81
-2028.5264 5282.0151 -44.5381 -0.170 -0.709 -0.685 214 189 185
-2018.7867 5281.2690 -51.1882 0.415 -0.455 -0.788 165 140 136
-1968.7672 5325.8262 -98.7812 0.161 -0.681 -0.715 155 136 140
-5097.0264 3388.8093 2627.7493 0.461 -0.887 -0.006 176 178 167
-5082.2861 3388.7346 2617.4111 0.695 -0.511 -0.506 166 169 160
-3530.8162 2368.6318 1812.4825 0.080 -0.951 0.299 174 179 173
-3943.7126 2772.6726 1989.6117 0.890 -0.440 0.120 190 195 189
-3343.6355 2811.6816 1556.9746 0.499 -0.640 0.585 6 10 9
-3308.4368 2788.6636 1538.6779 0.880 -0.383 -0.282 32 34 32
-3310.0073 2799.0073 1536.8875 0.887 -0.365 -0.284 55 55 53
-3011.7324 2652.2451 1368.3282 -0.160 -0.647 -0.745 39 26 25
-2999.4221 2649.0588 1360.5684 0.025 -0.855 -0.518 57 23 23
-2993.7246 2652.1748 1355.6924 0.025 -0.855 -0.518 67 5 12
-2983.9749 2651.3911 1349.0597 -0.066 -0.933 -0.354 69 5 14
-2856.6807 2595.6277 1275.2019 -0.123 -0.990 0.072 65 46 49
-2846.3018 2593.8438 1268.4070 -0.123 -0.990 0.072 88 79 86
-2835.8069 2591.9138 1261.5713 -0.242 -0.970 0.009 76 84 92
-2823.1379 2587.7905 1253.8214 0.053 -0.942 0.332 26 52 62
-2815.0151 2588.1565 1248.0105 0.347 -0.882 0.318 15 57 66
-2797.6487 2613.2583 1228.7823 0.954 -0.292 -0.069 24 112 168
-2807.1145 2666.2114 1220.6190 -0.487 -0.637 -0.598 13 116 172
-2801.4832 2669.1763 1215.8318 -0.325 -0.649 -0.688 12 113 164
-2788.6785 2682.3132 1203.1573 0.539 -0.838 0.088 0 97 144
-2797.7117 2700.5898 1204.3922 0.379 -0.884 -0.274 1 96 145
-3139.4358 3128.1211 1324.9302 -0.028 -0.960 -0.280 36 30 25
-3127.6921 3125.8323 1317.3175 -0.004 -0.954 -0.299 38 29 27
-3095.6528 3184.5210 1278.3802 0.006 -0.977 0.212 65 67 48
-3084.7397 3183.0134 1271.1326 0.006 -0.977 0.212 71 70 53
-3061.1116 3167.4004 1258.8955 -0.068 -0.994 -0.090 88 79 66
-3049.2253 3164.7021 1251.2970 -0.102 -0.994 -0.024 112 95 85
-3034.4761 3158.7749 1242.5898 -0.159 -0.972 0.175 106 88 78
-3026.8455 3160.7393 1236.6776 -0.157 -0.964 0.214 75 60 50
-3022.4546 3187.4253 1226.1254 0.103 -0.719 -0.688 24 10 3
-3016.8899 3191.7454 1221.0057 0.108 -0.720 -0.685 23 15 6
-2866.7720 3188.6675 1116.3671 0.289 -0.688 0.666 11 16 16
-2850.4207 3179.9438 1107.3165 0.579 -0.489 0.652 8 11 14
-2812.7502 3210.3223 1072.3429 0.931 -0.295 0.214 172 117 76
-2872.2556 3443.7759 1048.8440 0.304 -0.517 0.800 197 164 140
-2797.7271 3442.5212 996.8177 0.468 -0.446 0.763 232 214 214
-3353.2583 4301.7109 1146.8414 0.582 -0.812 0.044 171 93 108
-3348.3857 4310.0532 1141.0831 0.285 -0.957 -0.050 201 79 98
-3341.0405 4315.0605 1134.5200 0.347 -0.937 0.042 206 63 87
-3339.7935 4328.3794 1129.9170 0.407 -0.755 -0.515 210 58 83
-3334.0503 4335.6079 1123.8584 0.407 -0.755 -0.515 219 75 96
-3330.7202 4346.1636 1118.5648 0.414 -0.744 -0.525 214 98 109
-2358.9160 3167.9441 765.2537 -0.098 -0.788 0.608 217 188 180
-2333.7683 3154.5071 751.3400 0.273 -0.908 0.317 230 201 193
-2325.8293 3154.4165 745.7861 0.277 -0.911 0.306 217 187 179
-2342.1270 3201.2131 744.1464 -0.492 -0.736 -0.465 176 144 136
-2332.1187 3198.1733 737.9633 -0.496 -0.736 -0.460 146 109 96
-2333.1831 3211.3916 735.0130 -0.363 -0.735 -0.573 139 101 88
-2332.7024 3234.1597 728.3049 0.501 -0.333 -0.799 138 99 84
-3034.4426 5794.9766 504.9826 -0.568 -0.258 -0.781 190 151 152
-3018.6968 5787.1904 496.0952 -0.568 -0.258 -0.781 182 144 145
-2536.9624 5431.1602 257.1554 -0.150 -0.672 0.725 176 125 108
-2294.5950 5703.6104 10.5951 0.254 -0.834 0.490 131 104 93
-2281.2139 5722.8535 -4.1928 0.428 -0.509 0.747 184 157 146
-2041.3445 5296.4653 -53.4691 -0.247 -0.739 -0.627 210 182 179
-2032.6830 5298.7446 -60.1940 -0.254 -0.738 -0.625 232 204 201
-2003.5194 5322.8262 -87.4274 0.200 -0.549 -0.812 218 197 199
-1979.2159 5334.1611 -107.6789 0.178 -0.693 -0.698 196 175 178
-1966.0039 5350.1631 -121.4411 0.102 -0.719 -0.687 229 210 214
-3911.6538 2709.6396 1973.6705 0.900 -0.119 -0.420 191 196 191
-3346.8340 2800.3181 1551.9016 0.039 -0.999 -0.032 26 30 29
-3331.7786 2795.6270 1542.6627 -0.032 -0.985 -0.168 20 24 23
-3327.7827 2800.9207 1538.3677 0.207 -0.977 0.056 33 34 32
-3315.4143 2798.6050 1530.3440 0.385 -0.922 0.038 52 51 48
-3347.9646 2864.5208 1534.5997 0.966 -0.205 0.159 22 17 10
-3092.7153 2706.6333 1400.0455 -0.581 -0.774 -0.252 36 28 25
-3025.3694 2660.0349 1365.9368 -0.171 -0.659 -0.733 37 30 25
-3008.3208 2652.3623 1356.1400 0.010 -0.882 -0.471 31 21 16
-3002.2412 2655.1238 1351.0969 0.010 -0.882 -0.471 24 5 5
-2996.1643 2657.8843 1346.0562 0.010 -0.882 -0.471 22 7 9
-2987.9404 2658.5728 1340.0931 -0.261 -0.913 -0.315 20 8 7
-2858.2698 2592.0125 1267.8905 -0.340 -0.940 -0.001 54 55 54
-2849.1326 2591.4529 1261.6388 -0.226 -0.974 -0.031 78 83 88
-2840.3779 2591.2483 1255.5552 -0.213 -0.977 -0.006 58 71 82
-2825.7979 2585.2410 1247.0206 0.053 -0.942 0.332 27 54 67
-2816.9124 2584.8459 1240.8988 0.347 -0.882 0.318 15 57 68
-2804.2168 2606.0632 1226.0133 0.969 -0.247 -0.027 16 115 175
-2822.6128 2694.2998 1214.0491 0.537 -0.837 -0.107 7 103 154
-2816.1807 2696.5002 1208.9169 0.109 -0.962 -0.251 1 98 148
-2812.2988 2701.3423 1204.8291 0.118 -0.957 -0.265 1 97 142
-3139.1184 3131.5811 1312.8291 0.019 -0.957 -0.288 41 35 29
-3146.0298 3211.9321 1295.0311 -0.032 -0.912 0.408 61 64 46
-3074.8420 3165.4341 1258.1991 0.186 -0.949 0.255 45 45 31
-3062.9658 3162.7864 1250.6143 0.192 -0.951 0.244 58 52 41
-3048.0696 3156.7524 1241.8654 0.022 -0.922 0.387 62 49 40
-3036.0444 3153.8486 1234.2484 0.022 -0.922 0.387 40 26 19
-2856.3364 3105.9260 1121.6925 0.344 -0.461 -0.818 12 18 11
-2841.6548 3099.2231 1113.2828 0.510 -0.400 -0.761 9 14 6
-2844.5991 3134.1448 1105.5060 0.905 -0.395 0.155 9 11 7
-3361.5535 4287.9712 1142.9458 0.741 -0.626 0.244 177 147 150
-3359.7737 4300.4287 1138.1863 0.687 -0.650 0.326 187 128 140
-3352.1960 4305.1060 1131.5525 0.687 -0.650 0.326 202 124 132
-3354.0781 4337.6240 1123.7079 0.482 -0.765 -0.427 214 111 122
-3348.2200 4344.7222 1117.5979 0.482 -0.765 -0.427 235 136 145
-3343.8755 4353.9077 1111.9615 0.475 -0.766 -0.433 219 140 142
-2317.7959 3146.2812 732.5413 0.338 -0.853 0.397 176 146 138
-2797.5667 6124.2959 229.7671 0.485 -0.678 -0.553 166 113 97
-2531.0962 5768.3887 143.1513 0.385 -0.782 -0.490 158 105 87
-2292.7986 5677.9849 1.4690 -0.229 -0.973 0.011 129 101 89
-2273.5510 5681.7007 -13.0801 -0.070 -0.988 0.139 184 156 144
-2032.9532 5304.9062 -75.6596 -0.249 -0.739 -0.627 226 197 195
-2018.5759 5317.5059 -89.2962 0.192 -0.555 -0.810 215 191 194
-2013.4312 5329.4761 -96.2788 0.192 -0.555 -0.810 213 188 192
-1819.8341 5363.8081 -241.7602 0.404 -0.662 0.632 239 226 233
-5107.5605 3416.1885 2599.4170 0.541 -0.544 -0.642 172 174 163
-3902.9172 2665.0562 1969.1771 0.404 -0.079 -0.911 189 194 188
-3904.5610 2674.5808 1967.6241 0.404 -0.079 -0.911 182 187 181
-3948.2131 2757.8860 1974.5394 0.877 -0.467 0.111 179 184 178
-3948.9617 2767.0415 1972.4644 0.893 -0.436 0.113 178 183 177
-3431.0305 2781.2585 1605.7787 0.013 -0.709 0.705 30 27 22
-3405.7065 2767.8745 1591.8468 0.013 -0.709 0.705 29 26 21
-3352.7498 2782.6047 1550.5853 0.734 -0.590 0.336 31 30 29
-3349.4709 2788.5198 1546.6102 0.385 -0.922 0.037 30 29 28
-3311.0234 2807.1370 1514.4047 0.954 -0.274 0.119 28 21 10
-3114.5676 2722.0071 1401.0159 -0.632 -0.761 -0.147 39 31 29
-3027.9631 2665.8887 1356.3076 0.518 -0.786 -0.338 26 22 19
-3018.7581 2665.7063 1349.9143 0.518 -0.797 -0.310 13 11 9
-3009.9641 2665.8960 1343.7029 -0.266 -0.926 -0.270 11 12 10
-3000.0547 2664.9941 1337.0205 -0.266 -0.926 -0.270 11 11 8
-2881.1050 2600.8015 1271.9568 -0.387 -0.906 0.170 26 30 31
-2869.6665 2598.0383 1264.7321 -0.326 -0.945 0.013 46 53 58
-2854.5620 2591.6287 1255.9757 -0.266 -0.964 -0.009 66 76 86
-2842.1152 2587.7854 1248.3518 -0.310 -0.947 0.087 46 63 76
-2826.0234 2580.2878 1239.2129 -0.240 -0.970 0.026 25 50 67
-2795.7529 2575.4019 1219.4049 0.033 -0.973 0.226 11 90 129
-2827.8008 2694.1465 1208.1342 -0.012 -0.964 -0.265 29 118 168
-2818.5476 2693.4336 1201.8577 -0.027 -0.964 -0.265 22 114 163
-2824.3254 2717.1860 1199.1602 0.014 -0.999 0.043 12 100 141
-3074.0173 3126.8340 1257.6973 0.487 -0.588 0.646 50 46 36
-3068.8623 3141.8521 1249.8243 0.575 -0.549 0.607 32 23 17
-3046.6458 3127.8132 1238.2540 0.502 -0.603 0.620 22 19 10
-3126.2192 3268.7437 1253.9618 -0.624 -0.762 0.172 13 11 5
-2872.2017 3128.1038 1116.0276 0.469 -0.431 -0.771 13 14 9
-2853.7810 3138.1045 1100.2906 -0.307 -0.940 -0.151 10 11 6
-2940.4805 3396.9758 1087.5061 0.985 -0.141 -0.098 185 104 49
-2860.0515 3412.5793 1026.7609 0.316 -0.515 0.796 200 127 73
-3344.0508 4389.4722 1088.3231 0.999 -0.049 -0.015 196 172 164
-2320.0068 3141.6416 725.5438 0.331 -0.863 0.381 150 122 111
-2316.9199 3301.4849 678.0047 0.757 -0.168 -0.631 205 176 169
-2262.9866 3391.2520 614.7573 -0.193 -0.965 0.179 203 169 167
-2175.3853 3325.6812 572.0348 0.145 -0.982 -0.120 209 174 172
-2174.3533 3349.3025 564.6064 0.161 -0.979 -0.129 212 174 173
-1974.1946 4373.2905 133.7590 -0.487 -0.852 -0.195 161 104 84
-2302.6602 5655.9375 -0.3818 -0.367 -0.683 -0.631 141 110 93
-2107.6238 5382.2534 -59.2483 -0.041 -0.610 -0.791 198 166 163
-2031.7153 5306.9565 -91.0226 -0.121 -0.846 -0.520 217 184 183
-1987.8751 5423.3882 -154.7727 -0.499 -0.472 -0.726 238 224 224
-1999.3464 5483.4741 -163.7983 0.721 -0.492 0.487 242 231 231
-5127.3433 3424.5735 2596.8342 -0.044 -0.484 -0.874 172 174 163
-5118.0288 3428.4072 2589.2283 0.038 -0.427 -0.904 187 189 178
-5033.1567 3461.8628 2520.3455 0.192 -0.954 -0.230 175 177 172
-3910.8738 2666.3525 1963.4506 0.410 -0.076 -0.909 190 195 189
-3929.0483 2713.2822 1962.7339 0.414 -0.066 -0.908 190 195 189
-3916.0742 2728.9460 1949.1875 0.232 -0.220 -0.948 179 184 178
-3954.4812 2766.4221 1965.3142 0.611 -0.244 -0.753 177 182 176
-3456.7996 2798.5781 1608.2925 -0.039 -0.957 0.287 28 27 22
-3455.8130 2806.5774 1605.3157 -0.093 -0.961 0.261 29 28 23
-3440.3154 2810.7446 1593.2931 -0.201 -0.937 0.285 32 31 26
-3421.3105 2802.8740 1582.2610 0.153 -0.978 0.141 32 31 26
-3374.3130 2796.6357 1551.1984 0.859 -0.372 -0.352 31 32 25
-3364.5066 2796.7395 1544.3151 0.452 -0.890 -0.054 31 31 26
-3362.4087 2812.6729 1538.2930 -0.039 -0.843 0.536 20 22 15
-3029.8875 2671.1101 1346.3730 -0.449 -0.828 -0.337 12 11 11
-3013.2686 2663.8367 1336.8379 -0.407 -0.870 -0.278 10 12 11
-2932.9966 2620.7397 1293.0592 -0.312 -0.940 -0.135 9 10 12
-2926.8621 2623.2837 1288.0443 -0.323 -0.931 -0.171 9 9 9
-2888.6724 2603.0327 1267.1442 -0.388 -0.912 0.134 25 30 31
-2872.2952 2595.4487 1257.8667 -0.279 -0.959 0.045 38 47 50
-2859.5718 2591.3906 1250.1349 -0.279 -0.959 0.045 52 63 72
-2838.3777 2699.5352 1204.4003 -0.075 -0.926 -0.370 33 114 158
-2832.3682 2711.0657 1196.9032 0.379 -0.924 -0.048 24 107 149
-2836.2388 2723.9888 1195.9132 0.288 -0.807 -0.515 23 104 147
-3088.9751 3105.8242 1263.3696 0.324 -0.471 -0.820 41 35 25
-3092.1050 3139.9785 1255.7914 0.024 -0.773 0.634 30 25 16
-3061.1147 3126.8167 1237.8959 0.502 -0.619 0.604 23 15 7
-3048.9304 3123.7705 1230.2512 0.374 -0.907 -0.193 17 14 5
-3042.8540 3127.4021 1224.9661 0.374 -0.907 -0.193 26 23 16
-3045.5264 3140.6882 1223.0349 0.677 -0.615 0.403 22 19 14
-2916.3716 3151.5569 1129.6614 0.735 -0.483 -0.476 25 26 21
-2863.1499 3142.2666 1095.1215 -0.276 -0.955 -0.108 10 11 6
-2851.9919 3139.6975 1088.0579 -0.287 -0.952 -0.104 10 11 6
-2840.8455 3137.1023 1081.0096 -0.287 -0.952 -0.104 45 48 40
-2841.6572 3148.6484 1078.2756 0.910 -0.381 0.164 59 59 54
-3349.4143 4251.8345 1117.7064 -0.703 -0.711 -0.008 223 201 195
-3299.9861 4200.2793 1097.9027 0.426 -0.847 0.317 219 195 189
-3322.9448 4260.3979 1096.7584 0.343 -0.915 0.214 202 174 162
-2333.4216 3141.8770 725.0084 -0.055 -0.854 0.517 143 119 107
-2324.6697 3140.5706 719.2651 0.304 -0.894 0.329 129 105 93
-2327.8467 3167.9937 713.6444 0.806 -0.248 0.537 119 84 72
-2284.6462 3173.5405 681.8659 0.858 -0.497 0.129 111 70 60
-2315.1228 3290.2996 669.7803 0.799 -0.190 -0.571 205 176 170
-2180.4302 3375.7634 551.2074 0.340 -0.302 -0.891 209 173 171
-2606.8936 5628.8521 205.0264 -0.297 -0.241 -0.924 179 127 113
-2871.8208 6251.3745 212.1826 -0.006 -0.597 -0.802 175 123 109
-2412.4460 5547.9595 92.2581 0.979 -0.201 0.039 159 107 83
-2329.0872 5676.1870 -2.6656 -0.374 -0.704 -0.603 98 66 48
-2309.2278 5678.5312 -17.2157 -0.372 -0.699 -0.611 127 95 80
-2300.7415 5683.3608 -24.5276 -0.203 -0.734 -0.648 168 137 119
-2291.9373 5687.3647 -31.8257 -0.203 -0.734 -0.648 185 154 134
-2283.1367 5691.3667 -39.1206 -0.203 -0.734 -0.648 185 154 136
-2006.1532 5346.5034 -134.0951 0.910 -0.402 -0.096 198 163 167
-1993.9344 5392.0908 -155.6696 0.811 -0.532 -0.242 235 211 213
-1987.0093 5399.3945 -162.5980 0.127 -0.898 -0.421 237 223 223
-1954.8597 5555.6348 -229.7415 -0.757 -0.633 -0.160 232 221 225
-1910.9604 5538.8062 -255.6106 -0.792 -0.596 -0.133 254 243 247
-5141.6455 3429.0454 2591.4875 -0.056 -0.489 -0.870 172 174 163
-5131.8726 3432.5684 2583.6550 0.021 -0.427 -0.904 186 188 177
-5146.0664 3463.7212 2584.5854 0.517 -0.277 -0.810 179 179 169
-3941.1243 2717.6091 1958.8768 -0.110 -0.268 -0.957 189 194 188
-4604.9282 3447.2449 2211.8306 -0.380 -0.472 -0.795 198 200 195
-4575.0337 3444.6118 2191.7344 0.090 -0.691 -0.717 197 199 194
-3378.0552 2794.7212 1543.8716 0.930 -0.274 -0.245 34 29 17
-3361.7144 2806.7429 1529.0103 -0.039 -0.843 0.536 44 39 28
-3334.9358 2845.2898 1499.2286 0.921 -0.266 0.283 24 19 8
-3109.9529 2724.5645 1377.0459 -0.360 -0.900 0.246 36 30 26
-3082.5029 2707.2734 1362.8762 -0.430 -0.890 0.155 26 22 21
-3052.8982 2687.8064 1347.8300 -0.391 -0.829 0.399 12 11 11
-3033.7397 2678.1777 1337.2378 -0.421 -0.889 0.180 12 12 14
-2951.5608 2633.5171 1292.7706 -0.321 -0.926 -0.196 9 9 11
-2937.7036 2628.6157 1284.5154 -0.317 -0.931 -0.181 10 9 9
-2925.5996 2625.3691 1277.0065 -0.429 -0.855 0.291 16 17 17
-2900.1140 2609.0332 1263.9320 -0.385 -0.915 0.124 25 29 30
-2882.1416 2599.9277 1254.0166 -0.275 -0.960 0.050 32 40 43
-2866.6970 2593.2275 1245.1719 -0.279 -0.959 0.045 42 53 60
-2835.0186 2578.8667 1227.2085 -0.266 -0.951 0.159 25 50 68
-2835.1028 2708.3586 1189.9767 0.545 -0.838 -0.032 34 103 144
-2842.7290 2725.1467 1190.4620 0.288 -0.807 -0.515 33 107 150
-3111.1570 3133.4907 1260.1249 0.607 -0.465 -0.644 36 27 20
-3099.4548 3141.4246 1249.6766 -0.053 -0.793 0.607 29 24 15
-3052.3049 3131.2317 1219.7201 0.730 -0.529 0.434 20 17 10
-3027.7632 3124.8308 1204.4430 0.672 -0.551 0.495 18 17 13
-2871.7256 3145.4805 1089.6439 -0.287 -0.952 -0.104 10 11 6
-2860.5093 3142.8667 1082.5721 -0.287 -0.952 -0.104 11 12 6
-2849.3354 3140.2632 1075.5270 -0.287 -0.952 -0.104 49 50 41
-2838.6680 3138.2192 1068.6740 0.845 -0.523 0.110 75 75 67
-2968.5737 3451.1938 1069.1674 0.996 -0.040 -0.079 187 105 49
-2964.1497 3457.4390 1064.2827 0.995 -0.085 -0.056 188 107 51
-3254.1038 4114.9316 1077.2131 0.368 -0.543 0.755 227 192 175
-3241.5042 4112.3032 1069.1805 0.368 -0.543 0.755 224 187 171
-3208.0303 4081.6204 1054.6650 0.415 -0.541 0.731 209 170 151
-3180.8203 4059.1370 1042.1578 0.444 -0.551 0.707 204 165 145
-2892.1101 3761.3542 926.5071 -0.105 -0.978 0.179 207 169 161
-2328.1987 3137.8667 712.6705 0.303 -0.897 0.324 63 38 27
-2282.6418 3151.0513 677.0931 0.530 -0.796 -0.292 66 29 18
-2282.8613 3162.8728 673.8418 0.711 -0.702 -0.033 65 29 18
-2188.6104 3367.3235 549.2150 0.097 -0.538 -0.837 206 176 172
-2204.9382 3446.0771 537.9263 0.202 -0.170 -0.964 205 175 171
-3012.4722 5149.5894 610.6932 0.495 -0.334 0.802 206 177 173
-2931.7466 5224.7500 532.7342 0.663 -0.299 0.686 194 165 159
-2774.1917 5090.8584 461.3810 -0.206 -0.607 0.768 193 159 157
-2764.0037 5091.6582 454.0435 0.164 -0.544 0.823 194 160 158
-2707.2817 5002.5171 440.1447 -0.220 -0.600 0.769 193 159 157
-2804.6553 5874.6196 256.9279 -0.754 -0.586 -0.298 189 143 130
-2839.3591 6211.3105 184.1782 0.902 -0.393 -0.177 166 113 98
-2350.6875 5683.8740 -4.8312 -0.320 -0.944 -0.083 108 71 49
-2310.7837 5688.3159 -33.9473 -0.441 -0.791 -0.425 167 136 118
-2300.2393 5714.6387 -48.8838 -0.118 -0.970 0.214 185 154 134
-2166.6597 5471.8711 -72.1579 0.604 -0.521 0.604 193 160 155
-2016.0688 5353.1465 -143.0206 0.850 -0.522 0.068 214 179 183
-2005.4084 5349.8896 -149.5193 0.797 -0.565 -0.215 207 176 179
-2007.4337 5382.0596 -157.3708 0.805 -0.544 -0.235 221 191 193
-2008.4806 5411.7393 -165.1876 0.831 -0.511 -0.219 236 212 214
-2001.2748 5418.3369 -172.1143 0.167 -0.731 -0.661 239 224 224
-1986.1063 5484.2256 -201.6703 0.131 -0.889 -0.438 244 232 232
-1984.3125 5506.7637 -209.4120 0.665 -0.462 -0.587 244 232 232
-1948.0358 5569.6025 -252.8149 -0.750 -0.589 -0.300 253 243 247
-1925.7816 5560.3882 -265.6861 0.127 -0.875 0.468 251 240 244
-5162.2437 3437.9587 2589.1985 -0.063 -0.481 -0.874 166 168 157
-4564.2866 3440.5713 2172.0757 0.284 -0.924 -0.257 182 184 179
-3384.7129 2760.2244 1548.0354 0.544 -0.692 0.474 79 73 71
-3291.5239 2773.4529 1479.3103 0.855 -0.450 0.258 46 37 28
-3314.3340 2803.0876 1486.5986 0.947 -0.320 0.029 31 23 15
-2962.2974 2638.6958 1289.1473 -0.289 -0.956 -0.053 13 13 13
-2950.0913 2635.4236 1281.5972 -0.289 -0.956 -0.053 14 12 15
-2907.2700 2610.8389 1258.9100 -0.330 -0.875 0.354 21 26 25
-2883.2793 2595.8867 1246.5415 -0.323 -0.876 0.358 30 38 41
-2843.0276 2581.6179 1222.6517 -0.129 -0.974 0.187 29 54 73
-2815.8169 2613.7273 1194.3923 0.854 -0.159 -0.495 63 131 164
-2839.3384 2733.9333 1175.9091 0.745 -0.228 -0.627 44 116 165
-3105.0869 3120.4822 1248.8475 0.279 -0.959 -0.043 29 21 16
-2838.6628 3131.3557 1060.1796 0.793 -0.599 0.106 50 51 43
-2851.4639 3390.1189 994.0475 0.449 -0.543 0.709 189 109 53
-3089.6946 3913.6946 1008.0850 0.573 -0.677 -0.461 186 135 106
-2339.5776 3135.1792 711.5513 -0.055 -0.854 0.518 41 14 3
-2287.4087 3150.1519 670.8831 0.530 -0.796 -0.292 61 28 15
-2284.0825 3156.7039 666.6669 0.740 -0.672 -0.035 59 28 17
-2322.2507 3432.8560 613.1551 -0.379 -0.766 0.520 187 167 156
-2246.9795 3364.1450 580.6702 0.684 -0.450 0.574 166 145 138
-2213.8677 3361.3633 558.4207 0.698 -0.504 0.508 171 148 142
-2211.6536 3370.4509 554.2434 0.710 -0.478 0.517 178 156 150
-2206.0752 3374.0889 549.3041 0.676 -0.735 -0.056 189 167 161
-2198.1880 3373.9468 543.8533 0.097 -0.538 -0.837 197 174 168
-2719.2224 5767.9053 212.3687 -0.747 -0.602 -0.282 190 138 124
-2678.5205 5776.7065 181.4750 -0.239 -0.326 -0.915 176 124 110
-1972.6223 4402.9043 88.3744 0.096 -0.197 -0.976 161 109 85
-2373.3616 5641.9946 8.0575 0.926 -0.377 -0.009 146 105 83
-2366.5593 5677.0425 -6.8435 0.003 -0.996 -0.094 145 104 82
-2358.9270 5710.4375 -21.8431 -0.381 -0.699 -0.605 134 103 82
-2349.5132 5713.1201 -29.1759 -0.375 -0.701 -0.607 128 97 79
-2339.4153 5714.0396 -36.4739 -0.375 -0.701 -0.607 142 111 93
-2317.2705 5684.1519 -43.2257 0.713 -0.596 0.369 175 144 126
-2328.5681 5739.7432 -51.4815 -0.482 -0.771 -0.416 184 153 133
-2002.8352 5295.7979 -149.5419 -0.036 -0.825 -0.564 228 193 197
-1999.9545 5313.8911 -156.7951 0.158 -0.785 -0.598 221 190 192
-2007.7362 5361.8398 -165.2826 0.823 -0.537 -0.188 227 197 199
-2006.6750 5385.4258 -172.8618 0.792 -0.551 -0.264 232 208 211
-2004.1157 5404.9727 -180.3129 0.263 -0.512 -0.818 240 226 227
-1999.5122 5418.8789 -187.5513 0.263 -0.512 -0.818 249 237 237
-1994.6329 5459.3096 -202.6744 0.020 -0.531 -0.847 231 219 219
-1964.3158 5566.4702 -254.8630 0.914 -0.365 -0.174 249 238 242
-1919.0450 5545.7524 -280.3771 -0.327 -0.748 0.577 246 235 241
-1849.5355 5624.9956 -351.7592 -0.216 -0.349 -0.912 249 236 243
-3521.1101 2195.1929 1797.4528 0.618 -0.778 0.114 167 167 157
-3938.9011 2648.4968 1955.4381 0.565 -0.256 -0.784 170 172 167
-3933.9114 2653.0864 1950.6298 0.472 -0.237 -0.849 175 177 172
-3934.6165 2661.8467 1948.5613 0.457 -0.228 -0.860 182 184 179
-3936.3386 2671.3821 1946.9735 0.520 -0.118 -0.846 183 188 182
-4629.2202 3465.1296 2196.7256 -0.247 -0.381 -0.891 195 197 192
-4579.2183 3446.4941 2167.4155 0.137 -0.956 -0.259 178 180 175
-4619.0200 3499.8049 2179.5090 -0.023 -0.367 -0.930 148 150 145
-3376.2104 2791.4426 1522.6067 0.871 -0.394 -0.294 138 120 101
-3309.3076 2766.7031 1483.3330 0.007 -0.723 0.690 81 68 53
-3283.4370 2752.0989 1469.6174 0.052 -0.703 0.709 54 45 34
-3289.9746 2766.7937 1469.8695 0.852 -0.456 0.257 45 38 29
-3290.7271 2785.1335 1465.0364 0.855 -0.444 0.269 33 24 17
-2950.0417 2630.1929 1273.5029 -0.361 -0.932 -0.040 14 12 15
-2846.8489 2580.2402 1216.3704 -0.112 -0.972 0.205 32 55 73
-2822.5828 2564.6980 1204.0439 -0.200 -0.979 0.033 21 50 71
-3228.0811 3172.9297 1308.2384 0.212 -0.972 0.102 56 52 52
-3160.2510 3132.1042 1273.0182 0.727 -0.326 -0.604 58 22 22
-3146.9609 3148.6951 1258.9357 0.964 -0.257 0.072 32 27 21
-3118.0188 3127.9263 1244.8859 0.463 -0.871 0.164 29 22 16
-3017.0481 3069.4922 1191.7748 0.662 -0.348 0.664 28 24 15
-3010.1331 3072.0427 1186.2238 0.662 -0.348 0.664 16 13 6
-2850.6597 3128.1489 1059.0000 0.838 -0.541 0.075 75 80 71
-2812.2371 3367.2683 962.4596 0.748 -0.340 0.570 192 109 48
-3065.6951 3885.9392 987.1389 0.324 -0.812 -0.486 180 117 77
-3019.0117 3863.3694 961.2845 -0.313 -0.888 0.335 203 141 102
-2317.2024 3129.0039 687.9846 0.759 -0.601 -0.250 40 16 2
-2312.3176 3133.2212 683.3580 0.527 -0.789 -0.316 43 20 4
-2292.1736 3149.2527 664.6752 0.530 -0.796 -0.292 52 27 12
-2287.2539 3153.4421 660.0323 0.534 -0.794 -0.289 52 27 12
-2311.1179 3235.4314 652.6731 0.171 -0.627 -0.760 161 132 126
-2307.4541 3241.7571 648.2792 0.171 -0.627 -0.760 205 176 170
-2414.9453 3504.3054 646.3100 0.626 -0.767 0.143 202 175 164
-2347.1797 3424.8389 622.4198 0.427 -0.892 -0.149 203 176 165
-2313.4377 3410.0466 603.2885 0.175 -0.983 -0.060 194 178 170
-2302.8369 3406.0146 597.0981 -0.381 -0.804 0.457 188 173 165
-2246.4390 3354.4055 572.9728 0.622 -0.614 0.487 32 19 14
-2226.1458 3359.6079 557.3492 0.623 -0.524 0.581 27 12 10
-2214.3718 3353.2205 551.0314 0.698 -0.504 0.508 35 20 15
-2211.2561 3360.8044 546.6511 0.704 -0.486 0.518 50 35 26
-2208.6877 3369.3076 542.3826 0.677 -0.734 -0.060 73 58 50
-2207.8027 3380.5957 538.4709 0.097 -0.538 -0.837 91 76 69
-2254.0273 3562.5076 517.4699 -0.271 -0.917 0.292 202 175 164
-2764.8945 5063.3994 434.1932 0.144 -0.554 0.820 162 128 126
-2722.8445 5757.1499 202.3548 -0.709 -0.603 -0.365 196 144 130
-2695.3337 5845.6123 157.3983 -0.632 -0.445 -0.634 179 127 112
-2674.2788 5823.3394 149.2696 -0.631 -0.443 -0.637 181 123 104
-2331.3894 5673.0259 -45.1471 0.653 -0.622 0.432 166 135 117
-2319.2803 5668.6201 -52.2766 0.707 -0.602 0.370 176 145 127
-2011.7638 5352.1167 -173.5718 0.169 -0.446 -0.879 199 170 172
-2010.5116 5375.0547 -181.1412 0.145 -0.450 -0.881 190 166 168
-1928.7976 5495.1729 -273.0153 0.043 -0.875 0.483 226 215 219
-3526.4080 2195.1321 1791.7314 0.568 -0.803 0.182 168 168 158
-3510.1064 2190.8486 1781.6821 0.517 -0.844 0.141 173 175 164
-3944.8838 2673.0874 1941.4819 0.520 -0.118 -0.846 182 187 181
-4654.8813 3610.2170 2158.4338 -0.086 -0.693 -0.715 7 9 4
-4651.0898 3618.2188 2153.4502 0.702 0.016 -0.712 6 8 3
-3355.9802 2759.4624 1507.5359 0.866 -0.393 -0.309 140 119 96
-3367.1433 2778.1465 1509.7855 0.865 -0.409 -0.292 134 115 92
-3382.1975 2800.3921 1513.6869 0.048 -0.805 0.591 135 113 92
-3371.0046 2799.2515 1506.2573 -0.019 -0.800 0.599 120 97 77
-2956.3469 2631.1069 1268.0436 -0.375 -0.926 -0.053 14 13 13
-2851.3040 2579.4885 1210.3518 -0.112 -0.972 0.205 33 56 71
-2824.3201 2561.3040 1196.9800 -0.189 -0.982 -0.015 22 49 68
-2905.9143 2819.2810 1177.7167 0.939 -0.095 -0.331 105 122 139
-3247.0542 3186.3816 1306.4176 -0.014 -0.700 -0.714 78 70 72
-3052.8000 3021.7969 1220.0590 0.039 -0.753 0.656 62 32 29
-3092.1501 3093.7585 1226.1945 0.221 -0.862 0.456 46 39 32
-3012.5840 3058.2454 1181.4406 0.662 -0.348 0.664 21 17 9
-3005.6938 3060.7915 1175.9117 0.662 -0.348 0.664 16 13 6
-2759.2966 3349.2378 920.1481 0.795 -0.303 0.526 193 111 49
-3076.0618 3904.2219 976.6849 0.506 -0.394 -0.767 192 119 72
-3067.1553 3905.7681 970.0515 0.462 -0.310 -0.831 193 121 74
-2978.8452 3853.3169 924.2128 -0.632 -0.753 0.181 197 137 104
-2335.6023 3125.2566 692.0860 -0.060 -0.992 0.110 43 21 10
-2330.2515 3128.8076 687.3297 -0.081 -0.986 0.143 41 21 9
-2322.2339 3128.5100 681.8552 0.755 -0.603 -0.259 35 19 2
-2312.7544 3137.3660 672.6744 0.755 -0.604 -0.255 45 29 10
-2380.9424 3442.9189 630.1192 -0.126 -0.612 0.781 201 175 166
-2314.0930 3402.1873 595.7220 -0.140 -0.984 -0.110 216 205 196
-2304.1611 3399.2000 589.7104 -0.395 -0.872 0.287 186 177 168
-2288.8105 3387.6140 582.4684 -0.507 -0.859 0.076 95 87 78
-2277.3997 3382.1614 576.1559 -0.406 -0.800 0.441 27 22 13
-2252.1082 3354.5830 566.7208 0.215 -0.966 0.145 20 15 6
-2239.2815 3346.6665 560.1505 0.685 -0.448 0.575 21 15 7
-2226.3811 3351.0754 549.9044 0.623 -0.524 0.581 22 13 7
-2214.8735 3345.1135 543.6746 0.698 -0.504 0.508 21 13 3
-2211.2378 3351.8184 539.1806 0.700 -0.489 0.520 19 10 1
-2213.8997 3368.7688 536.0422 0.614 -0.780 -0.120 17 8 2
-2217.4548 3387.2700 533.0675 0.097 -0.538 -0.837 19 10 4
-2709.3274 5883.1821 140.2771 -0.695 -0.516 -0.500 186 129 111
-2359.2112 5644.2388 -32.3407 0.182 -0.847 0.500 149 112 91
-2365.7344 5712.8262 -47.9863 -0.556 -0.800 -0.225 159 128 110
-2343.1067 5708.5244 -62.4188 -0.561 -0.785 -0.261 180 149 131
-2130.8457 5419.8164 -124.7661 0.135 -0.621 -0.773 214 181 176
-2027.5844 5322.7798 -167.8650 0.433 -0.812 -0.391 199 164 168
-2023.7191 5364.4028 -182.7874 0.187 -0.660 -0.727 194 165 167
-2013.4357 5362.2212 -189.2797 0.437 -0.856 -0.275 178 154 157
-2014.3094 5391.1426 -197.1791 0.396 -0.879 -0.266 164 150 151
-2009.3136 5403.8174 -204.3723 0.146 -0.855 -0.498 191 181 180
-2013.2946 5441.8848 -212.8058 0.193 -0.903 -0.384 222 212 211
-1999.8877 5485.4751 -234.9260 0.651 -0.421 -0.632 252 242 241
-1993.8541 5495.6919 -242.1164 0.473 -0.466 -0.748 255 248 247
-1983.5121 5577.5103 -273.3531 0.848 -0.518 -0.115 231 220 224
-1957.0323 5642.5400 -310.8476 -0.739 -0.639 -0.215 219 206 213
-1879.6371 5732.1099 -390.8810 -0.072 -0.763 -0.642 241 226 233
-3508.9829 2193.2698 1770.8073 0.477 -0.878 0.030 172 174 163
-4664.6392 3611.8496 2150.9707 -0.151 -0.625 -0.766 7 10 3
-3293.0564 2690.0378 1474.1849 0.310 -0.518 0.797 160 131 112
-3277.9202 2685.1636 1465.1472 0.440 -0.482 0.757 154 125 105
-3282.1794 2697.4705 1464.4523 0.839 -0.514 0.177 144 119 97
-3333.7844 2769.5005 1478.8567 -0.004 -0.797 0.604 85 58 37
-3293.9524 2742.4844 1459.2749 0.033 -0.719 0.695 64 44 27
-3281.2522 2739.7478 1451.2909 0.383 -0.739 0.554 45 33 19
-2873.7844 2579.6443 1216.5496 -0.401 -0.863 0.307 38 52 60
-2856.2639 2579.2334 1204.5392 -0.183 -0.981 0.057 33 54 69
-2844.2095 2643.5608 1177.1433 0.507 -0.429 -0.748 120 105 133
-2882.7930 2780.2876 1163.3726 0.885 -0.464 -0.040 124 167 199
-2888.2417 2795.0767 1162.7664 0.905 -0.424 -0.028 121 138 155
-2922.5576 2849.4565 1170.4254 0.661 -0.449 -0.601 89 61 51
-3053.1301 2996.3369 1217.3459 0.692 -0.538 0.481 91 54 41
-3033.3660 2995.0037 1204.0552 0.401 -0.669 0.626 79 41 35
-3040.9722 3012.8889 1204.0258 0.483 -0.567 -0.667 76 53 43
-3061.5718 3054.6836 1205.9137 0.179 -0.944 0.278 80 69 60
-2989.9153 3017.3459 1167.3517 0.831 -0.483 0.275 82 76 65
-3010.1794 3049.2778 1171.9277 0.657 -0.351 0.668 45 42 32
-3004.1360 3052.7222 1166.7229 0.659 -0.350 0.666 16 13 6
-2993.8787 3051.5601 1159.9645 0.801 -0.555 0.226 14 13 8
-3072.3811 3930.7886 953.9651 0.279 -0.883 0.378 194 116 63
-2465.6768 3233.7761 740.2523 -0.534 -0.687 0.493 89 52 37
-2343.0818 3128.2588 686.6072 0.338 -0.898 0.281 44 21 8
-2333.3887 3136.8357 677.3555 0.696 -0.686 -0.211 36 18 2
-2325.0186 3136.0410 671.7949 0.670 -0.708 -0.223 40 22 5
-2320.4150 3140.6787 667.2337 0.666 -0.708 -0.233 45 29 8
-2313.5630 3142.0537 662.0819 0.302 -0.901 0.313 50 34 13
-2379.7993 3432.3203 621.9930 -0.126 -0.612 0.781 199 176 169
-2353.5896 3404.5322 612.0728 -0.419 -0.908 -0.001 184 161 155
-2347.5288 3407.7017 606.9376 0.217 -0.937 -0.274 173 151 144
-2327.5078 3401.7222 594.8445 0.680 -0.734 0.011 143 123 116
-2322.3521 3406.2537 589.9326 0.431 -0.902 -0.037 142 136 125
-2305.4707 3392.3945 582.3470 -0.343 -0.900 0.270 71 68 56
-2293.8196 3386.6477 575.9810 -0.518 -0.853 0.061 29 27 15
-2282.3230 3381.0796 569.6690 -0.406 -0.800 0.441 10 10 2
-2225.0674 3390.5955 527.2045 0.073 -0.547 -0.834 10 6 3
-2312.7815 5483.7134 -31.8754 0.950 -0.292 -0.110 151 113 92
-2198.9702 5475.0161 -108.1085 0.091 -0.198 -0.976 189 158 153
-2186.2957 5493.7432 -122.4307 0.004 -0.379 -0.925 195 164 159
-2136.8657 5415.4395 -133.4710 0.189 -0.648 -0.738 206 175 170
-2022.6987 5367.0405 -198.1942 -0.171 -0.813 -0.557 205 180 183
-2026.1823 5403.1606 -206.4779 0.386 -0.799 -0.462 198 182 183
-2024.8323 5426.0605 -214.1938 0.360 -0.830 -0.426 209 196 196
-2020.5297 5440.8350 -221.5483 0.179 -0.884 -0.431 243 231 231
-2002.0334 5469.7988 -242.9328 0.696 -0.420 -0.582 250 238 238
-1988.8828 5570.6157 -281.8930 0.848 -0.518 -0.115 217 206 210
-1986.1456 5590.9121 -289.7986 0.845 -0.486 0.226 196 185 189
-1927.2067 5501.6299 -304.1725 0.478 -0.773 0.418 216 203 210
-1893.9160 5486.7471 -322.8176 0.497 -0.833 0.243 255 249 254
-3515.8142 2194.2732 1765.8582 0.476 -0.879 0.020 171 171 161
-4579.6816 3386.9993 2145.5557 -0.356 -0.731 -0.582 189 191 186
-4731.8662 3517.5308 2211.8223 -0.088 -0.611 -0.787 184 186 181
-4707.7759 3509.2522 2197.6401 -0.046 -0.651 -0.758 174 176 171
-4667.7085 3607.9937 2140.5068 0.079 -0.650 -0.756 10 13 6
-3351.8013 2693.9368 1503.5223 0.292 -0.603 0.742 134 117 107
-3299.0454 2681.8015 1470.6774 0.137 -0.583 0.801 151 117 105
-3281.0032 2674.3918 1460.4164 0.177 -0.590 0.788 129 90 76
-3267.0068 2670.4951 1451.9044 0.397 -0.509 0.764 124 87 70
