ply
format ascii 1.0
element vertex 785
property float x
property float y
property float z
property float nx
property float ny
property float nz
property uchar diffuse_red
property uchar diffuse_green
property uchar diffuse_blue
end_header
-2912.6062 2545.7576 1033.2780 -0.467 -0.883 -0.036 58 50 43
-2917.3508 2566.3169 1029.1793 0.366 -0.886 -0.283 82 75 67
-2870.8982 2627.8359 976.2909 0.841 -0.239 -0.486 124 110 107
-2853.8425 2678.1021 947.0759 0.270 -0.328 -0.905 166 92 69
-2857.7478 2733.7307 930.0032 0.193 -0.278 -0.941 87 36 14
-2872.0662 2757.2175 931.2812 0.222 -0.390 -0.894 107 59 34
-2873.1746 2767.1650 928.5029 0.429 -0.032 -0.903 128 81 53
-2880.3684 2792.3555 924.4057 0.656 0.052 -0.753 144 96 71
-2866.1912 2786.4905 916.9853 0.235 -0.619 0.749 145 102 79
-2832.4358 2768.9275 900.5914 0.077 -0.683 0.726 115 70 61
-2771.4797 2838.7297 835.0566 0.074 -0.683 -0.726 80 25 10
-2475.6484 2793.4492 652.9290 -0.392 -0.762 0.516 159 81 34
-2446.8145 2767.7610 642.7073 -0.331 -0.771 0.544 145 68 24
-2427.6050 2753.6162 634.8467 -0.330 -0.770 0.546 133 56 12
-2407.8916 2738.7483 626.9045 -0.358 -0.754 0.551 130 51 7
-2385.7229 2720.7585 618.4225 -0.430 -0.732 0.528 140 60 15
-2355.8611 2693.1790 608.1818 -0.480 -0.735 0.479 159 80 34
-2318.0049 2664.4971 592.9763 -0.244 -0.812 0.531 180 104 53
-2299.2463 2650.2036 585.4704 0.114 -0.725 0.679 178 102 50
-2123.7939 2586.7590 490.4037 0.580 -0.411 -0.703 182 108 59
-2223.4358 2783.9116 487.3675 0.057 -0.714 -0.697 184 105 56
-2212.4238 2778.7034 481.8349 0.018 -0.678 -0.735 179 107 60
-2209.5090 2784.3894 477.8701 0.075 -0.678 -0.731 177 112 70
-2204.1580 2796.4639 470.0122 0.261 -0.616 -0.743 134 80 47
-2282.5984 3005.9011 448.4269 0.512 -0.684 0.520 135 66 35
-2280.9192 3014.0583 444.4149 0.497 -0.662 0.561 145 71 36
-2274.1262 3015.0125 439.5273 0.497 -0.662 0.561 156 77 38
-2446.1296 3292.6970 456.4575 -0.391 -0.242 -0.888 183 98 55
-2454.3921 3316.0823 453.7152 -0.391 -0.242 -0.888 192 104 59
-2351.6509 3317.7737 384.2984 0.427 -0.898 0.106 18 5 1
-2212.6633 3494.5315 228.6417 -0.147 -0.719 -0.680 145 129 129
-2203.3110 3504.9497 218.6899 -0.149 -0.711 -0.687 214 184 188
-3860.6838 2565.0505 1651.1628 -0.546 -0.822 -0.161 152 149 142
-4501.8086 3070.5159 1899.8969 0.627 -0.536 -0.565 123 119 111
-4155.3188 2852.5493 1745.8214 0.564 -0.823 0.060 131 125 118
-4252.6074 2932.9111 1782.2635 0.247 -0.669 -0.701 133 126 119
-4246.4082 2937.1409 1776.6134 0.404 -0.675 -0.617 130 124 118
-4233.4199 2936.3352 1768.2167 0.537 -0.632 -0.558 126 123 117
-4232.4985 2944.4795 1764.7019 0.471 -0.601 -0.646 110 107 104
-4227.1133 2949.3167 1759.3796 0.402 -0.666 -0.629 50 51 49
-4223.7134 2955.6438 1754.8547 0.402 -0.666 -0.629 24 30 35
-4185.9644 2936.2126 1736.5326 0.373 -0.622 -0.688 74 87 97
-4185.8501 2944.9653 1733.3411 0.371 -0.620 -0.691 139 158 172
-4181.0996 2950.2463 1728.2854 0.321 -0.705 -0.632 151 179 195
-4316.2808 3154.6799 1745.9016 0.401 -0.639 0.656 113 175 223
-4238.4639 3103.4387 1712.1132 0.412 -0.626 0.662 112 176 224
-4213.3999 3093.1692 1699.0110 0.382 -0.644 0.663 112 176 225
-4184.9175 3080.1353 1684.6073 0.437 -0.609 0.661 111 175 223
-4099.9614 3031.6836 1645.0527 0.311 -0.656 0.688 110 174 221
-4121.2158 3057.6616 1650.0168 0.085 -0.732 0.676 111 174 220
-3696.6631 2763.2981 1470.9420 -0.032 -0.572 0.820 116 173 215
-3695.3271 2770.6360 1467.4371 -0.160 -0.691 0.705 116 174 215
-3595.7419 2698.6763 1426.4690 0.359 -0.588 0.724 116 174 215
-3569.3013 2685.5059 1413.4791 0.444 -0.613 0.653 122 173 203
-3556.9763 2683.7012 1405.8813 0.438 -0.612 0.658 133 150 166
-3526.2725 2675.0566 1388.4302 0.217 -0.681 0.699 64 50 48
-3457.3237 2683.6614 1339.2703 -0.204 -0.449 -0.870 60 30 14
-3433.6646 2680.2771 1324.6569 -0.396 -0.571 -0.719 55 37 34
-3457.7048 2708.7585 1330.5924 -0.449 -0.864 0.230 100 89 91
-3422.0242 2686.9277 1314.5073 -0.429 -0.870 0.244 134 127 133
-3385.7769 2664.4717 1298.2657 -0.429 -0.870 0.244 128 130 142
-3347.6616 2640.2805 1281.3929 -0.434 -0.863 0.260 121 131 150
-3295.1677 2603.6794 1259.3241 -0.439 -0.870 0.227 115 129 150
-3270.7954 2590.8804 1247.5848 -0.371 -0.906 0.202 114 123 143
-3243.3826 2575.3828 1234.7731 -0.180 -0.963 0.201 114 116 129
-3220.9399 2564.0491 1223.8025 0.570 -0.622 0.537 82 76 85
-3097.4343 2574.9417 1137.3528 0.092 -0.913 -0.397 136 78 47
-3076.2458 2563.8914 1127.1198 0.322 -0.766 -0.556 129 73 42
-3080.7966 2575.9846 1125.8580 0.171 -0.812 -0.558 123 67 37
-3125.0662 2665.1980 1123.7025 0.195 -0.965 0.177 96 52 21
-2950.2397 2568.2156 1041.3362 -0.286 -0.920 -0.269 53 43 35
-2912.3032 2548.5215 1022.9824 -0.119 -0.649 -0.751 61 55 49
-2925.4678 2569.0178 1024.4889 0.357 -0.891 -0.281 77 68 59
-2920.6396 2572.5105 1020.0177 0.456 -0.868 -0.195 77 68 59
-2908.2073 2568.7551 1013.0422 0.005 -0.981 0.195 67 58 49
-2872.6248 2683.1384 948.5413 -0.006 -0.493 -0.870 154 94 73
-2824.1431 2693.7244 912.3598 0.178 -0.321 -0.930 120 68 43
-2849.3718 2772.1377 901.3181 0.229 -0.630 0.742 70 28 20
-2833.2249 2764.0930 893.3859 0.226 -0.632 0.741 70 30 30
-2483.6965 2796.9663 647.9996 -0.356 -0.734 0.579 159 80 35
-2458.9968 2776.3596 638.8204 -0.404 -0.746 0.529 145 68 24
-2435.8765 2757.5247 630.0665 -0.398 -0.747 0.532 131 56 13
-2413.1936 2739.0867 621.4639 -0.430 -0.732 0.528 126 49 6
-2388.5537 2718.1206 612.4525 -0.430 -0.732 0.528 131 54 9
-2359.7974 2691.9539 602.5400 -0.460 -0.727 0.510 150 72 29
-2323.7229 2665.5393 587.8231 -0.278 -0.785 0.554 175 101 51
-2299.9104 2645.0271 579.2034 0.077 -0.746 0.662 176 103 51
-2258.4995 2602.5051 566.6516 -0.332 -0.803 0.495 178 102 51
-2260.9358 2947.5886 445.4575 0.368 -0.630 0.684 129 63 40
-2389.9114 3160.0977 456.0509 -0.168 -0.096 -0.981 166 81 38
-2415.5825 3218.5652 452.4040 -0.131 -0.081 -0.988 179 92 45
-2494.4023 3485.4502 410.1107 -0.199 -0.749 0.632 49 16 12
-2250.8879 3310.0024 309.7487 0.786 -0.359 0.503 7 7 7
-2223.1431 3502.5654 222.6618 -0.147 -0.704 -0.695 137 121 120
-2216.5964 3504.6660 217.5372 -0.129 -0.712 -0.690 208 185 187
-4836.4619 3053.1587 2117.3152 -0.374 -0.887 0.272 126 129 118
-4764.2993 3013.5144 2083.3479 -0.334 -0.902 0.274 125 128 117
-4193.9185 2741.1562 1800.1947 0.021 -0.470 -0.883 155 156 148
-4179.7881 2747.6880 1788.4274 -0.013 -0.417 -0.909 151 152 144
-4049.6021 2671.7773 1728.7194 -0.514 -0.816 -0.264 157 154 144
-4822.5278 3288.4971 2023.7864 0.352 -0.611 0.709 129 122 112
-4469.1343 3059.8503 1869.7906 0.084 -0.944 -0.319 135 127 116
-4255.9131 2939.1641 1770.6965 0.499 -0.794 -0.348 133 127 117
-4242.4858 2938.0476 1762.1357 0.544 -0.617 -0.568 132 128 122
-4240.4082 2945.3325 1758.1418 0.471 -0.601 -0.646 97 95 91
-4236.6494 2951.3835 1753.4678 0.421 -0.646 -0.637 37 41 41
-4233.4473 2957.8616 1749.0123 0.421 -0.646 -0.637 22 33 39
-4194.7397 2937.7576 1730.3771 0.373 -0.622 -0.688 94 115 128
-4193.1313 2945.3857 1726.5736 0.367 -0.627 -0.687 149 176 195
-4190.3716 2952.1665 1722.3049 0.254 -0.832 -0.494 147 182 207
-4184.5835 2956.6755 1716.8286 0.065 -0.788 -0.612 140 181 211
-4242.2051 3110.2905 1700.3007 0.309 -0.641 0.703 118 179 225
-4226.7148 3107.5144 1690.9573 0.309 -0.641 0.703 116 178 224
-3979.2998 2940.1641 1585.7460 -0.165 -0.711 0.684 116 177 222
-3610.9302 2706.1052 1423.6936 -0.177 -0.946 0.273 123 180 220
-3457.0544 2695.0161 1324.9764 -0.213 -0.656 -0.724 60 43 46
-3470.0515 2714.2107 1326.7797 -0.445 -0.866 0.227 113 105 113
-3432.9255 2691.2205 1310.2329 -0.450 -0.869 0.206 149 155 165
-3395.9341 2668.1926 1293.7893 -0.450 -0.869 0.206 142 159 177
-3357.8127 2644.0549 1276.9889 -0.434 -0.863 0.260 127 155 183
-3305.8987 2608.0269 1255.2399 -0.439 -0.870 0.227 127 162 193
-3284.7437 2598.0134 1244.7063 -0.442 -0.886 0.139 136 168 199
-3248.6777 2575.1667 1228.8154 -0.263 -0.946 0.188 144 171 198
-3222.4153 2560.5813 1216.5100 0.569 -0.625 0.535 128 151 175
-3094.5286 2575.4670 1125.8395 0.150 -0.821 -0.551 124 71 40
-3089.8352 2579.2520 1121.3527 0.210 -0.761 -0.614 119 68 37
-3084.2520 2582.2363 1116.5588 0.229 -0.782 -0.579 114 62 31
-3070.8608 2578.1448 1109.0869 -0.256 -0.955 -0.151 111 57 25
-3057.5615 2574.0940 1101.6616 -0.264 -0.955 -0.135 108 52 20
-3055.5215 2580.2610 1098.0930 -0.146 -0.985 -0.087 107 52 22
-2960.0857 2572.4851 1037.1887 -0.286 -0.920 -0.269 56 40 28
-2953.0908 2573.9758 1031.9873 -0.296 -0.900 -0.321 53 37 26
-2941.5107 2571.1306 1025.2778 0.190 -0.921 -0.340 62 49 39
-2934.7571 2572.8169 1020.1675 0.035 -0.963 -0.268 74 60 49
-2927.0654 2573.6040 1014.7529 0.008 -0.972 -0.235 76 64 53
-2913.7104 2568.9873 1007.4930 -0.043 -0.981 0.187 66 58 46
-2876.9614 2665.1934 948.5361 0.377 -0.414 -0.829 150 111 93
-2850.4661 2689.4680 922.1667 0.738 -0.647 0.191 59 22 3
-2884.8394 2750.4346 923.2845 0.396 -0.376 -0.838 133 85 62
-2889.8911 2764.3796 921.6647 0.452 -0.391 -0.802 122 79 54
-2881.6736 2773.5300 912.9057 0.691 0.020 -0.722 107 69 43
-2898.5388 2799.8503 914.7401 0.107 -0.289 -0.951 91 51 27
-2670.1899 2604.6641 832.2150 0.386 -0.510 0.769 49 33 26
-2590.0247 2586.2449 785.3107 -0.562 -0.824 0.079 56 23 7
-2573.6440 2576.9248 777.7151 -0.566 -0.816 0.116 59 23 8
-2786.4260 2880.1597 811.1801 0.645 0.002 -0.765 174 95 47
-2492.5613 2801.4521 643.2454 -0.501 -0.776 0.383 161 79 39
-2436.7615 2752.4558 623.5446 -0.500 -0.789 0.357 130 56 16
-2413.0881 2732.8425 614.7665 -0.456 -0.754 0.473 121 47 6
-2388.4424 2711.9011 605.8148 -0.502 -0.761 0.409 122 49 7
-2363.8228 2690.8418 596.9227 -0.503 -0.761 0.409 140 69 27
-2318.7798 2653.4409 580.2503 -0.292 -0.822 0.489 172 98 51
-2303.4326 2643.4033 573.6013 0.040 -0.764 0.644 176 102 53
-2278.7644 2621.7285 564.8970 -0.303 -0.821 0.484 176 102 53
-2178.3311 2548.5046 524.0823 0.569 -0.801 -0.183 176 103 53
-2234.3306 2673.1875 516.8271 0.103 -0.898 0.427 177 103 53
-2151.6711 2638.1436 474.2085 0.659 -0.618 -0.427 153 84 35
-2202.5596 2810.0205 446.6514 0.206 -0.501 -0.840 117 43 19
-2373.8877 3065.4934 469.5475 -0.488 -0.762 0.424 132 54 31
-2311.6699 2990.1758 454.9846 -0.082 -0.683 0.726 137 61 36
-2659.3489 3604.9180 466.9787 -0.392 -0.230 -0.891 204 124 84
-2236.6929 3476.8408 230.7673 0.501 -0.255 -0.827 40 40 37
-2232.0190 3520.9358 211.8662 0.490 -0.345 -0.801 209 186 189
-4227.2593 2768.2524 1801.5834 -0.187 -0.960 -0.207 154 154 146
-4842.9839 3268.5247 2031.6643 0.766 -0.556 -0.323 132 123 112
-4270.7939 2927.5449 1773.2526 0.524 -0.788 -0.323 137 127 113
-4247.3887 2919.1189 1760.6951 0.368 -0.711 -0.599 137 128 115
-4253.7236 2932.5552 1760.0790 0.377 -0.646 -0.664 136 129 115
-4250.6636 2939.0964 1755.6865 0.325 -0.678 -0.659 142 137 127
-4239.9805 2966.5676 1738.6838 0.471 -0.601 -0.646 119 146 161
-4233.6582 2970.7366 1732.9722 0.363 -0.787 -0.499 148 184 207
-4198.7280 2953.3909 1715.9482 0.254 -0.832 -0.494 143 186 218
-3607.7329 2698.7146 1413.9503 0.003 -0.977 0.214 133 184 223
-3559.7590 2668.2261 1392.9680 -0.077 -0.987 -0.143 132 186 222
-3554.0913 2671.7793 1387.9141 -0.029 -0.963 -0.268 136 174 202
-3544.2615 2671.9551 1381.3032 -0.007 -0.940 -0.340 99 119 136
-3536.7234 2673.9768 1375.5546 -0.007 -0.940 -0.340 58 63 69
-3472.9536 2646.2117 1343.0709 -0.374 -0.921 0.106 69 35 14
-3496.5750 2706.6155 1337.0656 -0.104 -0.750 -0.653 64 29 14
-3487.1628 2707.0413 1330.6431 -0.146 -0.765 -0.627 60 31 27
-3472.4246 2702.9900 1322.2842 -0.213 -0.656 -0.724 66 48 53
-3477.0049 2715.1155 1320.9712 -0.423 -0.885 0.196 102 97 108
-3444.4685 2696.0381 1306.1649 -0.443 -0.871 0.212 132 151 165
-3408.9714 2674.3315 1290.3328 -0.444 -0.871 0.211 142 175 196
-3351.4360 2633.8196 1266.5892 -0.421 -0.870 0.257 134 178 209
-3326.6926 2620.9038 1254.7562 -0.437 -0.875 0.207 129 179 216
-3296.8616 2603.5623 1241.1273 -0.439 -0.887 0.144 131 178 215
-3194.7676 2540.0007 1195.9994 0.597 -0.466 0.652 118 165 201
-3085.4111 2570.4009 1112.2170 0.417 -0.677 0.606 108 63 35
-2969.7109 2576.5317 1032.9441 -0.294 -0.898 -0.327 71 45 24
-2959.6377 2575.1477 1026.7325 -0.201 -0.787 -0.583 69 42 25
-2916.6064 2566.7407 1001.0956 0.143 -0.987 -0.076 49 42 26
-2908.0789 2566.6863 995.4350 0.306 -0.879 -0.366 38 38 20
-2903.3025 2570.1970 990.9899 0.306 -0.879 -0.366 31 32 14
-2898.5251 2573.7090 986.5439 0.306 -0.879 -0.366 24 27 10
-2877.1055 2660.0327 941.2089 0.755 -0.600 -0.264 142 102 91
-2878.3403 2669.6924 938.5548 0.500 -0.818 0.282 118 72 63
-2872.0300 2671.8354 933.5804 0.500 -0.818 0.282 93 49 38
-2842.2439 2684.2449 909.2740 0.636 -0.720 -0.279 119 80 75
-2991.2703 2853.6770 947.5607 0.458 -0.236 -0.857 97 60 54
-2910.3901 2779.8162 920.2696 0.688 -0.367 -0.626 79 52 43
-3008.3354 2889.3616 946.0848 0.176 -0.259 -0.950 55 38 24
-2698.8823 2612.6392 839.5532 0.375 -0.471 0.799 36 39 32
-2627.4756 2621.1213 788.9371 -0.703 -0.673 -0.229 82 36 13
-2443.9473 2755.0337 618.4963 -0.524 -0.780 0.341 128 54 16
-2416.1775 2730.5024 608.8278 -0.454 -0.756 0.471 115 46 6
-2393.7815 2712.3447 600.4450 -0.503 -0.760 0.412 114 48 7
-2369.0366 2691.1851 591.5781 -0.507 -0.779 0.368 127 64 22
-2320.2148 2649.2336 574.1567 -0.526 -0.796 0.300 163 91 47
-2297.9900 2630.7290 566.0127 -0.532 -0.792 0.299 171 97 53
-2275.6401 2611.9355 557.8894 -0.538 -0.796 0.276 171 98 53
-2281.2258 2627.6729 555.9461 0.067 -0.717 0.694 172 98 52
-2243.2903 2606.8564 538.1696 0.660 -0.629 0.411 173 99 53
-2228.8208 2615.1506 525.5464 0.651 -0.228 -0.724 173 101 54
-2229.3669 2624.7244 522.4647 0.683 -0.274 -0.677 172 100 53
-2234.0740 2639.6340 520.2339 0.642 -0.357 -0.678 172 100 53
-2241.8679 2667.6067 515.3581 0.733 -0.653 -0.191 170 98 51
-2236.3354 2669.5850 510.9611 0.116 -0.895 0.431 170 98 51
-2158.5110 2631.9028 472.6847 0.659 -0.618 -0.427 121 59 22
-2155.8086 2637.3948 468.9083 0.659 -0.618 -0.427 120 59 21
-2207.6980 2771.7092 455.1318 0.357 -0.596 -0.719 109 53 22
-2216.3196 2792.9500 453.2299 -0.038 -0.815 -0.578 111 56 27
-2257.2285 2918.0850 435.4433 0.489 -0.653 0.578 166 86 48
-2593.5647 3490.0427 453.6270 0.161 -0.323 -0.933 201 124 85
-2249.1714 3437.1201 243.2771 0.884 -0.171 -0.435 37 38 42
-767.6960 2199.7488 -298.1908 -0.810 -0.339 -0.479 42 27 22
-4439.0122 2877.7227 1891.6023 -0.414 -0.882 0.224 148 149 141
-4290.3208 2791.1470 1824.0753 -0.422 -0.885 0.196 151 152 144
-4271.9004 2786.6204 1813.4668 -0.193 -0.905 0.380 149 150 142
-4238.4302 2771.4790 1796.6935 -0.187 -0.960 -0.207 138 139 131
-4211.9834 2769.4675 1779.8383 -0.071 -0.596 -0.800 115 114 102
-4191.5898 2763.3440 1768.4958 -0.065 -0.620 -0.782 106 102 90
-4861.4717 3247.2717 2038.7410 0.660 -0.672 -0.337 116 110 98
-4601.2002 3071.6118 1929.2678 0.628 -0.250 -0.737 126 118 106
-4581.0278 3066.3740 1917.7518 0.747 -0.226 -0.626 131 121 111
-4258.8022 2913.8081 1758.7314 0.134 -0.533 -0.835 137 127 115
-4255.6431 2920.2302 1754.3073 0.368 -0.711 -0.599 137 128 114
-4262.3672 2933.9424 1753.8156 0.377 -0.646 -0.664 137 128 113
-4259.6611 2940.7461 1749.5542 0.325 -0.678 -0.659 134 125 114
-4253.5747 2953.8994 1740.7477 0.420 -0.636 -0.647 30 32 33
-4250.4751 2960.4556 1736.3143 0.420 -0.636 -0.647 49 64 70
-4245.7480 2965.8105 1731.2336 0.260 -0.802 -0.538 131 159 175
-4240.7080 2970.9387 1726.0272 0.260 -0.802 -0.538 147 185 212
-4208.5234 2955.6904 1710.1472 0.591 -0.641 -0.490 138 187 221
-4213.0220 2967.9558 1708.6996 -0.053 -0.762 -0.645 135 188 226
-3624.8901 2699.4824 1414.8367 -0.313 -0.943 0.115 131 185 223
-3611.7805 2697.1670 1406.9586 0.003 -0.977 0.214 132 185 224
-3576.5940 2677.0332 1390.8511 -0.008 -1.000 0.003 133 184 221
-3556.7981 2669.1987 1380.5250 0.466 -0.812 -0.353 134 175 206
-3557.6177 2678.0012 1377.8843 0.436 -0.833 -0.342 94 119 139
-3546.3198 2676.9893 1370.7393 0.010 -0.997 0.080 58 63 68
-3547.2808 2685.9390 1368.1394 0.440 -0.826 -0.353 61 46 36
-3481.6926 2689.3545 1323.2972 0.133 -0.529 -0.838 65 29 16
-3497.9460 2711.1277 1326.2238 -0.118 -0.776 -0.619 61 28 27
-3488.7493 2711.7336 1319.8901 -0.141 -0.765 -0.629 69 47 55
-3488.0183 2719.4185 1316.6230 -0.423 -0.885 0.196 99 97 113
-3456.3259 2701.1021 1302.1809 -0.443 -0.871 0.212 130 151 164
-3416.7654 2676.0286 1284.9528 -0.446 -0.872 0.202 139 176 196
-3362.1946 2638.1033 1262.3960 -0.422 -0.896 0.138 131 180 210
-3355.9268 2640.8916 1257.2198 -0.419 -0.896 0.144 126 180 217
-3328.0466 2625.3015 1244.3254 -0.406 -0.908 0.104 127 180 218
-3232.8215 2560.0518 1204.6278 -0.216 -0.970 0.111 125 180 215
-3332.7539 2711.3545 1216.3141 -0.422 -0.766 0.485 54 46 35
-3094.5774 2573.7788 1107.7488 0.502 -0.642 0.579 101 58 36
-3069.3208 2566.9993 1093.4105 0.737 -0.595 0.320 99 55 30
-3046.5129 2562.2891 1079.9513 0.602 -0.792 0.105 98 48 33
-2992.7981 2585.0574 1035.9998 -0.469 -0.817 -0.337 77 49 30
-2980.9712 2582.0908 1029.2101 -0.354 -0.897 -0.266 74 43 25
-2974.8066 2584.3955 1024.2775 -0.277 -0.790 -0.547 71 41 23
-2883.3699 2530.2383 983.0845 0.471 -0.868 -0.160 52 47 30
-2880.6570 2535.6143 979.3353 0.495 -0.853 -0.166 44 43 27
-2907.8604 2569.5366 985.1456 0.293 -0.864 -0.408 38 37 22
-2903.2297 2573.1873 980.7458 0.293 -0.864 -0.408 33 29 13
-2878.9602 2664.9978 931.3857 0.539 -0.785 0.304 81 43 36
-2869.6753 2664.1572 925.5169 0.533 -0.801 0.274 50 17 9
-2849.3455 2660.6343 913.2755 0.687 -0.162 -0.709 72 35 32
-2851.7759 2680.0088 907.8801 0.694 -0.711 -0.110 97 58 55
-3044.2820 2929.6929 945.5114 0.475 -0.278 -0.835 42 38 24
-2713.5818 2631.0154 833.7318 0.867 -0.081 -0.491 34 34 21
-2953.0144 2908.7720 892.4032 -0.620 -0.774 0.129 42 27 20
-2449.9756 2756.2012 613.1712 -0.465 -0.749 0.472 127 53 19
-2418.7300 2727.5200 602.7768 -0.378 -0.716 0.587 113 47 10
-2399.2693 2712.9661 595.1052 -0.460 -0.751 0.473 109 47 11
-2380.1223 2698.6848 587.5435 -0.546 -0.753 0.368 116 61 22
-2350.2661 2671.1978 577.6406 -0.526 -0.795 0.303 126 73 30
-2329.0747 2654.1511 569.7204 -0.526 -0.795 0.303 152 88 45
-2308.1768 2637.3408 561.9099 -0.526 -0.795 0.303 169 102 60
-2284.0554 2616.4275 553.4409 -0.537 -0.796 0.281 171 101 61
-2241.5449 2643.0620 515.5394 0.628 -0.382 -0.678 158 88 48
-2245.9929 2666.7356 509.9296 0.737 -0.645 -0.203 146 76 36
-2223.2024 2664.6636 495.5273 0.083 -0.852 0.517 124 65 34
-2180.0012 2644.8337 473.9811 0.541 -0.761 0.359 109 55 29
-2171.5237 2642.7944 469.0828 0.568 -0.760 0.315 105 51 26
-2154.5549 2675.1670 446.0860 0.914 -0.206 -0.349 107 50 24
-2219.4993 2781.0044 450.9637 0.359 -0.575 -0.735 110 54 28
-2508.5283 3280.2983 462.4388 0.670 -0.649 0.361 183 89 47
-2532.5603 3325.1206 462.1962 0.652 -0.749 0.117 185 88 42
-2530.1187 3333.2119 457.6446 0.672 -0.731 0.120 186 92 40
-2614.2700 3486.7695 458.0229 0.139 -0.441 -0.887 213 132 95
-2454.3477 3388.8376 387.1385 -0.073 -0.887 -0.455 60 23 13
-2352.2529 3285.5347 356.6446 0.589 -0.762 -0.269 18 4 4
-2243.2695 3284.5027 284.5605 0.395 -0.389 -0.832 10 10 8
-2253.9958 3435.8406 236.9256 0.702 -0.669 0.245 37 38 42
-4788.0835 3023.7793 2058.4893 -0.361 -0.931 -0.051 130 132 119
-4403.5410 2831.4043 1873.3016 -0.446 -0.803 -0.394 147 148 140
-4392.3945 2832.1707 1865.6259 -0.421 -0.802 -0.423 148 149 141
-4888.4248 3251.3416 2042.2750 0.650 -0.690 -0.318 116 108 96
-4628.6206 3085.9922 1930.0312 0.691 -0.257 -0.675 134 122 109
-4280.6162 2924.8264 1757.7345 0.157 -0.522 -0.838 137 127 115
-4265.0547 2922.1846 1748.3690 0.535 -0.687 -0.491 137 127 116
-4271.0215 2935.3318 1747.5452 0.377 -0.646 -0.664 137 129 115
-4267.4399 2941.4907 1742.9274 0.350 -0.677 -0.647 121 115 103
-4264.9351 2948.4575 1738.7300 0.420 -0.636 -0.647 41 41 37
-4260.1377 2953.7412 1733.6239 0.524 -0.763 -0.378 26 32 34
-4255.7700 2959.3513 1728.6842 0.521 -0.770 -0.369 66 83 90
-4251.1162 2964.7571 1723.6290 0.289 -0.799 -0.528 144 173 189
-4246.1772 2969.9570 1718.4592 0.289 -0.799 -0.528 147 183 212
-4214.8257 2955.3628 1702.9645 0.591 -0.641 -0.490 138 187 221
-3616.2004 2695.9219 1400.1124 0.020 -0.944 0.330 132 185 225
-3579.6218 2674.7051 1383.5585 0.113 -0.993 0.045 133 184 222
-3567.8284 2673.3381 1376.2296 0.436 -0.833 -0.342 132 174 207
-3563.1611 2677.7073 1371.5427 0.436 -0.833 -0.342 94 120 141
-3558.4910 2682.0784 1366.8529 0.436 -0.833 -0.342 57 62 68
-3552.8621 2685.6743 1361.8091 0.440 -0.826 -0.353 62 47 37
-3527.1399 2722.2039 1331.4479 -0.122 -0.576 -0.808 65 29 17
-3512.8677 2718.6426 1323.2725 -0.121 -0.770 -0.627 62 28 26
-3504.5876 2720.0408 1317.2690 -0.135 -0.755 -0.642 69 47 53
-3483.9207 2711.0618 1306.8214 -0.415 -0.890 0.189 99 97 111
-3453.9060 2694.1670 1293.0507 -0.415 -0.890 0.189 130 152 167
-3418.3928 2672.5293 1277.3572 -0.440 -0.879 0.183 137 176 198
-3378.3384 2646.9158 1260.0964 -0.413 -0.900 0.140 129 180 212
-3377.1187 2654.0034 1256.7080 -0.146 -0.712 -0.687 126 180 219
-3327.0537 2627.7046 1233.0537 -0.233 -0.429 -0.873 124 181 218
-3090.5972 2565.3638 1098.8225 0.526 -0.642 0.558 92 52 30
-3076.9763 2561.0896 1091.3389 0.322 -0.772 0.548 91 53 30
-3058.9839 2560.7703 1079.5151 0.570 -0.651 0.501 94 50 33
-3049.0928 2559.7700 1073.3153 0.627 -0.616 0.478 94 49 34
-3036.1028 2555.9282 1066.0929 0.538 -0.688 0.487 94 50 34
-2888.7134 2530.3835 977.5787 0.485 -0.858 -0.167 62 53 37
-2883.9138 2533.7761 973.1592 0.639 -0.755 -0.144 53 48 34
-2879.5325 2545.5476 965.9686 0.553 -0.806 -0.211 41 33 18
-3044.9592 2887.7874 951.2187 0.386 -0.181 -0.905 61 34 30
-2860.0767 2823.0337 852.0905 -0.673 -0.735 -0.077 59 26 11
-2980.3479 2959.7205 882.1682 -0.699 -0.686 -0.200 76 40 9
-2448.8245 2748.7080 606.2242 -0.377 -0.691 0.617 128 54 20
-2386.4070 2700.3108 582.4134 -0.547 -0.750 0.373 109 55 16
-2355.0144 2671.0183 572.2395 -0.485 -0.775 0.405 113 60 19
-2334.6838 2655.0676 564.5518 -0.504 -0.788 0.354 139 78 37
-2304.2468 2626.5872 554.7164 0.053 -0.757 0.651 158 95 57
-2293.8362 2622.5820 549.2652 0.232 -0.650 0.724 160 92 57
-2252.5039 2615.3132 524.4816 0.919 -0.344 0.192 149 81 44
-2253.9604 2625.9807 521.5666 0.625 -0.372 -0.686 142 74 38
-2249.5049 2638.1545 514.1803 0.620 -0.383 -0.685 137 69 33
-2197.7803 2652.7703 474.5373 -0.103 -0.841 0.531 100 46 20
-2214.7964 2758.6106 447.3179 0.890 0.078 -0.450 110 54 29
-2216.8313 2828.8228 423.1206 -0.144 -0.628 -0.764 176 84 43
-2301.2114 2964.6394 429.6973 0.511 -0.598 0.617 182 91 46
-2567.3528 3365.5247 460.4438 0.017 -0.961 0.275 187 94 49
-2562.8342 3370.8423 455.5102 0.049 -0.941 0.336 189 100 50
-2547.4551 3360.9775 448.8939 -0.010 -0.820 0.573 192 108 60
-2623.0754 3539.4561 434.1346 0.363 -0.533 0.764 62 20 5
-2605.1833 3538.4343 422.6330 0.464 -0.543 -0.700 61 25 13
-2399.4644 3265.7854 385.3228 -0.093 -0.882 -0.462 58 24 12
-2466.3862 3398.0520 381.6058 -0.173 -0.941 -0.292 60 24 13
-2407.1636 3346.7502 360.9720 -0.521 -0.833 0.187 28 8 9
-2355.0278 3281.4478 350.1355 0.595 -0.756 -0.272 18 4 5
-2214.9329 3503.0925 176.5187 0.833 -0.206 -0.513 208 178 185
-1928.8129 5129.0708 -604.9868 -0.085 -0.853 0.515 239 189 192
-4711.6636 2889.0103 2044.8523 -0.328 -0.208 -0.922 113 111 99
-4988.5669 3316.6526 2071.8152 0.377 -0.685 -0.623 135 126 116
-4987.5918 3325.7954 2067.8245 0.347 -0.709 -0.614 137 125 113
-4278.6929 2927.2256 1744.0842 0.654 -0.752 -0.079 142 130 121
-4277.4565 2935.0862 1740.3894 0.619 -0.740 -0.264 138 131 117
-4272.9956 2940.5955 1735.4193 0.619 -0.740 -0.264 106 103 91
-4269.2949 2946.6736 1730.7444 0.620 -0.740 -0.259 31 34 27
-4263.4780 2951.1968 1725.2366 0.618 -0.745 -0.251 29 37 38
-4259.4141 2957.0239 1720.4128 0.613 -0.747 -0.258 88 105 112
-4255.6831 2963.1089 1715.7155 0.617 -0.746 -0.251 149 178 194
-4247.3477 2965.7688 1709.2213 0.607 -0.754 -0.250 148 183 212
-3624.5774 2697.8479 1394.7330 0.072 -0.935 0.346 132 186 225
-3584.4761 2673.8501 1376.9506 0.113 -0.993 0.045 136 187 225
-3574.0049 2673.5547 1370.1228 0.439 -0.827 -0.350 134 175 209
-3569.3989 2677.9734 1365.4553 0.439 -0.827 -0.350 108 131 154
-3564.7898 2682.3945 1360.7850 0.439 -0.827 -0.350 67 70 77
-3558.4438 2685.4102 1355.4784 0.440 -0.826 -0.353 61 46 36
-3541.0098 2720.4885 1331.0974 -0.105 -0.562 -0.820 63 32 7
-3544.7661 2731.8984 1329.4113 -0.117 -0.541 -0.833 65 29 17
-3527.4556 2725.8540 1320.1565 -0.185 -0.716 -0.673 62 29 26
-3512.7151 2721.8958 1311.8409 -0.030 -0.371 -0.928 70 47 52
-3481.3718 2712.2908 1294.5940 -0.268 -0.707 -0.655 129 151 166
-3430.7209 2686.2285 1270.5790 -0.150 -0.508 -0.848 130 181 213
-3402.6013 2670.6953 1257.6361 -0.001 -0.525 -0.851 128 181 221
-3076.5000 2555.8357 1083.6565 0.322 -0.772 0.548 80 49 30
-3067.6614 2555.8196 1077.8080 0.242 -0.798 0.552 81 47 29
-3066.2319 2562.4695 1074.4283 0.449 -0.663 0.599 89 52 34
-3059.5300 2564.3682 1069.2946 0.522 -0.653 0.549 90 53 35
-3051.3757 2564.9412 1063.6837 0.591 -0.698 0.403 91 54 35
-3042.1484 2564.5220 1057.7251 0.598 -0.714 0.363 87 53 33
-3035.2190 2566.1792 1052.5291 0.591 -0.649 0.478 85 48 30
-2999.1648 2549.0918 1034.8992 0.188 -0.965 0.185 85 50 31
-2971.0564 2531.1653 1022.8392 0.314 -0.933 0.176 82 50 30
-2983.0361 2598.3135 1006.2086 0.168 -0.953 -0.252 83 55 36
-2896.2043 2532.5562 972.7505 0.552 -0.807 -0.212 70 56 40
-2888.5330 2533.2341 967.4211 0.701 -0.701 -0.129 64 52 38
-2885.1367 2545.9333 960.5257 0.586 -0.749 -0.307 50 36 20
-2881.4934 2550.4514 956.4595 0.586 -0.749 -0.307 42 28 12
-2871.6462 2655.5339 911.4935 0.743 -0.610 -0.273 69 45 35
-2926.0359 2726.8379 921.4335 0.892 -0.243 0.382 69 40 32
-2922.8142 2732.2222 917.3298 0.892 -0.243 0.382 56 30 21
-3018.1677 2836.9297 942.1826 0.987 -0.161 -0.009 48 22 16
-2945.6431 2772.6045 917.6773 0.970 -0.209 0.128 55 32 25
-2952.1204 2877.6560 883.5353 0.935 -0.003 -0.356 40 15 1
-2568.0706 2829.5376 646.7556 0.807 -0.256 0.533 171 85 38
-2429.9712 2728.9932 592.0660 -0.335 -0.676 0.657 117 49 12
-2384.2607 2691.6917 575.4353 -0.377 -0.697 0.610 104 49 11
-2360.4478 2671.6721 566.9863 -0.485 -0.775 0.405 102 50 9
-2336.1638 2650.9341 558.4882 -0.454 -0.779 0.432 118 61 24
-2304.8469 2621.4290 548.5389 0.054 -0.759 0.649 132 72 37
-2265.3979 2643.2319 514.4326 0.945 -0.194 -0.265 118 54 21
-2290.5493 2942.9121 421.4564 0.471 -0.572 0.672 182 90 46
-2248.9812 2895.8291 411.1478 0.309 -0.503 0.807 183 92 47
-2615.0793 3411.9438 464.8239 0.510 -0.584 0.631 183 90 49
-2607.2505 3412.8252 459.3159 0.510 -0.584 0.631 189 99 56
-2617.9626 3535.8528 421.4026 -0.093 -0.718 -0.690 61 23 10
-2394.3147 3319.5486 352.3979 -0.384 -0.875 0.296 28 8 9
-2269.1934 3307.7444 273.8394 0.285 -0.741 0.608 9 9 9
-2258.4316 3302.9688 268.4584 0.319 -0.748 0.582 16 16 16
-2219.3755 3501.0737 170.1135 0.833 -0.206 -0.513 201 173 179
-1887.1031 5042.8198 -614.0107 -0.722 -0.685 -0.101 233 181 185
-4670.9761 2840.7119 2023.7700 -0.310 -0.208 -0.928 102 99 90
-4742.8765 2904.8167 2047.7271 -0.296 -0.205 -0.933 113 111 99
-4726.7324 2902.8540 2037.7755 -0.303 -0.212 -0.929 117 117 105
-4714.9004 2903.6997 2029.6417 -0.293 -0.208 -0.933 122 124 111
-4857.2549 3051.3904 2069.4338 -0.467 -0.860 -0.203 126 130 120
-4570.3003 2901.9304 1934.6924 -0.512 -0.823 -0.248 147 150 143
-4325.2061 2938.6658 1759.1400 0.492 -0.736 -0.465 142 133 118
-4285.9688 2918.8628 1740.4829 0.526 -0.739 -0.421 137 128 113
-4273.2466 2944.5928 1722.6077 0.700 -0.713 -0.025 35 35 27
-4267.0942 2948.8630 1716.9696 0.655 -0.750 0.086 46 52 52
-4262.1724 2954.0464 1711.8091 0.667 -0.740 0.086 117 134 139
-4256.4067 2958.6089 1706.3190 0.667 -0.740 0.086 148 175 191
-4221.3853 2941.3730 1689.5049 0.782 -0.619 -0.071 146 183 210
-3626.7969 2694.8445 1387.0798 0.072 -0.935 0.346 135 188 228
-3582.3911 2667.4341 1367.8037 0.434 -0.834 -0.340 137 188 226
-3579.5686 2673.2764 1363.7887 0.439 -0.827 -0.350 137 178 211
-3574.9639 2677.6951 1359.1191 0.439 -0.827 -0.350 133 156 178
-3570.3567 2682.1165 1354.4468 0.439 -0.827 -0.350 83 86 91
-3565.7463 2686.5405 1349.7716 0.439 -0.827 -0.350 61 46 34
-3554.6758 2685.7173 1342.7552 -0.059 -0.997 0.058 67 40 18
-3516.7354 2662.9622 1326.0413 -0.217 -0.960 0.177 71 38 11
-3520.5857 2748.5415 1297.1091 -0.101 -0.320 -0.942 138 176 197
-3465.9492 2710.9795 1274.8031 -0.214 -0.526 -0.823 135 185 215
-3082.7886 2556.6572 1078.2450 0.442 -0.669 0.597 101 76 62
-3074.4468 2557.0962 1072.5685 0.442 -0.669 0.597 89 61 46
-3067.6675 2558.9263 1067.4132 0.441 -0.668 0.599 84 55 36
-3061.7842 2561.5576 1062.5558 0.455 -0.668 0.589 82 53 32
-3052.8025 2561.3789 1056.6835 0.538 -0.669 0.514 80 52 28
-2909.5366 2532.2947 972.6631 0.442 -0.856 -0.270 84 59 44
-2902.3079 2533.4111 967.4733 0.555 -0.810 -0.190 78 58 45
-2886.3687 2534.2029 956.6440 0.698 -0.704 -0.134 78 58 47
-2919.5293 2573.7058 964.0378 0.445 -0.894 0.057 68 47 36
-2886.9988 2623.8723 924.0785 0.604 -0.792 0.086 121 94 85
-2881.9778 2627.2109 919.5310 0.604 -0.792 0.086 103 77 68
-2811.4749 2590.4614 886.4362 0.710 -0.695 -0.115 59 41 29
-2805.1418 2592.3486 881.5550 0.701 -0.706 -0.105 62 41 30
-2799.7739 2595.1934 876.9598 0.806 -0.591 -0.030 58 38 24
-2565.9375 2820.8586 639.3583 0.807 -0.256 0.533 168 82 35
-2468.0393 2759.6418 597.1511 -0.361 -0.670 0.649 125 50 17
-2435.1792 2729.2263 586.6135 -0.382 -0.699 0.604 115 47 10
-2413.9453 2712.6475 578.6730 -0.385 -0.785 0.486 108 47 11
-2387.1953 2689.2634 569.5889 -0.385 -0.696 0.607 103 49 10
-2365.8848 2672.3267 561.7294 -0.485 -0.775 0.405 101 49 9
-2224.1746 2825.3440 411.7570 -0.059 -0.694 -0.718 182 90 48
-2688.6648 3517.3579 464.3114 -0.503 -0.821 0.271 195 110 69
-2612.9758 3495.9099 422.1598 0.354 -0.559 0.750 73 23 10
-2368.1750 3284.5137 338.0690 0.260 -0.762 -0.593 19 5 5
-2226.4485 3503.4412 163.8429 0.817 -0.239 -0.525 200 170 177
-1644.6057 4228.7661 -487.6225 -0.541 -0.361 -0.760 230 179 184
-4611.2886 2951.2168 1931.7308 -0.363 -0.315 -0.877 114 117 106
-4604.5786 3062.7271 1886.0669 0.503 -0.763 0.407 133 124 112
-4556.5298 3037.6555 1863.6310 0.508 -0.717 0.478 136 127 114
-4286.9458 2905.9641 1734.4310 0.651 -0.706 -0.280 143 134 119
-4290.1079 2916.9575 1732.4525 0.519 -0.744 -0.420 136 127 112
-4289.9277 2925.5513 1729.1558 0.743 -0.666 -0.070 140 131 115
-4277.4922 2942.7339 1714.5953 0.715 -0.698 0.041 37 32 26
-4270.4126 2946.3157 1708.5991 0.550 -0.795 0.254 63 65 67
-4262.0093 2948.9155 1702.0925 0.593 -0.765 0.251 130 145 150
-4258.7607 2955.3313 1697.5760 0.547 -0.813 0.199 150 177 192
-4230.8979 2943.4478 1683.5841 0.554 -0.816 -0.166 146 184 210
-4226.3418 2948.8635 1678.5747 0.468 -0.852 -0.233 137 188 221
-3606.7112 2674.0491 1371.3053 0.083 -0.995 0.055 136 188 227
-3590.1030 2668.8784 1362.2577 0.258 -0.904 -0.341 138 186 224
-3583.6675 2671.8225 1356.9221 0.433 -0.651 -0.624 137 179 210
-3580.7803 2677.6189 1352.8734 0.433 -0.651 -0.624 132 156 177
-3577.8887 2683.4246 1348.8184 0.433 -0.651 -0.624 82 87 89
-3574.7715 2689.0601 1344.6774 0.430 -0.659 -0.617 61 46 34
-3568.2778 2691.9670 1339.3171 0.063 -0.931 -0.360 69 40 17
-3523.5588 2663.7568 1320.2390 -0.225 -0.974 0.039 72 38 10
-3543.2004 2720.7925 1312.1091 -0.109 -0.627 -0.772 63 30 17
-3537.7432 2724.5637 1307.1133 -0.065 -0.322 -0.944 61 28 26
-3539.6106 2751.1125 1298.5280 -0.135 -0.252 -0.958 129 151 165
-3534.0627 2754.8557 1293.4828 -0.114 -0.244 -0.963 136 176 197
-3008.2329 2555.6211 1020.1635 0.272 -0.761 0.589 69 43 20
-2978.2173 2551.8044 1001.7676 0.254 -0.891 0.377 82 52 34
-2969.1855 2551.3835 995.9631 0.228 -0.906 0.357 81 52 34
-2944.5867 2536.4543 985.2512 0.445 -0.873 -0.200 83 54 36
-2923.4905 2540.5081 969.8307 0.469 -0.846 -0.255 82 55 42
-2921.3164 2546.4119 966.2129 0.471 -0.841 -0.267 82 56 46
-2904.9192 2538.9019 958.1694 0.492 -0.834 -0.250 81 55 48
-2894.4160 2536.9111 951.9745 0.412 -0.885 -0.217 81 55 46
-2892.5764 2543.1184 948.4651 0.616 -0.765 -0.188 74 48 39
-2847.4551 2612.7629 892.9354 0.603 -0.478 0.639 57 46 34
-2836.0933 2634.5769 877.3712 0.932 -0.330 0.150 43 35 18
-2962.9316 2868.1604 874.6938 0.938 -0.003 -0.347 74 28 5
-2961.8540 2876.1401 871.0319 0.939 -0.007 -0.345 81 32 9
-2413.7188 2706.3694 572.0978 -0.400 -0.785 0.473 108 48 12
-2362.0002 2661.6704 554.4982 -0.362 -0.706 0.609 102 50 11
-2284.0161 2672.4636 499.0452 0.321 -0.930 0.181 97 47 26
-2291.0571 2690.3772 497.0671 -0.118 -0.986 0.117 98 48 27
-2202.4353 2798.7358 398.5153 0.611 -0.694 -0.382 187 95 52
-2336.8538 2992.2109 415.6719 0.539 -0.555 0.633 185 92 48
-2710.8206 3539.6089 460.0278 -0.623 -0.767 0.153 221 140 101
-2665.7744 3537.6096 431.0412 0.138 -0.513 -0.847 68 17 0
-2625.9116 3493.6948 420.9752 0.623 -0.503 0.599 64 18 3
-2422.3223 3332.4456 346.2557 -0.479 -0.863 0.159 38 13 14
-2362.5188 3268.0664 330.5984 0.615 -0.761 -0.208 19 5 5
-4628.1660 3074.3584 1885.1494 0.535 -0.630 0.563 134 124 110
-4606.5293 3068.1296 1873.2137 0.593 -0.647 0.479 137 126 113
-4291.7729 2904.5771 1726.6978 0.651 -0.706 -0.280 145 135 123
-4290.8594 2912.5957 1723.1147 0.729 -0.605 -0.319 136 126 114
-4287.5864 2918.9187 1718.6086 0.729 -0.605 -0.319 133 124 108
-4287.1807 2927.3481 1715.2073 0.725 -0.606 -0.327 117 108 92
-4285.3584 2934.7649 1711.2498 0.730 -0.603 -0.322 63 57 46
-4281.7007 2940.8523 1706.5775 0.710 -0.703 0.035 33 32 31
-4273.8882 2943.8909 1700.3021 0.556 -0.818 0.149 78 83 89
-4266.9185 2947.5461 1694.3525 0.556 -0.818 0.149 139 157 167
-4260.7739 2951.8105 1688.7200 0.547 -0.813 0.199 150 180 197
-4235.5342 2941.8916 1675.7827 0.554 -0.816 -0.166 145 185 211
-4231.7998 2947.9143 1671.0840 0.468 -0.852 -0.233 137 187 221
-3590.6006 2664.5527 1354.0922 0.416 -0.666 -0.620 137 189 226
-3590.4299 2672.5061 1351.0228 0.423 -0.656 -0.625 134 179 211
-3587.5020 2678.2690 1346.9519 0.423 -0.656 -0.625 128 159 178
-3584.4087 2683.9111 1342.8168 0.423 -0.659 -0.623 79 88 92
-3558.7585 2728.7327 1309.2588 -0.143 -0.617 -0.774 62 29 16
-3553.4626 2749.3254 1298.1149 -0.132 -0.267 -0.955 102 96 108
-3555.2048 2759.1504 1295.6097 -0.132 -0.267 -0.955 132 151 164
-3520.7400 2738.7461 1280.4946 -0.117 -0.220 -0.968 138 175 196
-3104.1414 2558.2026 1073.2151 0.115 -0.986 0.123 177 160 152
-3093.9358 2557.0120 1066.9357 0.103 -0.968 0.228 168 152 139
-3056.7761 2555.2988 1043.0968 0.399 -0.812 0.425 150 132 105
-3032.2397 2556.8259 1026.3677 0.055 -0.918 0.392 94 74 50
-3023.1677 2556.4880 1020.5179 0.073 -0.898 0.435 83 62 39
-3012.8394 2554.9790 1014.2759 0.091 -0.886 0.455 81 56 35
-3001.8145 2552.8030 1007.8231 0.091 -0.886 0.455 82 55 35
-2990.5283 2550.3555 1001.2993 0.106 -0.886 0.452 78 50 32
-2987.0371 2555.0752 997.2451 0.470 -0.871 0.146 74 46 28
-2982.4053 2558.7473 992.8292 0.609 -0.713 -0.347 74 46 28
-2924.8489 2536.8879 963.0452 -0.328 -0.511 -0.794 81 51 40
-2924.2312 2544.2400 959.9052 -0.371 -0.637 -0.676 83 54 46
-2932.4268 2567.9314 956.4956 -0.370 -0.672 -0.641 84 54 45
-2919.3250 2563.5476 949.4957 -0.029 -0.866 -0.498 79 50 39
-2904.8894 2565.8687 939.1246 0.201 -0.889 -0.412 78 48 40
-2886.7761 2613.3503 909.5418 0.808 -0.589 -0.016 84 49 44
-2880.6272 2615.5557 904.6719 0.725 -0.663 0.187 73 43 33
-2965.4878 2865.0232 867.8229 0.938 -0.003 -0.347 100 45 21
-2963.7151 2872.2649 863.9631 0.937 -0.009 -0.349 108 50 26
-3136.8340 3120.1848 885.8223 0.507 -0.473 -0.721 165 75 31
-2506.2000 2774.7710 598.8581 0.141 -0.982 0.127 142 60 27
-2397.6245 2681.0269 562.1942 -0.289 -0.780 0.555 108 48 12
-2376.3071 2673.0767 551.1087 -0.247 -0.750 0.613 100 51 11
-2230.7036 2791.8477 411.0494 0.486 -0.873 -0.048 143 65 28
-2225.7844 2794.8264 406.7020 0.486 -0.873 -0.048 176 83 42
-2218.3740 2794.4385 401.9651 0.514 -0.856 -0.052 190 94 50
-2203.1211 2793.0090 392.4500 0.474 -0.785 -0.399 180 84 44
-2366.8264 3266.2981 324.3239 0.615 -0.761 -0.208 19 5 5
-2212.6929 3253.6995 227.4852 -0.618 -0.727 0.301 26 26 26
-1718.8345 4416.1479 -529.9626 0.416 -0.891 -0.182 230 176 182
-1716.5857 4538.2183 -576.8256 -0.030 -0.187 -0.982 214 146 154
-1697.2521 4756.1074 -670.5638 -0.466 -0.312 -0.828 122 52 58
-4922.0728 2981.1721 2101.0339 -0.063 -0.365 -0.929 97 95 79
-4729.1533 3013.0398 1962.2920 -0.386 -0.326 -0.863 51 64 68
-4728.8682 3021.7922 1958.8334 -0.382 -0.327 -0.865 53 65 70
-4728.9941 3030.8508 1955.5308 -0.375 -0.336 -0.864 59 69 75
-4623.3218 3065.8413 1872.9808 0.583 -0.668 0.463 130 124 113
-4301.2896 2906.5847 1720.7859 0.698 -0.610 -0.376 143 133 123
-4295.5259 2911.0864 1715.3142 0.729 -0.605 -0.319 139 129 119
-4292.2578 2917.4055 1710.8037 0.729 -0.605 -0.319 134 123 112
-4291.9219 2925.8762 1707.4171 0.725 -0.606 -0.327 102 95 83
-4288.6553 2932.2285 1702.8955 0.725 -0.606 -0.327 47 48 43
-4284.6362 2938.0417 1698.0806 0.618 -0.785 -0.044 28 36 42
-4277.5938 2941.6414 1692.1053 0.565 -0.819 0.106 86 102 116
-4269.5264 2944.4824 1685.7396 0.562 -0.819 0.116 151 176 192
-4225.5903 2920.7891 1665.7096 0.553 -0.795 -0.251 149 184 207
-4220.6392 2925.8540 1660.5616 0.553 -0.795 -0.251 143 184 215
-4236.2441 2946.2131 1663.2122 0.521 -0.823 -0.226 136 186 223
-3601.6387 2668.6477 1349.7369 0.040 -0.886 -0.463 133 188 226
-3593.3755 2678.2356 1340.7211 0.435 -0.659 -0.614 122 161 181
-3587.4788 2689.7605 1332.5371 0.435 -0.659 -0.614 50 44 36
-3551.1299 2717.5676 1298.2474 -0.084 -0.646 -0.758 63 31 17
-3558.9954 2732.3240 1297.9036 -0.052 -0.359 -0.932 59 31 23
-3559.7302 2741.2432 1295.0533 -0.046 -0.279 -0.959 63 42 41
-3554.8154 2745.5046 1290.2294 0.028 -0.220 -0.975 103 95 103
-3556.1680 2754.9854 1287.5753 0.029 -0.230 -0.973 143 151 159
-3542.6482 2752.0886 1279.7695 -0.111 -0.219 -0.969 150 175 191
-3801.1528 2994.8679 1358.9839 0.574 -0.666 -0.476 142 182 216
-3789.3735 2994.0059 1351.5619 0.579 -0.689 -0.436 141 185 215
-3803.5439 3033.3997 1346.1552 -0.145 -0.959 -0.244 132 173 203
-3114.6147 2562.7207 1069.1394 0.502 -0.797 0.338 184 168 157
-3060.3960 2553.7446 1036.8489 0.404 -0.808 0.428 184 166 144
-3041.7720 2560.6494 1022.0242 0.062 -0.950 0.305 165 144 124
-3031.7253 2559.4412 1015.8707 0.024 -0.933 0.359 152 133 113
-3023.4551 2559.8313 1010.2877 0.022 -0.934 0.358 129 109 89
-3047.7200 2590.0320 1014.9532 0.127 -0.788 0.602 101 76 59
-3039.8745 2590.8657 1009.4836 0.192 -0.781 0.594 91 66 49
-2995.6951 2558.1843 992.6529 0.484 -0.869 0.104 81 57 41
-3059.7092 2633.5042 1006.5882 -0.138 -0.081 -0.987 75 50 35
-2952.5630 2549.9749 967.3645 -0.256 -0.160 -0.953 72 46 31
-3056.1353 2663.0820 993.1841 -0.244 -0.105 -0.964 82 49 40
-2925.3877 2580.4019 938.1269 -0.327 -0.834 -0.445 82 49 39
-2893.9622 2598.8701 910.5643 0.659 -0.676 -0.330 84 51 42
-2890.7659 2603.9285 906.5725 0.659 -0.676 -0.330 66 37 27
-2802.4116 2582.3699 856.5426 -0.541 -0.727 -0.423 48 41 28
-2967.8523 2816.8838 877.6625 0.364 -0.721 -0.589 49 18 5
-2961.9509 2864.6472 855.9319 0.794 -0.060 -0.605 131 60 29
-2966.5579 2878.5110 853.7792 0.772 -0.104 -0.627 151 75 48
-2980.1177 2920.2009 847.1127 0.874 -0.145 -0.464 156 67 40
-2523.0850 2779.5723 599.2018 0.332 -0.913 0.237 147 65 27
-2461.7949 2725.0171 579.2969 -0.197 -0.948 0.248 133 54 25
-2248.7097 2799.7869 411.2631 0.290 -0.841 -0.457 110 49 22
-2242.1252 2800.5713 406.6411 0.180 -0.880 -0.440 144 64 30
-2461.1768 3136.5247 425.0949 -0.050 -0.992 -0.114 186 94 56
-2336.6978 2977.8235 402.5706 0.549 -0.545 0.634 206 117 74
-2695.4468 3549.9968 424.5823 0.239 -0.413 -0.879 68 20 9
-2275.7644 3307.7715 239.1972 0.128 -0.760 -0.637 10 10 10
-4761.1870 2906.7368 2011.0950 0.741 -0.157 -0.653 113 116 102
-4797.4370 3027.5093 1989.5077 -0.485 -0.802 -0.349 42 63 83
-4772.5630 3019.6831 1976.1254 -0.471 -0.746 -0.471 37 59 77
-4746.1299 3010.7336 1962.1423 -0.439 -0.691 -0.575 37 58 76
-4735.5801 3012.5002 1954.5555 -0.380 -0.713 -0.589 35 59 76
-4781.9219 3053.0090 1969.7461 -0.380 -0.329 -0.864 36 57 75
-4730.6602 3027.0447 1945.8628 -0.077 -0.287 -0.955 39 60 79
-4735.4146 3039.2837 1944.3844 0.003 -0.276 -0.961 40 62 81
-4740.1865 3051.5789 1942.8964 0.209 -0.126 -0.970 40 61 82
-4678.8281 3045.3298 1904.9806 0.425 -0.799 0.425 52 70 95
-4621.7021 3059.6262 1862.1230 0.932 -0.349 0.092 115 118 112
-4619.8452 3067.3999 1857.9838 0.970 -0.163 -0.179 130 128 120
-4630.9912 3084.4277 1858.9005 0.576 -0.392 -0.717 134 126 112
-4372.4443 2944.3169 1741.8813 0.583 -0.791 -0.185 143 133 123
-4303.2871 2903.1545 1711.9647 0.726 -0.615 -0.309 139 129 119
-4296.5015 2906.9072 1706.1023 0.778 -0.557 -0.291 143 133 124
-4295.5483 2914.8938 1702.4764 0.729 -0.608 -0.316 136 124 116
-4293.9155 2922.4070 1698.5820 0.679 -0.629 -0.379 83 78 69
-4290.6040 2928.7144 1694.0393 0.679 -0.629 -0.379 34 41 41
-4286.0796 2934.1460 1689.0297 0.555 -0.703 -0.446 31 50 61
-4280.5684 2938.8608 1683.6417 0.547 -0.816 -0.187 100 127 146
-4274.3076 2943.0278 1677.9680 0.543 -0.816 -0.196 158 192 215
-4230.7026 2919.6199 1658.1486 0.553 -0.795 -0.251 149 187 216
-4247.5386 2940.8140 1661.2339 0.541 -0.840 0.042 141 182 219
-4242.7627 2946.0559 1656.1301 0.528 -0.817 -0.233 135 185 224
-4221.1724 2938.7849 1644.6945 0.588 -0.752 -0.297 133 185 226
-3607.9265 2668.9451 1343.6600 0.199 -0.927 -0.317 127 186 224
-3599.6721 2678.5398 1334.6387 0.467 -0.655 -0.595 120 164 185
-3596.7620 2684.3250 1330.5555 0.467 -0.655 -0.595 84 106 112
-3594.4585 2690.6113 1326.6821 0.435 -0.659 -0.614 45 43 35
-3552.5295 2673.0029 1305.7838 -0.216 -0.976 0.042 70 38 20
-3557.0115 2717.5361 1291.9935 0.326 -0.665 -0.672 62 32 16
-3553.9802 2723.2986 1287.8394 0.361 -0.695 -0.622 58 33 22
-3562.1997 2738.3672 1287.5717 0.232 -0.122 -0.965 52 33 27
-3561.9988 2746.5254 1284.3748 0.232 -0.125 -0.965 94 85 86
-3569.1353 2769.2000 1280.5388 0.233 -0.138 -0.963 161 170 178
-3571.9150 2779.9443 1278.3263 0.233 -0.138 -0.963 159 183 202
-3801.7151 3035.5427 1333.0925 0.535 -0.815 -0.221 87 115 131
-3139.8694 2588.2957 1066.8195 0.691 -0.636 0.343 185 170 156
-3120.3669 2578.8948 1057.5537 0.552 -0.664 0.505 188 170 157
-3118.7961 2585.4597 1054.0566 0.069 -0.732 0.678 189 170 156
-3104.9204 2581.0061 1046.6245 0.055 -0.739 0.672 191 170 155
-3067.5312 2579.1809 1022.7753 0.373 -0.706 0.602 188 168 151
-3061.6357 2581.8118 1017.9182 0.361 -0.682 0.636 186 169 151
-3052.2236 2581.2305 1011.9604 0.361 -0.682 0.636 184 165 149
-3046.8352 2584.3088 1007.2678 0.127 -0.788 0.602 177 155 141
-3043.3457 2589.1294 1003.1669 0.211 -0.858 0.469 164 142 128
-3085.4729 2668.8359 1000.8649 -0.292 -0.130 -0.947 73 48 32
-3093.6982 2684.8101 1000.2608 -0.324 -0.173 -0.930 69 42 27
-3119.0496 2716.8948 1004.8421 -0.261 -0.121 -0.958 71 40 28
-3020.8047 2633.0696 971.8669 -0.498 -0.792 0.352 77 43 32
-2950.4893 2583.0876 944.5040 -0.371 -0.777 0.509 77 45 30
-2916.4973 2566.9604 928.2574 -0.108 -0.981 0.159 85 52 38
-2782.3904 2533.3127 852.8976 0.600 -0.716 0.358 42 29 20
-2775.9392 2534.9426 848.0518 0.602 -0.718 0.348 41 29 21
-2807.6001 2590.5549 847.9341 -0.411 -0.882 0.228 33 18 9
-2480.3894 2741.1265 576.6467 -0.331 -0.860 0.388 132 53 25
-2518.4438 2795.4854 581.1953 -0.350 -0.830 0.434 122 50 18
-2489.7236 2770.4026 571.7726 -0.404 -0.827 0.392 114 47 13
-2243.1990 2785.8762 404.1888 0.365 -0.832 -0.418 109 50 22
-2239.0208 2789.8384 399.9583 0.365 -0.832 -0.418 139 65 33
-2707.1355 3557.8062 418.6081 0.247 -0.409 -0.878 56 23 11
-2428.0723 3327.9045 321.8607 -0.520 -0.851 -0.077 27 7 8
-4817.1333 2929.8882 2027.0223 0.812 -0.137 -0.567 110 107 92
-4769.8765 2907.7463 2004.4325 0.746 -0.164 -0.646 112 116 104
-4880.8506 3106.1387 2002.1910 -0.408 -0.911 0.062 32 59 79
-4730.2388 3012.8894 1938.7617 0.398 -0.205 -0.894 33 58 79
-4739.6201 3055.2405 1928.9113 0.377 -0.151 -0.914 32 65 86
-4735.6646 3061.5706 1923.9299 0.392 -0.198 -0.898 32 65 88
-4694.0957 3041.8984 1904.1327 0.544 -0.713 0.442 32 70 91
-4678.3696 3040.0159 1894.5437 0.425 -0.799 0.425 35 68 91
-4635.3496 3037.0693 1867.4795 0.944 -0.316 0.095 40 57 67
-4624.0215 3065.2798 1849.4055 0.967 -0.160 -0.197 133 127 116
-4375.4082 2941.5293 1733.3071 0.556 -0.801 -0.220 144 131 122
-4308.5425 2902.0833 1704.4091 0.574 -0.680 -0.457 140 130 121
-4303.4814 2907.0811 1699.2067 0.729 -0.608 -0.316 144 134 125
-4301.5557 2914.3577 1695.1971 0.581 -0.679 -0.449 128 119 107
-4299.3330 2921.4365 1691.0679 0.553 -0.702 -0.450 73 66 57
-4297.2437 2928.6296 1686.9828 0.578 -0.677 -0.456 22 30 33
-4292.3359 2933.7800 1681.8235 0.555 -0.703 -0.446 44 69 86
-4284.5254 2936.8083 1675.5640 0.543 -0.816 -0.196 112 144 167
-4273.7046 2937.6179 1668.1709 0.427 -0.880 -0.209 151 185 213
-4247.1157 2926.7844 1654.8473 0.593 -0.764 -0.256 146 185 220
-4250.8345 2938.2747 1652.9434 0.541 -0.840 0.042 141 182 220
-4245.2012 2942.8735 1647.5170 0.530 -0.847 0.033 135 185 225
-4224.5620 2936.3193 1636.4740 0.643 -0.709 -0.290 132 185 227
-4203.0288 2929.0400 1625.1196 0.679 -0.686 -0.261 125 181 225
-3564.3071 2677.7769 1301.6674 -0.170 -0.979 0.110 70 38 20
-3558.7002 2681.3557 1296.6433 0.150 -0.936 0.318 68 37 23
-3582.2332 2741.6604 1289.2815 -0.004 -0.770 0.638 58 33 23
-3883.6848 3062.5718 1365.5262 -0.143 -0.879 0.455 137 165 186
-3849.3052 3042.8315 1350.4637 -0.006 -0.985 0.171 132 160 181
-3823.6272 3039.4944 1334.9056 0.157 -0.981 -0.117 136 169 186
-3807.1941 3034.7205 1325.9453 0.538 -0.816 -0.210 71 97 107
-3799.3438 3037.2200 1319.8596 0.598 -0.730 -0.331 19 33 27
-3794.3257 3042.1345 1314.7168 0.570 -0.786 -0.241 46 51 40
-3214.3328 2649.5725 1083.0948 0.574 -0.677 0.461 185 169 153
-3078.7327 2568.5359 1024.8851 0.608 -0.649 0.457 188 171 155
-3074.6475 2572.7957 1020.6007 0.606 -0.647 0.463 186 169 153
-3073.2312 2579.4785 1017.1492 0.462 -0.746 0.480 186 169 153
-3068.4575 2583.1313 1012.6430 0.292 -0.746 0.599 187 168 153
-3061.0803 2592.4265 1004.3006 0.077 -0.816 0.573 196 177 162
-3120.1414 2679.3252 1010.1651 -0.269 -0.132 -0.954 161 139 126
-3116.4978 2684.2551 1005.9167 -0.286 -0.137 -0.948 124 103 90
-2953.8164 2589.3052 935.2243 -0.295 -0.814 0.500 79 48 30
-2905.4236 2567.4834 911.7695 0.072 -0.820 0.568 94 55 45
-2892.2180 2562.8867 904.8564 0.002 -0.842 0.539 94 53 46
-2891.3506 2570.0818 901.5707 -0.039 -0.688 0.725 87 49 40
-2872.8223 2560.3074 893.1267 -0.145 -0.757 0.637 76 44 34
-2839.5513 2544.1963 877.4197 -0.148 -0.760 0.633 38 22 6
-2831.0154 2584.1753 856.7300 0.840 -0.539 0.060 37 23 15
-2763.5398 2573.9526 816.3960 -0.361 -0.925 -0.114 63 29 14
-2703.1660 2521.2393 796.7609 -0.185 -0.801 -0.569 67 32 11
-2598.9558 2875.6057 594.6723 -0.263 -0.643 0.719 132 53 26
-2551.9993 2829.2524 581.4232 -0.031 -0.732 0.680 122 49 21
-2533.3169 2816.2966 574.0797 -0.241 -0.738 0.630 111 47 14
-2247.6279 2785.2397 398.6898 0.357 -0.827 -0.434 111 49 24
-2251.6199 2809.6865 392.0716 0.647 -0.587 -0.486 161 79 51
-2440.7505 3338.1458 316.3642 -0.478 -0.870 -0.121 28 6 6
-1660.2137 4132.7554 -494.9680 0.491 0.018 -0.871 232 186 185
-1815.8253 4849.1245 -663.5974 0.193 -0.941 0.278 193 130 117
-4835.3555 2928.3606 2027.4427 0.843 -0.139 -0.520 96 94 81
-4783.0322 2903.0479 2002.8458 0.837 -0.196 -0.510 103 98 89
-4711.2109 2873.3765 1967.1572 0.404 -0.420 -0.813 100 116 111
-4955.4062 3142.3115 2024.7028 -0.412 -0.905 0.112 28 61 80
-4841.7700 3083.7366 1972.6504 0.319 -0.654 0.685 28 61 81
-4820.3311 3078.2622 1960.7126 0.353 -0.638 0.684 25 64 84
-4800.7119 3073.9766 1949.5138 0.402 -0.655 0.640 21 70 87
-4793.3296 3078.0225 1943.1516 0.599 -0.684 0.417 19 71 88
-4785.6035 3081.8311 1936.6549 0.592 -0.691 0.416 22 69 89
-4764.4224 3076.3711 1924.8805 0.500 -0.730 0.466 22 68 88
-4728.4092 3060.6147 1907.3187 0.496 -0.722 0.482 18 68 86
-4309.7651 2889.4963 1698.5934 0.490 -0.648 -0.582 142 132 123
-4316.6919 2903.0972 1697.9584 0.588 -0.675 -0.446 143 133 124
-4310.3149 2907.1475 1692.2518 0.576 -0.688 -0.442 144 134 124
-4307.6768 2913.9045 1687.9619 0.581 -0.679 -0.449 124 113 102
-4305.6138 2921.0947 1683.8838 0.553 -0.702 -0.450 63 53 43
-4302.3608 2927.4360 1679.3499 0.555 -0.703 -0.446 13 18 21
-4298.5923 2933.4141 1674.6168 0.555 -0.703 -0.446 65 86 103
-4289.8530 2935.7639 1668.0112 0.535 -0.823 -0.189 134 161 182
-4283.2305 2939.6587 1662.2034 0.592 -0.784 -0.183 147 177 204
-4259.7520 2931.1450 1650.0863 0.429 -0.868 0.251 146 184 215
-4254.1260 2935.7388 1644.6642 0.541 -0.840 0.042 141 182 218
-4270.3896 2956.5391 1647.4003 0.663 -0.597 -0.452 135 185 225
-4228.0601 2933.9412 1628.3063 0.649 -0.701 -0.296 132 185 227
-3598.4692 2741.7798 1289.6636 0.112 -0.839 0.532 62 32 17
-3892.2263 3036.6631 1369.7593 0.874 -0.454 0.175 111 133 151
-3887.2642 3060.0876 1357.6224 -0.134 -0.886 0.443 78 107 128
-3829.5007 3038.9944 1327.8676 0.211 -0.974 -0.078 132 161 181
-3814.6458 3035.5752 1319.4541 0.619 -0.783 -0.067 55 77 88
-3806.4980 3037.8271 1313.2726 0.654 -0.716 -0.243 19 33 26
