ply
format ascii 1.0
element vertex 792
property float x
property float y
property float z
property float nx
property float ny
property float nz
property uchar diffuse_red
property uchar diffuse_green
property uchar diffuse_blue
end_header
-2921.7966 2805.1165 1219.0339 0.472 -0.706 -0.528 55 134 170
-3035.9949 2946.2744 1255.4974 0.488 -0.198 0.850 109 141 151
-3275.0334 3234.6296 1334.1019 0.656 -0.276 0.702 95 56 19
-3255.1926 3224.9465 1323.0129 0.640 -0.297 0.708 86 50 15
-3234.7849 3214.6804 1311.7052 0.642 -0.299 0.706 75 46 17
-3138.3684 3135.6326 1268.0657 0.078 -0.559 0.825 60 40 20
-3199.3401 3198.7903 1291.4442 0.277 -0.343 0.897 54 39 27
-3018.6953 3096.6736 1194.9523 0.228 -0.973 0.023 34 29 24
-3008.6240 3095.1357 1188.2417 0.218 -0.976 0.011 26 23 17
-3011.2026 3105.3672 1186.8088 0.148 -0.989 0.005 20 17 11
-2955.7554 3164.2168 1128.3029 0.262 -0.776 -0.573 42 41 39
-2952.7891 3169.4414 1124.5079 0.275 -0.740 -0.613 42 41 39
-2881.0256 3147.6384 1080.1653 -0.167 -0.890 -0.425 71 67 61
-2874.1243 3148.8940 1074.8271 -0.167 -0.890 -0.425 83 79 71
-2879.0054 3161.8708 1074.1616 -0.120 -0.905 -0.408 79 74 67
-2967.1384 3266.4795 1103.6898 0.830 0.019 0.558 69 63 57
-2939.2251 3255.3494 1087.2906 0.953 0.200 0.226 56 53 43
-2946.7556 3271.4141 1087.5312 0.938 0.214 0.272 75 53 33
-2949.9629 3283.1743 1086.0582 0.936 0.215 0.278 107 66 34
-2948.2878 3290.0249 1082.6660 0.937 0.213 0.276 131 82 45
-2954.6572 3305.0945 1082.3949 0.952 0.118 0.283 154 100 61
-2983.7649 3343.4690 1090.9218 0.941 -0.244 0.235 177 116 70
-2991.2395 3359.8784 1091.0118 0.936 -0.245 0.252 193 125 73
-3024.1765 3402.5359 1100.9058 0.211 -0.903 0.375 196 124 70
-2727.6482 3326.2334 913.2643 0.590 -0.325 0.739 209 139 66
-2734.0652 3342.3259 912.6993 0.538 -0.370 0.758 210 136 69
-2727.9709 3344.4917 907.6469 0.537 -0.366 0.760 211 136 75
-2726.4282 3351.7629 904.2147 0.547 -0.330 0.769 206 133 80
-2720.7544 3354.4072 899.3096 0.535 -0.325 0.780 206 132 85
-2712.4429 3354.0706 893.4731 0.535 -0.325 0.780 207 131 89
-2706.8213 3356.7607 888.5908 0.613 -0.208 0.762 205 133 92
-2704.5557 3363.2622 884.8879 0.546 -0.122 0.829 200 135 92
-2693.1055 3359.3174 877.9620 0.517 -0.120 0.848 198 138 91
-2697.0930 3372.9775 876.4388 0.603 -0.103 0.791 198 137 91
-2559.3206 3340.2573 788.3823 -0.179 -0.576 0.798 210 168 148
-2414.9175 3229.4556 720.5927 -0.148 -0.532 0.834 71 35 22
-2391.2666 3346.5386 666.1760 0.715 -0.332 -0.615 183 148 134
-2393.6750 3359.0879 663.8790 0.752 -0.267 -0.603 195 163 149
-2669.0386 3843.2913 705.7339 0.367 -0.084 0.927 220 191 178
-2632.4099 3805.4712 691.6501 0.235 -0.129 0.963 220 191 178
-2592.2285 3762.6191 676.6372 0.204 -0.134 0.970 219 191 178
-2420.4084 3583.5723 611.0974 0.641 0.198 0.742 89 68 62
-2243.7830 3451.6895 527.0142 0.620 -0.069 -0.782 79 61 54
-2247.0024 3466.4465 524.5901 0.618 -0.070 -0.783 111 88 80
-2249.0149 3479.5642 521.8280 0.618 -0.070 -0.783 138 113 104
-2239.0576 3496.3379 509.3337 0.958 -0.285 -0.028 204 179 170
-2239.5640 3507.4790 506.1275 0.932 -0.310 0.186 209 184 176
-2237.8811 3515.5078 502.3522 0.939 -0.292 0.183 209 184 176
-2237.5955 3525.5979 498.9162 0.947 -0.221 0.235 209 183 174
-2238.4761 3537.4329 495.7553 0.937 -0.193 0.290 219 192 179
-2245.6221 3558.4785 494.1254 0.955 -0.155 0.254 223 196 182
-2243.7231 3566.3884 490.2337 0.984 -0.060 -0.166 224 195 182
-2264.5286 3607.7151 491.8772 0.958 -0.223 0.182 224 195 181
-2265.1472 3619.5159 488.5399 0.941 -0.289 0.175 223 195 180
-3149.8005 2591.3257 1442.0284 0.857 -0.423 0.294 45 36 23
-3145.3459 2594.1975 1437.9219 0.860 -0.416 0.295 55 47 36
-3325.2336 2831.1770 1489.9553 0.597 -0.213 0.774 46 18 16
-3350.9167 2857.5544 1499.7885 0.815 -0.550 -0.183 42 20 16
-3384.0281 2889.7358 1513.0542 0.976 -0.209 0.061 39 24 16
-3248.2612 2840.0884 1432.1228 -0.466 -0.846 -0.261 43 32 39
-3192.2234 2803.0632 1404.0492 0.982 -0.170 -0.086 38 26 35
-2952.9163 2634.4619 1287.5427 0.510 -0.729 0.458 36 28 31
-2944.5083 2634.1125 1281.6519 0.441 -0.813 0.382 38 33 34
-2929.3044 2647.3030 1266.5432 -0.390 -0.909 0.151 43 53 65
-2839.7742 2594.1816 1219.7454 -0.363 -0.923 0.127 57 77 105
-2851.5137 2609.9028 1223.0586 -0.138 -0.985 0.101 66 92 127
-2864.0332 2626.3296 1226.7012 0.886 -0.271 0.376 65 101 140
-2873.1685 2640.0786 1228.7908 0.856 -0.327 0.401 61 110 150
-2888.0652 2677.8853 1227.2374 0.453 -0.262 0.852 102 150 201
-2882.9609 2680.1479 1222.8634 0.502 -0.243 0.830 112 154 200
-2885.6130 2701.8677 1217.7539 0.784 -0.376 -0.494 89 120 156
-2887.7893 2710.2366 1216.6094 0.790 -0.380 -0.482 87 119 155
-2894.4185 2722.3621 1217.4332 0.774 -0.392 -0.497 96 129 165
-2917.7190 2755.2170 1223.4767 0.974 -0.224 -0.019 111 145 182
-2929.0601 2771.4983 1226.3250 0.922 -0.199 -0.333 96 133 171
-2921.7175 2778.8220 1218.7208 0.995 -0.091 0.041 74 124 161
-2916.7681 2781.4048 1214.3541 0.983 -0.105 0.149 67 126 161
-2913.9314 2785.7888 1210.9152 0.843 -0.535 0.058 66 133 165
-2910.9714 2790.0767 1207.4193 0.843 -0.535 0.058 62 137 167
-2966.0105 2844.1130 1229.2949 0.984 0.158 0.078 57 141 167
-3001.8359 2924.8640 1228.8385 0.598 -0.175 0.782 137 121 108
-3166.3474 3130.6260 1279.9586 0.956 -0.048 0.289 102 54 20
-3190.9658 3160.5601 1287.8849 0.727 -0.544 0.419 92 47 14
-3231.3215 3204.7979 1302.4359 0.635 -0.305 0.710 80 44 14
-3222.8491 3205.2334 1296.2460 0.285 -0.627 0.725 65 39 16
-3210.1172 3201.8020 1288.2617 0.285 -0.627 0.725 60 39 22
-3197.4429 3198.3860 1280.3136 0.285 -0.627 0.725 57 39 25
-3178.5386 3205.4021 1264.5533 0.269 -0.559 0.784 58 44 36
-3164.0100 3200.1868 1255.8613 0.269 -0.559 0.784 58 45 35
-3158.5110 3203.2295 1250.9540 -0.217 -0.742 0.635 54 45 35
-3018.0405 3097.3616 1184.7911 0.644 -0.675 0.360 27 23 15
-3016.6035 3103.8564 1181.6710 0.695 -0.692 0.193 23 19 9
-3008.8394 3104.4690 1175.9298 0.698 -0.691 0.186 22 18 9
-2900.8657 3112.3159 1096.3054 0.370 -0.778 0.509 41 40 38
-2896.7695 3116.2937 1092.0980 0.512 -0.633 -0.581 45 44 42
-2899.5623 3127.0034 1090.6389 0.545 -0.649 -0.531 52 51 49
-2892.2903 3127.9031 1085.1565 0.180 -0.771 -0.611 52 51 49
-2889.7598 3165.8281 1071.1218 -0.116 -0.904 -0.411 62 60 56
-2945.2109 3254.4050 1082.1550 0.918 -0.006 0.397 55 56 48
-2943.7407 3261.3757 1078.8578 0.918 -0.006 0.397 75 56 38
-2945.1418 3271.2708 1076.6677 0.928 0.033 0.372 107 69 41
-2975.9058 3328.2725 1080.2548 0.930 -0.206 0.305 176 118 78
-2991.0940 3352.5024 1083.2869 0.936 -0.245 0.252 188 125 78
-3027.9067 3399.0283 1094.5706 0.211 -0.903 0.375 190 124 74
-2642.3125 3258.9512 864.4163 0.339 -0.198 0.920 217 136 78
-2626.0283 3249.3640 855.8804 0.338 -0.201 0.919 216 135 80
-2628.7588 3269.9746 851.1845 0.448 -0.207 0.870 209 135 80
-2607.6528 3371.7996 803.2837 -0.166 -0.567 0.807 218 137 78
-2571.8960 3338.6521 788.4404 -0.186 -0.578 0.795 212 142 93
-2554.0464 3326.5872 779.5858 -0.175 -0.573 0.801 211 154 118
-2533.7595 3311.5220 769.9581 -0.389 -0.838 0.382 197 148 119
-2522.9170 3307.6504 763.4646 -0.378 -0.867 0.324 188 139 111
-2419.1609 3236.3611 712.3672 -0.089 -0.708 0.700 77 33 20
-2404.0522 3226.8313 704.6521 -0.089 -0.708 0.700 78 32 23
-2391.5381 3329.9561 662.4668 0.599 -0.145 -0.787 158 116 108
-2642.9092 3788.6409 694.0565 0.393 -0.091 0.915 217 191 181
-2638.8716 3794.2678 689.3593 0.367 -0.084 0.927 215 189 179
-2276.9573 3409.6470 554.9603 0.667 -0.688 0.284 24 17 18
-2253.3491 3467.3479 519.4996 0.618 -0.070 -0.783 46 32 28
-2255.3850 3480.4858 516.7172 0.618 -0.070 -0.783 64 48 45
-2239.9775 3489.4697 502.8193 0.958 -0.284 0.029 151 135 131
-2240.5337 3500.6497 499.6119 0.932 -0.310 0.186 174 158 154
-2239.8079 3510.0342 496.0678 0.941 -0.287 0.179 185 169 165
-2240.2874 3521.2056 492.8081 0.974 -0.202 0.101 194 177 173
-2241.3030 3533.2100 489.6627 0.984 -0.066 -0.166 209 190 182
-2245.2627 3549.5637 487.2173 0.984 -0.060 -0.166 214 193 185
-2245.1997 3560.1260 483.7667 0.984 -0.060 -0.166 217 194 186
-2247.4065 3574.0674 480.8474 0.970 -0.058 -0.238 218 196 187
-2252.3188 3592.0625 478.5527 0.969 -0.054 -0.242 220 199 190
-547.9986 4612.1055 -1067.2397 0.957 0.012 -0.289 250 62 102
-3151.7178 2587.4587 1436.0914 0.870 -0.398 0.291 151 138 119
-3152.7080 2594.2810 1434.5833 0.936 -0.327 -0.129 149 138 119
-3149.7378 2598.2424 1431.1803 0.882 -0.379 0.280 155 138 117
-3329.0703 2794.6013 1495.2804 0.393 -0.286 0.874 95 75 52
-3316.3735 2791.7710 1487.1487 0.422 -0.217 0.880 82 65 41
-3278.9438 2770.3086 1467.4341 0.397 -0.242 0.885 67 48 27
-3296.1448 2796.5991 1471.1624 0.448 -0.265 0.854 62 39 23
-3310.4473 2814.1519 1475.6604 0.594 -0.210 0.777 62 38 24
-3351.3157 2851.9824 1492.5137 0.810 -0.555 -0.189 61 39 25
-3220.3306 2798.9868 1416.3464 -0.165 -0.933 -0.320 50 39 44
-2840.8469 2602.2097 1209.7126 0.052 -0.993 0.105 103 99 129
-2868.4678 2630.8818 1220.0953 0.875 -0.332 0.354 121 119 152
-2873.5779 2666.9468 1212.0326 0.567 -0.469 0.677 139 142 168
-2889.9941 2699.9727 1213.0155 0.979 -0.196 0.060 143 148 165
-2917.5388 2749.4065 1216.6055 0.991 -0.122 0.060 124 131 148
-2927.4807 2764.4707 1218.8030 0.939 0.138 0.315 121 134 151
-2924.7783 2768.9343 1215.4280 0.916 0.139 0.376 129 148 165
-2916.1895 2768.4268 1209.4705 0.907 0.193 0.375 130 156 173
-2918.8992 2777.4883 1208.4611 0.908 0.194 0.371 134 168 182
-2924.5806 2789.1135 1208.7378 0.888 0.134 0.440 118 162 173
-2951.7976 2819.1631 1218.3855 0.979 0.116 0.169 101 152 161
-2964.1992 2836.6887 1221.5375 0.984 0.158 0.078 89 148 153
-3006.4180 2894.0857 1233.0027 0.944 0.326 0.052 88 144 163
-2996.6819 2907.1062 1221.8368 0.613 -0.163 0.773 139 139 141
-2988.8689 2907.4785 1216.1469 0.601 -0.169 0.781 152 133 125
-3182.6653 3146.4944 1276.7124 0.772 -0.503 0.388 119 62 23
-3183.0613 3154.7549 1274.3136 0.653 -0.615 0.442 108 58 21
-3171.6687 3152.4385 1266.9446 0.202 -0.774 0.599 96 56 23
-3207.6226 3192.8091 1279.4703 0.238 -0.666 0.706 92 57 29
-3188.8972 3183.9180 1269.0083 0.303 -0.661 0.686 89 57 32
-3169.7959 3174.6187 1258.4110 0.190 -0.568 0.801 86 57 37
-3123.2908 3148.2341 1233.8250 0.508 -0.443 0.738 74 53 37
-3079.7146 3116.3083 1213.1254 0.443 -0.476 0.760 71 57 45
-3066.8833 3112.3962 1205.2488 0.434 -0.484 0.760 69 60 49
-3014.7083 3095.5662 1173.5203 0.702 -0.592 0.396 30 23 13
-3008.0403 3097.1902 1168.2401 0.722 -0.589 0.363 25 21 12
-2908.9290 3089.8105 1099.9878 0.275 -0.742 0.611 32 28 25
-2907.4695 3096.2861 1096.8458 0.267 -0.690 0.673 41 37 36
-3029.6482 3280.7122 1124.0792 -0.304 -0.656 0.690 59 61 60
-2891.0820 3160.4043 1064.3546 0.063 -0.900 -0.431 70 71 68
-2912.5464 3189.8862 1070.0862 0.945 0.135 0.297 75 77 74
-2941.4131 3243.6416 1073.2158 0.918 -0.006 0.397 64 70 67
-2939.2617 3249.8970 1069.6522 0.909 0.038 0.415 87 77 63
-2941.1206 3260.2141 1067.6288 0.928 0.033 0.372 125 96 73
-2935.5249 3271.5305 1059.9672 0.870 0.167 0.463 178 135 106
-2975.0779 3320.2825 1072.3381 0.930 -0.206 0.305 181 133 96
-2987.0125 3341.1301 1074.0789 0.941 -0.262 0.214 177 122 81
-3027.1064 3390.8862 1086.5096 0.212 -0.891 0.402 179 122 76
-2652.5820 3307.5513 846.5922 0.799 -0.337 -0.499 218 132 66
-2643.2524 3305.8530 840.4932 0.842 -0.273 -0.465 218 132 66
-2647.9644 3320.1953 839.1971 0.839 -0.286 -0.462 216 133 66
-2653.4714 3335.5190 838.1492 0.881 -0.249 -0.402 216 133 66
-2741.3206 3493.0991 849.6251 0.797 0.338 0.500 216 135 72
-2536.2446 3307.1511 763.7958 -0.402 -0.830 0.387 178 119 73
-2526.4590 3304.5552 757.6632 -0.378 -0.865 0.330 164 106 62
-2391.2532 3204.0569 693.9046 0.235 -0.940 -0.247 91 42 34
-2362.5679 3213.1528 670.5054 0.137 -0.922 0.361 84 35 26
-2369.1838 3230.3037 669.6549 0.269 -0.888 0.373 84 38 31
-2494.6555 3542.8655 657.6481 0.918 -0.032 -0.396 217 190 181
-2578.9075 3684.5862 671.7072 0.721 -0.096 0.686 211 191 184
-2517.6711 3645.6699 640.6880 0.378 -0.292 0.878 84 65 58
-2477.7505 3602.7573 626.1597 0.253 -0.131 0.959 43 36 34
-2337.0698 3453.9321 574.1837 0.687 0.211 0.695 26 26 30
-2340.0183 3467.9778 571.7267 0.690 0.212 0.692 23 22 26
-2339.4241 3477.2559 568.2919 0.690 0.212 0.692 24 23 27
-2331.3801 3476.3665 562.8467 0.209 -0.182 0.961 23 22 26
-2241.5400 3483.5388 496.4802 0.958 -0.284 0.029 93 82 80
-2241.5015 3493.8354 493.1108 0.932 -0.310 0.186 117 106 105
-2240.6919 3503.0710 489.5362 0.941 -0.287 0.179 143 132 131
-2238.1582 3509.8596 485.5269 0.980 -0.182 0.085 167 154 153
-2264.3667 3558.3010 488.4865 0.865 0.150 0.478 189 174 169
-2266.5142 3572.0801 485.5451 0.863 0.151 0.482 200 182 176
-2245.2415 3551.7869 476.9682 0.899 0.108 0.423 209 189 184
-2249.7424 3569.0386 474.5772 0.903 0.109 0.416 217 197 191
-2278.0701 3643.2676 470.6780 0.937 -0.165 0.309 219 199 194
-2286.8345 3667.2954 469.1269 0.950 -0.163 0.265 220 198 192
-1677.5575 3695.1504 25.7885 0.982 0.006 -0.188 212 168 155
-255.8380 3878.9153 -1047.2675 0.977 -0.077 -0.198 255 89 122
-3154.8196 2590.5466 1428.7321 0.936 -0.327 -0.129 153 137 114
-3155.6846 2597.2888 1427.1450 0.862 -0.457 0.217 158 136 110
-3513.4446 2870.8303 1592.3660 0.926 -0.070 0.371 151 132 108
-3528.9307 2902.9329 1592.8983 0.639 0.120 0.760 155 130 105
-3515.4089 2899.9250 1584.2588 0.636 0.118 0.763 151 124 101
-3305.2622 2771.1050 1476.8015 0.435 -0.211 0.876 96 67 42
-3277.5168 2776.8115 1455.1935 0.522 -0.211 0.826 68 44 22
-3316.2659 2812.7776 1471.0176 0.801 -0.599 -0.004 68 44 23
-3354.8503 2848.7993 1486.7067 0.810 -0.555 -0.189 68 43 25
-3371.2800 2888.9500 1485.2814 -0.462 -0.862 0.209 73 50 34
-2909.5310 2620.7734 1244.3088 -0.472 -0.845 -0.250 49 53 61
-2847.9104 2596.3938 1208.4238 -0.118 -0.984 0.135 91 81 102
-2846.5161 2601.4961 1205.7648 0.052 -0.993 0.105 110 97 122
-2850.1621 2610.6948 1205.3541 0.211 -0.975 0.063 129 117 143
-2897.8286 2668.5059 1220.3876 0.990 0.064 0.123 154 139 166
-2901.7925 2678.1948 1220.0431 0.992 0.037 0.123 159 146 169
-2906.0989 2688.2041 1219.8376 0.985 0.029 0.171 156 149 165
-2899.6309 2689.3818 1214.8501 0.479 -0.839 -0.260 150 149 161
-2899.6628 2695.9187 1212.7374 0.646 -0.738 -0.195 152 154 162
-2922.6389 2721.4746 1220.7385 0.908 -0.369 -0.197 154 157 166
-2930.3760 2774.7083 1208.8533 0.759 0.134 0.637 164 183 192
-2918.4175 2778.1372 1199.2235 0.827 0.153 0.541 141 175 180
-2915.6865 2782.6084 1195.8195 0.977 -0.089 0.192 125 163 165
-2979.9146 2893.6521 1205.2477 0.621 -0.210 0.755 156 138 131
-2978.8770 2914.2756 1197.7717 0.565 -0.742 -0.360 153 101 73
-3115.1047 3079.5854 1240.7073 0.277 -0.623 0.731 142 83 43
-3131.9802 3110.1904 1242.7177 0.213 -0.573 0.791 129 84 48
-3104.7578 3093.4990 1228.7990 0.613 -0.338 0.714 125 85 51
-3097.6055 3094.8127 1223.2800 0.613 -0.338 0.714 122 87 56
-3091.2795 3096.8650 1218.1080 0.647 -0.300 0.701 120 87 62
-3080.8325 3102.9609 1208.6825 0.465 -0.398 0.791 116 96 78
-3074.9260 3105.3860 1203.6871 0.381 -0.460 0.802 107 93 79
-3062.9373 3102.2400 1196.1836 0.381 -0.460 0.802 102 91 81
-3068.1025 3114.8069 1195.7538 0.165 -0.575 0.801 70 62 53
-2906.6475 3081.0999 1091.8732 -0.158 -0.926 0.343 31 27 24
-2889.3262 3111.7695 1069.5278 0.079 -0.813 -0.577 47 43 42
-3005.2798 3249.7593 1106.9613 -0.231 -0.650 0.724 57 61 59
-2887.8694 3150.5076 1055.8359 -0.166 -0.712 0.682 77 82 78
-2937.6348 3232.9331 1064.3218 0.918 -0.006 0.397 95 100 100
-2934.4050 3238.0779 1060.3428 0.911 0.041 0.410 122 112 100
-2937.1206 3249.2148 1058.6368 0.928 0.033 0.372 151 125 102
-2926.7046 3255.5984 1049.1393 0.870 0.167 0.463 182 143 115
-2974.2524 3312.3164 1064.4454 0.930 -0.206 0.305 180 134 100
-2987.2375 3334.1777 1066.5438 0.941 -0.262 0.214 176 123 84
-3037.1516 3393.8335 1082.5741 0.684 -0.624 0.379 178 121 78
-2563.9741 3305.5051 774.7144 -0.150 -0.549 0.822 218 135 69
-2543.6111 3308.5820 759.2189 -0.402 -0.830 0.387 175 107 55
-2379.1772 3173.5183 686.3307 0.758 -0.537 -0.371 115 67 51
-2387.4985 3192.3850 686.0886 0.257 -0.922 -0.290 117 67 56
-2362.8784 3197.5181 666.8919 0.199 -0.924 0.328 100 49 37
-2366.1831 3210.4670 665.0132 0.137 -0.922 0.361 100 49 38
-2370.7073 3224.9910 663.4879 0.262 -0.885 0.384 95 49 40
-2390.1606 3331.9314 642.3947 0.579 -0.130 -0.805 188 152 138
-2400.4111 3354.4419 642.3352 0.579 -0.115 -0.807 199 165 150
-2412.9573 3380.0198 642.9069 0.566 -0.112 -0.817 212 177 163
-2504.5320 3547.6526 653.3082 0.884 0.016 -0.468 219 191 182
-2590.8293 3681.1924 671.0919 0.410 -0.031 0.912 207 183 177
-2480.6633 3598.3586 619.7581 0.385 -0.288 0.877 23 15 13
-2251.9670 3449.2788 505.7194 0.620 -0.049 -0.783 36 29 28
-2254.3472 3462.8125 502.9917 0.620 -0.049 -0.783 43 34 34
-2253.2373 3471.4727 499.3729 0.656 -0.149 -0.740 48 39 39
-2249.4543 3476.3713 495.0804 0.803 -0.328 -0.498 53 45 45
-2243.1001 3477.6177 490.1516 0.958 -0.284 0.029 50 41 42
-2242.4670 3487.0361 486.6241 0.932 -0.310 0.186 61 52 52
-2241.5737 3496.1240 483.0196 0.941 -0.287 0.179 91 82 82
-2238.0801 3501.5085 478.7745 0.980 -0.176 0.092 116 106 106
-2255.8904 3537.6836 479.6303 0.865 0.150 0.478 143 130 127
-2255.7703 3548.0913 476.1448 0.865 0.150 0.478 164 148 145
-2239.8989 3535.6443 468.9170 0.870 0.150 0.470 186 168 166
-2239.7815 3546.0786 465.4245 0.866 0.146 0.479 204 186 182
-2245.5369 3565.1592 463.2867 0.850 0.124 0.512 209 194 189
-2244.7405 3574.7246 459.5951 0.865 -0.008 0.502 210 193 189
-2258.7930 3606.2139 459.3078 0.911 -0.295 0.289 211 193 189
-2256.8403 3614.2307 455.2993 0.915 -0.291 0.279 212 192 188
-257.3813 3855.3723 -1046.3042 0.979 -0.077 -0.188 255 90 120
-3157.5520 2587.2646 1423.1788 0.863 -0.474 0.174 158 134 115
-3156.5310 2592.6299 1420.6893 0.862 -0.457 0.217 161 132 111
-3482.3237 2849.0505 1567.8159 0.903 -0.397 0.164 156 129 109
-3477.2024 2852.1221 1563.1677 0.553 -0.426 0.716 157 129 109
-3374.5691 2790.2224 1510.6110 0.375 -0.253 0.892 141 109 89
-3346.3367 2776.0439 1495.2168 0.375 -0.252 0.892 130 98 76
-3317.4829 2761.3125 1479.5630 0.387 -0.268 0.882 118 86 64
-3296.4031 2752.2578 1467.5654 0.387 -0.268 0.882 107 74 52
-3276.8621 2744.2839 1456.3054 0.401 -0.265 0.877 92 58 37
-3257.6362 2749.5806 1440.9056 0.533 -0.235 0.813 82 50 30
-3272.4773 2767.3281 1445.6129 0.599 -0.209 0.773 78 49 30
-3376.8037 2866.4392 1487.1367 0.976 -0.169 0.139 80 49 33
-3393.3901 2885.9656 1492.4989 0.978 -0.180 0.109 82 50 34
-2911.9365 2617.3513 1238.8003 -0.413 -0.896 -0.163 44 46 52
-2856.0266 2597.6367 1205.5645 -0.118 -0.981 0.155 87 83 100
-2855.1169 2603.1348 1203.1102 0.063 -0.991 0.122 108 99 120
-2902.9580 2673.6724 1213.9022 0.988 -0.003 0.153 155 149 168
-2896.9683 2675.2251 1209.1366 0.664 -0.747 -0.035 157 155 169
-2904.3230 2687.7341 1210.2480 0.492 -0.838 -0.235 156 156 167
-2907.4365 2696.8042 1209.4775 0.375 -0.910 -0.177 152 153 163
-2925.2429 2718.0469 1215.1422 0.908 -0.369 -0.197 149 150 159
-2920.9902 2754.3762 1200.1750 0.745 0.119 0.656 192 202 214
-2916.5923 2757.3899 1196.0598 0.759 0.134 0.637 185 201 211
-2922.3599 2768.9905 1196.3427 0.765 0.129 0.630 178 199 210
-2920.9868 2774.5930 1193.5250 0.765 0.129 0.630 161 189 197
-2941.4556 2798.7607 1200.1191 0.976 0.217 -0.021 148 182 187
-2992.1479 2898.2734 1203.4091 0.685 -0.335 0.648 163 144 138
-3007.9026 2919.1572 1207.7340 0.723 -0.313 0.616 159 128 118
-2991.4395 2919.2222 1196.0173 0.501 -0.814 -0.294 160 108 82
-3109.6948 3060.6611 1233.5177 0.868 -0.184 -0.461 167 108 69
-3098.3372 3058.2036 1226.2573 0.207 -0.631 0.747 169 112 75
-3134.7156 3098.3423 1238.9022 0.298 -0.499 0.814 168 118 82
-3127.7986 3099.9197 1233.4695 0.169 -0.572 0.802 167 122 88
-3099.7146 3082.4817 1219.2527 0.613 -0.338 0.714 164 125 91
-3088.3396 3079.9753 1211.9961 0.558 -0.500 0.662 161 125 97
-3064.4436 3089.3137 1191.9496 0.388 -0.463 0.797 134 121 108
-3048.6484 3082.6699 1182.9133 0.392 -0.458 0.798 125 114 104
-2889.6331 3105.4758 1062.4496 0.078 -0.831 -0.551 47 43 42
-2895.4441 3119.0979 1062.0985 0.106 -0.836 -0.538 46 43 43
-2928.3257 3159.2500 1072.2548 0.001 -0.916 -0.400 48 48 45
-2932.2646 3179.3997 1068.4274 -0.236 -0.656 0.717 70 79 70
-2988.9419 3320.0754 1062.4335 0.937 -0.239 -0.254 178 126 88
-2993.4478 3333.3174 1061.2803 0.951 -0.234 -0.200 181 121 77
-2569.2183 3313.4045 766.4551 -0.078 -0.552 0.830 214 133 69
-2386.4233 3184.0076 679.1461 0.180 -0.928 -0.327 141 92 75
-2377.0664 3198.9915 667.5718 0.193 -0.913 -0.361 135 83 67
-2366.2539 3194.5596 661.3480 0.196 -0.921 0.336 134 83 66
-2367.3337 3213.6343 655.8428 0.151 -0.921 0.359 124 79 65
-2410.3135 3359.5051 638.4101 0.577 -0.118 -0.808 197 158 139
-2421.5195 3383.3379 638.5341 0.617 -0.102 -0.781 210 171 152
-2512.4797 3549.8914 648.3859 0.831 -0.064 -0.552 223 191 174
-2563.3086 3636.7534 655.9326 0.405 -0.030 0.914 204 176 161
-2562.0378 3645.5530 652.1362 0.301 -0.114 0.947 191 165 150
-2568.1006 3664.0417 650.3637 0.383 -0.046 0.923 154 126 111
-2554.3962 3656.5256 643.0996 0.331 -0.062 0.942 95 67 52
-2499.3174 3604.5188 621.0726 0.270 -0.124 0.955 50 26 15
-2467.6731 3572.7639 609.0341 0.318 -0.088 0.944 39 26 18
-2253.5688 3474.0894 489.3808 0.691 -0.522 0.499 39 33 33
-2250.4766 3479.9814 485.2466 0.689 -0.533 0.491 39 33 33
-2244.0754 3481.1726 480.3075 0.857 -0.357 0.371 45 39 39
-2241.7014 3488.1165 476.3376 0.909 -0.280 0.308 57 48 49
-2245.0688 3503.3318 473.7267 0.868 0.152 0.473 66 56 56
-2245.0059 3513.6860 470.2774 0.868 0.152 0.473 88 76 73
-2247.3657 3527.5911 467.3815 0.865 0.150 0.478 115 100 97
-2231.7546 3515.5049 460.2655 0.870 0.150 0.470 150 132 130
-2234.1863 3540.1660 453.8839 0.856 0.141 0.496 198 182 177
-2235.9316 3553.3655 450.7834 0.857 0.123 0.500 204 189 184
-2260.0354 3632.2656 441.9627 0.786 -0.249 0.566 224 195 189
-287.7068 2955.8755 -736.7689 0.363 -0.401 -0.841 254 93 127
-3158.7129 2582.8508 1416.8877 0.863 -0.474 0.174 161 130 115
-3155.8137 2586.8481 1413.5088 0.858 -0.460 0.228 163 129 109
-3561.8411 2901.1448 1597.4429 0.993 0.069 0.091 155 126 105
-3327.7527 2756.6621 1479.2460 0.553 -0.218 0.804 111 75 51
-3311.1150 2750.9526 1469.3362 0.545 -0.214 0.811 98 62 39
-3311.8474 2758.0640 1467.5021 0.658 -0.283 0.698 91 54 31
-3306.4976 2760.6807 1462.8419 0.737 -0.249 0.628 89 52 29
-3303.9419 2765.3774 1459.4752 0.738 -0.147 0.659 91 52 32
-3324.3093 2787.2036 1466.6960 0.668 -0.500 -0.551 93 54 35
-3304.2866 2778.8865 1455.2485 0.576 -0.625 -0.526 92 53 37
-3308.1323 2801.8235 1450.3849 0.536 -0.705 -0.465 86 50 39
-3313.8938 2812.9124 1450.8009 0.639 -0.326 0.697 87 52 40
-3252.8491 2800.0789 1411.7557 0.625 -0.372 0.686 43 29 26
-3246.1130 2801.6340 1406.4636 0.625 -0.372 0.686 34 24 24
-2880.0422 2605.3584 1211.8065 -0.102 -0.942 0.320 64 64 77
-2867.2107 2601.3198 1204.0432 -0.107 -0.985 0.135 86 84 101
-2870.3271 2610.0664 1203.3588 0.113 -0.868 -0.483 105 100 120
-2884.4519 2627.7214 1207.5328 0.111 -0.826 -0.552 125 118 140
-2905.4500 2651.0156 1214.7151 0.157 -0.862 -0.481 136 129 151
-2907.1138 2671.5947 1209.0844 0.895 -0.048 -0.443 152 150 169
-2915.2966 2750.6309 1188.7299 0.805 0.139 0.577 191 198 212
-2916.0916 2758.0105 1186.8513 0.745 -0.667 0.001 181 193 205
-2916.5540 2765.1350 1184.8213 0.903 -0.424 0.073 173 194 203
-2985.6731 2879.5439 1195.9761 0.722 -0.259 0.642 166 164 168
-2994.7644 2894.5271 1197.4646 0.699 -0.302 0.648 168 147 143
-3015.4697 2919.6680 1203.8282 0.730 -0.313 0.608 165 132 120
-2961.4028 2886.9165 1176.3236 0.265 -0.883 -0.386 165 112 85
-3089.3396 3036.2234 1217.6416 0.898 -0.157 -0.411 183 125 88
-3092.3940 3046.5227 1216.3992 0.212 -0.639 0.740 192 133 96
-3113.9966 3073.3872 1222.8287 0.282 -0.506 0.816 195 142 106
-3087.6914 3065.2471 1206.8672 0.411 -0.773 0.483 194 152 117
-3108.7141 3091.8203 1212.9818 0.470 -0.720 0.511 190 152 120
-3073.9563 3075.9778 1193.5750 0.633 -0.301 0.713 177 154 133
-3083.8018 3100.4133 1192.4701 0.416 -0.646 0.641 141 128 115
-3078.1416 3103.0674 1187.5778 0.387 -0.666 0.638 127 117 105
-2886.1934 3095.5627 1053.9324 0.100 -0.729 -0.677 46 42 41
-2898.8140 3115.7637 1056.1973 0.375 -0.676 -0.635 46 41 40
-2556.3440 3282.0015 758.3015 0.125 -0.624 0.771 217 134 68
-2542.8025 3275.0647 750.9936 0.277 -0.573 0.771 215 133 68
-2538.5586 3279.0203 746.6747 0.403 -0.526 0.749 213 130 65
-2378.3452 3193.4514 661.3716 0.193 -0.925 -0.327 158 108 85
-2366.7280 3188.0437 654.9226 0.200 -0.913 0.356 156 108 84
-2360.4409 3189.1387 650.1014 0.175 -0.922 0.347 155 109 85
-2363.7395 3202.0461 648.1689 0.203 -0.888 0.414 145 101 80
-2396.0269 3278.1497 645.8799 0.950 0.078 -0.303 128 87 67
-2410.2810 3305.1726 647.0455 0.872 -0.046 -0.487 123 82 62
-2409.9153 3313.9756 643.8727 0.878 -0.045 -0.476 125 84 64
-2410.8870 3324.5015 641.0783 0.878 -0.045 -0.476 138 97 77
-2412.8247 3336.2964 638.5490 0.879 -0.061 -0.472 160 117 95
-2421.6091 3356.8311 637.9827 0.878 -0.051 -0.475 181 138 114
-2431.1462 3378.4338 637.5968 0.879 -0.041 -0.474 196 152 129
-2468.7002 3435.9114 645.2072 0.413 -0.430 -0.803 208 164 141
-2467.3586 3443.9336 641.6009 0.413 -0.430 -0.803 221 177 154
-2516.6692 3547.2288 642.3854 0.831 -0.064 -0.552 231 192 169
-2525.8899 3569.3721 641.5961 0.461 0.022 0.887 221 185 164
-2532.7346 3588.5364 640.1078 0.413 -0.020 0.910 190 156 136
-2529.8564 3595.0767 635.9021 0.292 -0.123 0.948 162 127 108
-2537.8677 3615.9365 634.6801 0.352 -0.079 0.933 118 83 65
-2524.6765 3608.9817 627.6265 0.369 -0.072 0.926 75 38 22
-2471.5706 3569.7375 602.9521 0.358 -0.083 0.930 35 14 5
-2283.0962 3476.8425 500.0311 0.500 -0.725 0.473 35 30 27
-2280.8127 3483.8828 496.0818 0.481 -0.726 0.492 41 33 31
-2274.2070 3484.8591 491.0739 0.481 -0.726 0.492 40 32 30
-2264.6799 3481.6926 485.3654 0.494 -0.716 0.492 39 31 29
-2251.6045 3473.4531 478.8191 0.952 -0.205 -0.228 44 36 34
-2245.2437 3474.6958 473.8969 0.861 -0.357 0.362 46 38 36
-2236.4712 3472.4839 468.4075 0.868 0.152 0.474 46 38 36
-2238.7532 3486.0723 465.5287 0.869 0.150 0.472 46 37 35
-2239.2073 3497.1042 462.1997 0.865 0.150 0.478 56 43 40
-2239.0503 3507.3083 458.7112 0.865 0.150 0.478 78 62 58
-2238.8926 3517.5596 455.2067 0.865 0.150 0.478 113 95 91
-2241.1755 3531.4014 452.2447 0.870 0.146 0.471 139 121 117
-2245.8708 3548.8279 449.8072 0.867 0.147 0.476 174 156 152
-2227.1362 3532.1196 442.0502 0.870 0.138 0.473 189 171 167
-2215.4070 3525.5498 435.9063 0.923 0.045 0.382 200 182 178
-2217.3137 3538.9707 432.8168 0.925 0.052 0.376 211 191 187
-2261.2126 3647.4177 428.0584 0.894 -0.158 0.419 224 194 186
-380.8766 3585.5886 -885.0052 0.296 -0.759 0.580 255 142 146
-366.3094 3569.2141 -889.9169 -0.161 -0.848 0.505 255 122 147
-291.9315 2939.8943 -734.3876 -0.364 -0.925 0.106 255 97 131
-3149.8188 2565.1675 1407.9086 0.804 -0.446 0.394 143 111 92
-3156.0728 2575.7095 1408.8248 0.832 -0.467 0.300 147 110 93
-3156.6101 2582.1709 1407.0530 0.858 -0.460 0.228 148 108 89
-3278.2908 2695.3738 1455.4948 0.528 -0.712 0.463 120 79 62
-3327.7507 2751.0144 1471.9784 0.531 -0.337 0.777 104 57 37
-3317.0388 2749.6858 1464.8369 0.524 -0.364 0.770 97 50 30
-3305.3179 2747.5889 1457.2372 0.666 -0.279 0.692 94 47 27
-3295.8767 2747.1543 1450.6975 0.688 -0.247 0.682 92 47 27
-3318.8167 2777.3933 1456.8663 0.547 -0.280 -0.789 92 47 29
-3329.7158 2805.5938 1455.1896 0.502 -0.319 -0.804 91 46 35
-3219.3110 2775.3042 1387.1134 0.488 -0.334 0.806 33 24 25
-2873.0874 2588.3098 1204.2769 0.111 -0.717 0.689 50 53 63
-2884.7068 2603.7773 1207.3513 -0.072 -0.944 0.323 60 63 77
-2877.6667 2604.3901 1202.1628 0.263 -0.946 -0.189 76 81 98
-2881.0164 2613.3257 1201.5581 0.130 -0.880 -0.457 86 91 112
-2905.9065 2652.3447 1206.1829 0.156 -0.817 -0.555 120 126 147
-2901.0540 2654.8027 1201.9287 0.163 -0.814 -0.557 124 131 151
-2926.0442 2688.0073 1208.5613 0.926 0.008 -0.377 131 132 149
-2918.6470 2714.6096 1194.4630 0.965 0.177 -0.195 199 203 210
-2922.1018 2730.6860 1191.5541 0.963 0.140 -0.232 202 200 212
-2924.4360 2752.6370 1185.8950 0.749 -0.663 -0.001 207 206 223
-2923.8130 2758.8274 1183.3918 0.743 -0.670 -0.002 199 205 221
-2941.0557 2780.0969 1188.5148 0.874 0.026 -0.484 194 207 220
-2940.6033 2793.3320 1183.7860 0.877 0.042 -0.479 184 210 214
-3030.1372 2926.3152 1202.8794 0.625 -0.302 0.720 168 132 121
-3001.2690 2908.4709 1188.3849 0.566 -0.737 0.370 169 125 105
-2968.0825 2886.7473 1172.1251 0.265 -0.883 -0.386 167 114 85
-3089.1599 3029.7161 1210.2247 0.888 -0.185 -0.422 214 157 122
-3078.7947 3035.6616 1200.9059 0.896 -0.175 -0.408 224 169 134
-3078.5237 3043.0122 1198.2655 0.897 -0.151 -0.416 219 173 137
-3083.1611 3054.7747 1197.6309 0.908 -0.146 -0.393 210 170 134
-3073.0898 3053.4033 1190.9572 0.635 -0.358 0.684 201 165 132
-2890.8362 3077.7527 1053.8129 -0.227 -0.961 0.161 34 30 29
-2895.2153 3097.7385 1050.2561 0.100 -0.729 -0.677 42 38 37
-2880.0793 3122.8179 1031.1863 -0.194 -0.723 0.663 138 139 119
-2861.9802 3129.0833 1016.2853 0.647 0.001 0.763 171 143 133
-2541.5615 3266.3892 743.6964 -0.116 -0.856 0.504 217 130 63
-2363.9897 3186.4045 644.6196 0.175 -0.922 0.347 160 116 85
-2364.8979 3196.3472 641.9508 0.148 -0.905 0.399 151 109 79
-2418.4590 3307.9822 642.6866 0.924 -0.001 -0.382 130 91 63
-2419.5911 3318.6665 639.9293 0.924 -0.001 -0.382 136 97 69
-2418.3508 3326.4167 636.4696 0.952 -0.008 -0.307 142 102 74
-2423.0979 3341.7488 634.7235 0.952 -0.017 -0.306 157 111 83
-2489.7029 3454.8779 644.1967 0.256 -0.568 -0.782 199 148 120
-2517.4294 3540.1277 635.4307 0.831 -0.065 -0.553 222 175 151
-2494.8210 3520.9192 625.8224 0.459 0.018 0.888 208 165 141
-2498.8987 3536.2996 623.5862 0.413 -0.020 0.910 170 128 106
-2496.6555 3543.5061 619.5977 0.291 -0.121 0.949 135 92 72
-2506.8354 3567.0088 618.9764 0.367 -0.076 0.927 96 53 33
-2448.9602 3501.2290 599.9120 0.548 0.100 0.830 70 25 9
-2444.8794 3505.9126 595.4628 0.537 0.083 0.839 58 14 3
-2457.0764 3542.3149 591.9728 0.333 -0.139 0.933 39 14 4
-2413.1279 3494.0679 576.9285 0.784 -0.213 0.583 41 21 9
-2396.7507 3512.6328 559.1498 0.244 -0.506 0.827 27 11 3
-2293.7385 3383.5593 529.2117 0.461 -0.488 0.741 28 11 3
-2295.1848 3475.4189 499.6377 0.967 -0.254 -0.037 24 19 15
-2290.6394 3489.5396 491.7161 0.510 -0.725 0.464 41 33 31
-2286.7422 3494.3569 487.3523 0.515 -0.718 0.468 42 34 32
-2276.6746 3490.4858 481.5140 0.505 -0.727 0.465 41 33 31
-2254.0649 3468.8271 472.7210 0.952 -0.205 -0.228 44 36 34
-2245.6194 3467.1106 467.3135 0.861 -0.357 0.362 46 36 35
-2240.5540 3470.1768 462.7059 0.862 -0.359 0.358 46 36 35
-2235.3481 3473.0432 458.0654 0.848 -0.081 0.523 47 37 35
-2234.3655 3481.9626 454.3987 0.829 -0.079 0.554 46 32 28
-2232.6860 3489.9197 450.5592 0.827 -0.070 0.558 60 42 38
-2231.6003 3498.7664 446.8437 0.747 -0.209 0.631 83 64 60
-2230.6726 3507.8811 443.1509 0.794 -0.214 0.569 105 86 80
-2231.1147 3519.0259 439.7516 0.885 0.010 0.466 142 125 118
-2228.5706 3525.8738 435.6694 0.946 0.073 0.314 164 147 140
-2206.5276 3504.2402 427.2692 0.951 0.045 0.307 184 165 159
-2205.7920 3513.6982 423.5980 0.951 0.045 0.307 204 181 178
-2230.1660 3560.1541 425.3804 0.966 -0.250 0.061 217 191 185
-2246.6719 3617.1099 418.0948 0.943 -0.237 0.234 225 195 187
-2060.5938 4260.7534 71.9603 0.644 0.244 0.725 222 180 168
-2144.4329 4470.7534 61.3678 0.874 0.306 0.377 228 185 169
-494.3472 3903.1506 -917.8118 0.397 -0.874 -0.280 249 47 97
-492.1039 3923.6370 -926.2239 0.315 -0.916 -0.247 255 68 113
-295.2305 3021.1064 -764.9817 0.302 -0.302 -0.904 251 76 115
-3149.4375 2559.6914 1400.9456 0.804 -0.446 0.394 130 91 74
-3156.3394 2570.6733 1402.1422 0.848 -0.440 0.296 133 88 73
-3153.8052 2574.9104 1398.9308 0.829 -0.465 0.310 133 89 70
-3302.5422 2713.9504 1457.4452 0.765 -0.299 0.571 122 72 58
-3299.5549 2718.2271 1453.9000 0.742 -0.424 0.520 117 65 51
-3294.7952 2721.2119 1449.5354 0.742 -0.424 0.520 114 60 46
-3285.7585 2721.0527 1443.2018 0.751 -0.475 0.458 107 52 38
-3338.4844 2806.4026 1451.8557 0.548 -0.827 -0.127 100 49 39
-3292.9827 2778.9460 1428.9000 -0.229 -0.802 0.552 100 49 40
-3154.9734 2694.4421 1359.6857 -0.232 -0.745 0.625 91 41 32
-3234.8591 2768.2012 1391.4213 0.915 -0.241 -0.323 68 32 26
-3101.2134 2764.0999 1298.3376 0.455 -0.806 0.378 54 60 67
-3112.1433 2779.4792 1300.9071 0.499 -0.791 0.354 60 70 79
-2888.7146 2607.9048 1200.5083 0.277 -0.912 -0.302 71 83 95
-2892.5374 2617.2217 1200.0869 0.223 -0.678 -0.700 82 95 111
-2908.5032 2642.6616 1202.8431 0.148 -0.832 -0.535 108 120 137
-2907.2102 2647.9807 1200.1460 0.144 -0.844 -0.517 121 133 150
-2928.3252 2684.3616 1202.8738 0.926 0.008 -0.377 157 161 172
-2958.7393 2722.2427 1211.6711 0.940 0.232 0.252 188 187 194
-2960.2590 2730.0906 1210.1144 0.940 0.232 0.252 198 198 205
-2927.5840 2749.6086 1180.4772 0.958 -0.268 0.106 210 199 216
-2917.2317 2747.6318 1173.8230 0.790 -0.613 0.011 208 203 220
-2931.0852 2765.9851 1177.4619 0.756 -0.654 -0.001 199 204 217
-2912.6572 2757.2026 1167.3813 0.739 -0.053 -0.672 192 205 217
-2976.4565 2852.6694 1180.4703 0.997 0.034 -0.068 150 173 179
-3097.9001 3031.0884 1206.4932 0.906 -0.163 -0.391 215 155 121
-3097.7004 3038.4802 1203.8741 0.906 -0.163 -0.391 222 163 129
-3079.9126 3037.8772 1191.5042 0.959 0.240 0.148 217 173 139
-3056.9468 3032.5708 1177.0511 0.609 -0.694 0.385 200 166 137
-3068.1128 3050.1794 1179.0400 0.417 -0.675 0.609 190 162 137
-3145.5791 3167.1296 1194.5868 -0.262 -0.953 0.151 68 64 55
-2926.6782 3113.5840 1057.8214 0.407 -0.564 0.719 47 43 42
-2908.8193 3104.3115 1048.3075 0.105 -0.843 -0.527 51 47 46
-2932.0525 3150.8545 1049.1255 0.541 -0.572 -0.616 83 94 68
-2877.0901 3113.2595 1022.8820 -0.195 -0.738 0.647 147 146 122
-2929.0024 3230.1201 1020.3977 0.766 0.039 0.642 176 116 71
-2947.3533 3256.9524 1024.3727 0.681 -0.143 0.719 185 116 67
-2968.9658 3287.2100 1029.5048 0.533 -0.151 0.832 191 115 60
-2959.2559 3285.9658 1023.0590 0.533 -0.151 0.832 193 115 57
-2965.6675 3301.0388 1022.5377 0.298 -0.254 0.920 196 115 51
-2943.6602 3287.2900 1011.5924 0.290 -0.256 0.922 201 119 55
-2540.5535 3266.9053 733.5167 0.983 -0.171 0.059 220 125 55
-2527.8926 3260.9487 726.5649 0.982 -0.168 0.087 221 125 55
-2519.8176 3260.3469 721.0595 0.989 -0.147 -0.019 215 126 61
-2499.0334 3244.6895 711.6184 0.947 -0.021 0.322 205 123 64
-2497.7246 3252.0273 708.2336 0.947 -0.021 0.322 191 113 57
-2498.6846 3262.0923 705.5380 0.959 0.034 0.280 181 109 55
-2487.5352 3266.7051 696.1114 0.420 -0.470 0.776 161 103 60
-2486.5764 3274.5505 692.8038 0.392 -0.279 0.877 160 110 69
-2425.4727 3209.9631 671.2682 0.131 -0.870 -0.475 162 117 78
-2439.5293 3235.7935 672.5442 -0.084 -0.946 -0.314 167 124 86
-2438.8840 3243.9431 669.3561 -0.056 -0.946 -0.318 171 125 89
-2501.4087 3452.1606 643.7466 0.259 -0.565 -0.783 182 126 95
-2498.9409 3458.7927 639.7792 0.259 -0.565 -0.783 189 132 101
-2518.4233 3533.3462 628.5565 0.834 -0.063 -0.548 202 150 123
-2469.2314 3479.7827 611.7445 0.456 0.026 0.890 186 136 111
-2466.0618 3485.6050 607.5524 0.413 -0.020 0.910 160 114 90
-2426.8540 3454.3650 590.3137 0.429 0.003 0.903 109 62 36
-2422.4902 3458.5400 585.8298 0.537 0.083 0.839 87 40 17
-2370.2275 3419.2859 562.0505 0.949 0.032 0.314 52 20 5
-2411.7344 3484.2083 569.6230 0.814 -0.191 0.549 46 20 6
-2403.5579 3483.3733 564.1238 0.434 -0.617 0.657 38 15 4
-2396.6235 3484.1733 558.9545 0.423 -0.622 0.659 30 10 2
-2371.1509 3480.1919 542.2857 0.441 -0.284 0.851 32 11 1
-2353.3093 3466.1584 534.3799 0.503 -0.337 0.795 30 11 2
-2283.6775 3471.6914 483.3105 0.491 -0.201 0.847 41 33 31
-2279.1343 3475.5510 478.8056 0.492 -0.201 0.847 41 33 31
-2239.5798 3470.9463 452.3928 0.806 -0.399 0.437 46 36 35
-2237.7444 3478.6348 448.5180 0.775 -0.331 0.539 43 30 27
-2228.5525 3475.8032 442.9706 0.753 -0.211 0.624 50 33 29
-2225.0901 3491.5696 435.2380 0.845 -0.132 0.518 70 52 48
-2225.3838 3502.4355 431.8031 0.857 -0.075 0.509 102 84 80
-2205.1521 3483.5225 423.8438 0.849 -0.042 0.527 127 109 105
-2200.1453 3486.6658 419.2515 0.898 -0.005 0.440 153 135 131
-2112.9163 4444.1465 36.6227 0.770 0.305 0.561 229 187 173
-444.4637 3393.9800 -790.5643 0.366 -0.325 0.872 254 24 80
-444.1327 3423.1353 -800.5720 0.494 -0.335 0.802 253 24 80
-481.7901 3816.6226 -905.8653 1.000 0.012 0.013 255 72 117
-416.2233 3816.1514 -952.0490 -0.140 -0.877 0.460 255 144 148
-410.6781 3851.0334 -967.6616 -0.264 -0.880 0.395 250 130 139
-3154.8323 2564.3770 1394.6490 0.786 -0.398 0.473 131 82 71
-3151.6372 2568.1267 1391.1294 0.781 -0.407 0.475 132 83 68
-3354.3274 2805.7500 1453.9762 0.519 -0.498 -0.695 109 55 45
-3339.2957 2801.2432 1444.8906 0.555 -0.822 -0.127 108 54 47
-3297.6931 2776.7754 1423.7914 -0.229 -0.802 0.552 109 54 48
-3272.6509 2764.6082 1410.2271 -0.196 -0.808 0.556 108 51 46
-3226.2415 2749.3794 1382.6194 0.764 -0.483 -0.429 88 32 25
-3241.7429 2767.7549 1387.3575 0.832 -0.355 -0.426 71 30 25
-3068.8826 2732.8259 1277.1754 0.577 -0.734 0.358 62 65 74
-3105.8154 2768.7441 1291.1166 0.426 -0.794 0.433 64 73 82
-2894.7515 2607.4001 1196.6273 0.255 -0.921 -0.295 71 83 94
-2897.2649 2615.6626 1195.6133 0.222 -0.684 -0.695 81 95 110
-2906.3337 2635.5259 1195.3107 0.160 -0.732 -0.663 107 123 136
-2908.2546 2643.4146 1194.0048 0.176 -0.714 -0.677 125 141 154
-2947.1045 2700.6257 1202.1150 0.972 0.133 0.191 204 207 219
-2927.5039 2750.5752 1171.4338 0.763 -0.227 0.605 210 203 222
-2966.0598 2844.8535 1166.8315 0.991 0.127 -0.051 153 152 155
-3037.6218 2957.0010 1179.4886 0.674 -0.736 -0.058 195 139 100
-3048.4993 2973.8928 1181.4648 0.630 -0.746 0.218 209 150 114
-3074.9121 3012.0212 1187.2378 0.960 -0.226 -0.167 222 162 126
-3060.4709 3029.3652 1171.1970 0.647 -0.712 0.272 198 165 136
-3059.1104 3035.7336 1168.0886 0.408 -0.681 0.608 190 161 136
-2936.7673 3092.9314 1062.4695 -0.175 -0.971 0.165 31 27 27
-2928.9543 3093.3591 1056.8126 -0.193 -0.968 0.161 32 28 27
-2914.9177 3087.8132 1048.7797 -0.189 -0.972 0.141 38 33 32
-2923.3445 3103.7888 1049.3356 0.655 -0.423 0.627 54 49 47
-2924.2478 3112.5945 1047.0022 0.484 -0.550 0.680 64 60 58
-2924.3818 3120.6909 1044.3654 0.503 -0.555 0.663 72 72 67
-2921.5513 3125.9456 1040.5955 0.426 -0.562 0.709 82 88 72
-2938.2976 3150.2283 1044.2191 0.541 -0.572 -0.616 100 111 82
-2921.4736 3207.3699 1013.0706 0.894 0.088 0.439 177 117 71
-2884.1646 3211.5269 985.3439 0.862 -0.052 0.505 197 115 48
-2966.6121 3303.5078 1012.4853 0.692 -0.253 0.676 201 120 54
-2966.8035 3312.3381 1009.6412 0.697 -0.258 0.669 203 122 58
-2973.0024 3327.3303 1008.9572 0.619 -0.251 0.744 202 123 60
-2525.4663 3250.9099 718.9682 0.530 -0.315 0.787 219 126 51
-2510.1750 3241.8062 711.2503 0.493 -0.317 0.810 215 127 58
-2502.5854 3241.7178 705.9252 0.495 -0.321 0.807 207 127 63
-2500.3286 3247.9229 702.2393 0.486 -0.329 0.810 198 120 61
-2496.9810 3252.8538 698.2139 0.423 -0.423 0.801 188 115 58
-2491.7183 3255.5161 693.6023 0.418 -0.464 0.781 177 110 59
-2482.8755 3253.9014 687.9079 0.418 -0.464 0.781 167 107 62
-2478.4678 3257.5728 683.5593 0.396 -0.281 0.874 161 109 66
-2474.5337 3261.8184 679.3511 0.986 0.025 0.164 162 118 76
-2466.4502 3261.0703 673.9001 0.999 0.042 0.008 168 124 83
-2439.7368 3246.7146 659.8948 0.977 -0.031 0.209 177 128 89
-2368.7415 3178.0679 632.9615 0.011 -0.995 -0.104 175 129 91
-2504.2983 3438.3040 640.8115 0.995 0.009 -0.104 192 138 104
-2511.6396 3457.2793 639.5898 0.409 -0.496 -0.766 195 137 103
-2505.3921 3459.1406 634.5536 0.280 -0.552 -0.785 195 136 102
-2489.7141 3449.0117 626.9088 0.899 -0.061 -0.434 192 136 100
-2499.8906 3471.7568 626.4156 0.927 -0.058 -0.370 190 134 98
-2428.1770 3428.6118 590.3719 0.401 -0.030 0.915 167 117 85
-2419.6597 3466.7461 571.4970 0.442 -0.212 0.871 115 66 38
-2408.5964 3462.1101 565.2552 0.825 -0.183 0.535 94 55 32
-2409.3767 3473.1050 562.0964 0.819 -0.190 0.542 77 43 23
-2379.2593 3463.0134 544.2508 -0.414 -0.908 0.058 42 12 0
-2365.3213 3464.3418 533.9682 0.441 -0.284 0.851 39 9 0
-2245.6362 3430.6919 460.8738 0.999 0.028 -0.032 41 32 34
-2261.5413 3483.7102 454.2092 0.972 -0.183 -0.151 45 36 38
-2257.8059 3488.7332 449.8792 0.950 -0.295 -0.100 45 36 37
-2223.0317 3480.4011 428.1542 0.887 -0.224 0.405 56 39 36
-2206.8159 3467.3669 421.1100 0.875 -0.213 0.435 70 54 51
-2220.5166 3561.2432 399.1061 0.923 -0.209 0.322 227 197 190
-481.1880 3823.4248 -916.5750 1.000 0.015 -0.021 255 99 131
-425.2277 3826.8210 -957.2051 -0.124 -0.884 0.450 255 145 151
-420.5749 3826.8513 -960.4982 -0.130 -0.883 0.452 255 144 150
-3154.5576 2558.9758 1387.7449 0.766 -0.400 0.502 137 92 78
-3152.5193 2563.5454 1384.7578 0.783 -0.388 0.487 137 92 75
-3202.5735 2636.5203 1395.2389 0.895 -0.436 -0.092 132 73 58
-3231.1311 2663.6187 1406.1537 0.790 -0.552 0.267 131 68 52
-3322.6091 2749.9827 1441.2666 0.284 -0.532 -0.797 119 57 42
-3326.6987 2759.5710 1440.8917 0.272 -0.542 -0.795 118 58 45
-3360.9502 2804.9106 1449.6243 0.519 -0.498 -0.695 118 57 46
-3343.9185 2798.9358 1439.6561 0.555 -0.822 -0.127 118 57 47
-3339.6541 2802.4624 1435.4552 0.555 -0.822 -0.127 119 58 47
-3350.1152 2817.0369 1437.8755 -0.311 -0.839 0.447 116 55 44
-3307.4917 2791.7524 1416.4371 -0.338 -0.846 0.413 106 44 33
-3188.8027 2708.9526 1360.9475 0.882 -0.245 -0.403 100 39 27
-3195.0073 2720.1260 1361.5247 0.886 -0.241 -0.396 90 34 21
-3242.2354 2762.4497 1380.4211 0.822 -0.361 -0.439 74 30 21
-2960.1692 2609.9324 1233.5237 0.685 -0.031 0.728 38 32 40
-2959.0232 2615.2795 1230.9011 0.659 -0.011 0.752 43 39 44
-3058.8140 2719.2693 1265.8850 0.416 -0.776 0.474 66 71 74
-3094.3477 2753.9731 1279.1316 0.448 -0.807 0.385 67 75 82
-2895.7549 2609.1289 1188.4250 0.311 -0.897 -0.315 81 94 106
-2896.0444 2615.6233 1186.4242 0.281 -0.921 -0.270 93 108 120
-2917.8640 2645.7341 1191.5703 0.804 -0.587 0.094 130 146 156
-2940.7319 2683.4314 1194.8790 0.899 -0.056 0.435 199 205 216
-2936.0986 2686.1555 1190.6907 0.877 -0.120 0.465 214 215 227
-2915.2654 2675.6897 1179.5696 0.464 -0.689 0.557 205 203 216
-2908.0618 2676.2795 1174.2954 0.464 -0.689 0.557 196 194 207
-2908.5044 2769.2876 1143.0302 0.658 -0.190 0.729 154 190 201
-2914.7388 2788.1980 1141.0011 0.729 -0.244 0.640 145 161 167
-2932.0120 2809.8250 1145.8254 0.799 -0.051 0.599 151 151 154
-2946.8503 2829.4673 1149.6083 0.826 0.044 0.562 158 143 143
-3034.5872 2948.1912 1171.0995 0.677 -0.732 -0.075 195 145 109
-3041.0757 2961.1934 1171.2554 0.514 -0.814 0.271 205 155 118
-3144.7454 3168.9934 1173.7269 -0.190 -0.796 0.574 33 26 21
-2938.7136 3096.1138 1053.3481 0.382 -0.655 0.652 30 24 26
-2928.6770 3094.4260 1046.8516 0.480 -0.603 0.637 40 30 28
-2925.9558 3099.7200 1043.1376 0.615 -0.380 0.691 60 49 46
-2934.6003 3115.9463 1043.7175 0.668 -0.262 0.696 73 62 59
-2928.5635 3118.1040 1038.7327 0.668 -0.262 0.696 85 80 71
-2890.0071 3169.2290 994.2174 0.979 0.180 -0.096 180 118 75
-2964.6665 3303.0466 1001.3728 0.973 -0.047 0.225 196 123 65
-2966.7166 3313.7712 999.1757 0.968 -0.013 0.251 198 124 67
-2982.3584 3338.4128 1001.8274 0.830 -0.048 0.555 201 126 67
-2497.5344 3237.4495 694.6107 0.829 0.222 0.513 194 115 63
-2490.2092 3237.6423 689.3856 0.386 -0.261 0.885 186 111 64
-2483.3491 3238.3711 684.3060 0.392 -0.264 0.881 177 104 60
-2473.3728 3235.3740 678.2966 0.406 -0.252 0.878 168 103 67
-2467.1057 3236.7742 673.4069 0.427 -0.219 0.877 161 110 72
-2468.8252 3247.7402 670.8949 0.969 0.039 0.244 163 116 81
-2381.7104 3351.2859 574.3794 0.462 0.050 0.885 195 127 82
-2406.6477 3393.0137 577.7775 0.408 -0.029 0.912 191 122 78
-2413.8196 3411.9680 576.3939 0.432 -0.048 0.901 189 118 74
-2411.0242 3418.0686 572.3538 0.471 -0.011 0.882 185 116 71
-2405.1289 3449.6296 557.4861 0.824 -0.176 0.538 149 93 55
-2401.2559 3454.4302 553.1282 0.824 -0.176 0.538 134 82 48
-2389.3774 3458.5745 543.3543 -0.346 -0.930 -0.122 110 64 36
-2381.9214 3458.6162 538.0885 -0.413 -0.911 0.009 83 35 12
-2322.3621 3398.7371 516.4661 0.376 -0.415 0.829 56 8 0
-2313.2371 3396.2834 510.8718 0.516 -0.324 0.793 48 3 2
-2279.2346 3409.3022 482.5016 0.345 -0.502 0.793 32 17 11
-2247.8455 3425.8059 454.7889 0.999 0.043 -0.004 47 41 45
-2258.8267 3451.3123 453.8641 0.996 -0.071 -0.052 54 48 50
-2266.5728 3482.6819 448.6700 0.984 -0.128 0.124 49 43 47
-2253.3462 3474.2517 442.2156 0.931 -0.361 -0.060 47 40 44
-2254.3059 3485.9236 438.9290 0.953 -0.291 -0.090 46 36 37
-2229.3406 3470.9517 426.4274 0.885 -0.242 0.398 43 33 33
-2199.9409 3459.6121 409.5690 0.886 -0.324 0.333 58 47 47
-2193.4758 3460.5813 404.6861 0.884 -0.341 0.321 86 75 76
-2192.6448 3469.7375 400.9922 0.874 -0.332 0.356 122 110 110
-2186.6365 3492.2891 389.1036 0.939 0.184 0.290 207 182 179
-2189.0833 3506.4302 386.0260 0.900 0.064 0.431 213 187 185
-2222.5986 3566.6211 389.1978 0.623 -0.473 0.622 216 192 189
-1939.5071 3965.9565 54.2191 0.764 -0.522 -0.380 233 196 187
-478.5817 3603.7976 -851.8542 0.974 0.092 0.207 254 26 81
-479.6002 3644.8611 -865.0783 0.972 0.091 0.215 248 31 83
-406.2420 3668.6365 -924.8214 0.860 -0.400 -0.319 255 141 150
-402.4730 3674.8123 -929.5729 0.869 -0.391 -0.304 255 135 143
-399.5091 3688.5298 -936.3177 0.857 -0.477 -0.193 254 127 139
-320.3668 3056.7009 -777.5515 0.606 -0.773 -0.190 255 94 135
-3152.9502 2552.6367 1380.2429 0.766 -0.400 0.502 129 87 72
-3150.9985 2557.2544 1377.2930 0.783 -0.388 0.487 128 89 69
-3184.2954 2605.5225 1384.2151 0.671 -0.668 0.324 131 89 72
-3130.0149 2609.1196 1344.8182 0.520 -0.220 0.825 128 67 50
-3345.7415 2774.5515 1439.9885 0.563 -0.529 -0.635 128 67 49
-3344.0732 2779.9592 1436.9680 0.563 -0.529 -0.635 128 66 47
-3356.3914 2795.7610 1440.2308 0.593 -0.544 -0.593 124 61 41
-3270.8337 2758.5122 1392.7964 -0.333 -0.863 0.381 114 49 26
-3148.7236 2673.2568 1336.0610 0.556 -0.830 0.031 111 42 21
-3179.4712 2702.8364 1347.5756 0.800 -0.282 -0.530 103 36 17
-2896.9429 2537.3027 1205.4678 0.918 -0.163 0.362 55 38 26
-2933.1543 2583.6162 1215.1071 0.735 0.033 0.678 67 51 53
-2930.1863 2587.4727 1211.7025 0.735 0.033 0.678 64 53 51
-2982.6479 2634.6631 1232.4689 0.762 -0.648 -0.014 65 60 56
-2980.4888 2639.2861 1229.3712 0.766 -0.643 -0.013 72 72 70
-2981.5735 2646.4695 1227.6797 0.785 -0.616 -0.057 68 74 67
-3025.2996 2687.2839 1244.4818 0.640 -0.753 0.150 67 73 68
-2901.7268 2602.3167 1186.6195 0.265 -0.920 -0.289 75 85 88
-2896.7913 2604.6357 1182.3568 0.203 -0.971 -0.130 74 85 90
-2904.2046 2616.7930 1183.4160 0.934 -0.357 -0.024 94 105 112
-2932.9473 2678.1016 1182.6805 0.877 -0.120 0.465 202 202 212
-2913.7961 2675.4709 1170.1130 0.678 -0.667 0.309 187 185 196
-2938.4692 2721.8115 1171.6299 0.948 0.028 -0.318 185 183 191
-2935.6929 2739.4148 1163.6633 0.551 -0.386 0.740 201 191 194
-2928.1174 2739.7803 1158.2118 0.551 -0.386 0.740 208 200 203
-2950.1702 2819.5205 1146.4752 0.658 0.196 0.727 151 146 144
-2950.1172 2826.4089 1144.0845 0.643 0.195 0.740 154 138 137
-3085.5547 3061.8726 1158.8726 0.912 0.221 0.346 127 108 93
-2949.4348 3091.8743 1052.9084 0.156 -0.740 0.654 23 19 24
-2938.1841 3089.0627 1045.9579 0.382 -0.655 0.652 26 18 18
-2930.6584 3089.7683 1040.4250 0.486 -0.595 0.640 37 26 22
-2927.1885 3094.3369 1036.4242 0.604 -0.399 0.690 65 50 43
-2933.8293 3108.6055 1036.2190 0.671 -0.316 0.671 78 59 52
-2954.5154 3294.2551 987.3373 0.882 -0.131 0.453 196 126 76
-2954.3071 3302.6594 984.3194 0.890 -0.131 0.437 205 131 79
-2946.8943 3303.7383 978.7385 0.888 -0.123 0.443 205 127 71
-2482.2854 3194.8772 689.2366 0.810 0.216 0.546 200 125 60
-2487.0142 3209.1443 687.6874 0.828 0.219 0.517 197 120 64
-2487.3809 3218.3435 684.8023 0.827 0.221 0.517 186 110 61
-2483.4370 3222.4893 680.6129 0.496 -0.143 0.857 179 104 61
-2474.0420 3220.1833 674.7945 0.496 -0.143 0.857 171 98 57
-2467.7383 3221.5200 669.9053 0.427 -0.219 0.877 163 97 64
-2457.0396 3217.6077 663.7191 0.427 -0.219 0.877 163 111 78
-2396.1702 3362.2698 571.4943 0.267 -0.156 0.951 204 122 67
-2395.1372 3370.4856 567.9610 0.269 -0.176 0.947 206 122 68
-2379.4036 3359.7354 560.5706 0.419 -0.068 0.906 206 121 66
-2411.7798 3411.2737 565.7281 0.575 -0.206 0.792 199 116 60
-2402.7908 3409.3193 560.0751 0.580 -0.202 0.790 193 110 54
-2388.7637 3410.4893 549.8122 0.653 -0.181 0.735 194 111 56
-2399.8718 3434.8455 549.3015 0.856 -0.158 0.493 174 103 54
-2394.4502 3437.5654 544.5601 0.845 -0.164 0.509 159 93 49
-2402.4751 3458.0518 543.2037 -0.206 -0.962 -0.181 150 87 46
-2398.3167 3462.4995 538.7601 -0.346 -0.930 -0.122 145 82 43
-2390.9207 3462.6514 533.5076 -0.413 -0.911 0.009 126 62 22
-2314.2712 3389.8770 504.4743 0.500 -0.373 0.782 83 22 3
-2268.0229 3405.8745 466.4887 0.258 -0.680 0.686 28 18 16
-2258.9509 3403.2996 460.9893 0.042 -0.776 0.629 34 27 27
-2262.9983 3418.8804 458.5122 0.401 -0.672 0.623 39 33 35
