ply
format ascii 1.0
element vertex 794
property float x
property float y
property float z
property float nx
property float ny
property float nz
property uchar diffuse_red
property uchar diffuse_green
property uchar diffuse_blue
end_header
-2255.0029 2787.4077 396.1468 0.368 -0.888 -0.277 154 83 52
-2234.3574 2772.4624 389.6591 0.404 -0.875 -0.267 164 89 56
-2385.2014 3245.7913 344.0298 0.016 -0.932 -0.362 99 40 21
-2239.0408 3252.7043 269.3028 0.099 -0.930 0.354 10 10 10
-2226.3533 3245.8506 264.7204 0.062 -0.903 0.426 11 11 11
-2236.0637 3269.9204 263.4182 0.390 -0.899 -0.201 21 21 21
-2251.6250 3302.2581 262.9245 0.147 -0.988 0.052 34 34 36
-2247.3413 3307.1228 259.5432 0.110 -0.993 0.040 41 40 44
-2221.6414 3325.3721 242.0518 0.967 -0.242 -0.077 21 21 29
-2207.6455 3316.3789 237.3629 0.997 -0.078 -0.002 26 26 34
-2204.6646 3468.8979 196.9087 0.304 -0.949 -0.082 213 196 202
-2238.4285 3543.0042 194.8301 0.247 -0.969 0.020 219 203 207
-1756.0189 5158.1597 -458.6275 0.677 -0.394 -0.621 199 177 189
-1758.5680 5208.8984 -470.3180 0.976 0.115 -0.187 212 186 199
-1764.5908 5248.5259 -477.4357 0.664 -0.033 -0.747 214 186 200
-1760.9103 5259.7163 -482.1319 0.995 0.099 -0.019 214 186 200
-1732.0731 5284.7578 -502.9246 0.824 0.235 0.516 228 196 209
-3961.8271 3044.6755 1171.6576 0.622 -0.065 -0.780 143 103 86
-3683.9604 2866.4453 1079.2291 0.028 -0.993 -0.114 144 103 84
-3673.6538 2868.6782 1073.5280 0.039 -0.992 -0.121 146 104 85
-3667.8455 2874.1277 1069.2379 0.062 -0.988 -0.143 163 123 106
-3589.8044 3165.5151 955.5280 0.850 -0.515 -0.113 171 131 131
-3163.2263 2861.9172 821.3377 0.381 -0.441 -0.812 121 94 97
-3161.8982 2870.1550 818.5600 0.380 -0.446 -0.810 118 95 97
-2548.5435 2567.1890 591.2898 0.862 -0.502 -0.069 133 73 49
-2537.7559 2589.9524 580.0731 0.614 -0.554 0.562 175 100 70
-2534.6985 2595.3254 577.1711 0.589 -0.602 0.539 181 105 71
-2527.5591 2596.8513 573.2272 0.747 -0.660 0.079 189 113 76
-2520.2815 2598.2251 569.2537 0.845 -0.534 -0.007 194 119 76
-2511.8328 2769.1782 521.1160 0.305 -0.463 0.832 151 80 41
-2234.8081 2768.3655 383.5106 0.389 -0.821 -0.418 164 89 57
-2370.8093 3001.0237 391.3757 0.276 -0.961 -0.007 207 162 148
-2686.6453 3441.9087 435.1912 0.901 -0.299 -0.314 226 200 188
-2397.7485 3256.3494 339.1591 0.068 -0.943 -0.324 85 37 17
-2236.3027 3264.6404 256.7121 0.280 -0.836 0.472 20 20 20
-2261.3362 3310.0510 257.4953 0.067 -0.923 0.380 28 28 30
-2208.6138 3468.7568 190.4799 0.431 -0.889 0.153 209 194 201
-2209.9009 3482.2310 187.6573 0.277 -0.957 0.084 217 202 209
-2241.2725 3541.0930 188.1366 0.452 -0.886 0.104 217 202 209
-1761.4266 5162.5117 -467.2794 0.677 -0.394 -0.621 219 194 205
-1763.5188 5345.1846 -513.1852 -0.157 -0.912 -0.379 223 191 202
-1691.8512 5173.2778 -504.6587 0.686 0.192 0.701 229 191 204
-3939.5662 3003.1157 1160.5859 0.770 -0.513 -0.379 139 89 74
-3972.8420 3047.1165 1165.7086 0.659 -0.032 -0.752 148 93 76
-3635.6021 2817.4158 1057.8931 0.840 -0.080 0.537 146 91 73
-3685.2107 2871.9507 1068.3899 0.045 -0.988 -0.147 145 91 74
-3673.7795 2873.3774 1062.3538 0.045 -0.988 -0.147 148 103 87
-3657.8169 2871.4971 1054.9260 0.033 -0.990 -0.138 155 115 98
-3600.6040 2849.1560 1032.3364 0.146 -0.908 0.392 175 138 122
-3653.0867 2906.7466 1043.4684 0.256 -0.966 0.018 189 150 135
-3281.9241 2936.7087 851.7085 -0.252 -0.741 0.622 154 118 120
-3167.9885 2870.3660 812.3723 0.568 -0.233 -0.789 69 46 49
-3450.1370 3199.7517 867.1048 0.620 -0.122 -0.775 65 80 83
-3411.0496 3218.3208 842.9259 0.376 -0.926 -0.017 68 81 81
-2516.2295 2590.0784 561.7024 0.733 -0.599 0.322 161 90 52
-2513.4070 2595.6431 558.8646 0.724 -0.611 0.321 176 106 62
-2243.5203 2747.4531 385.8159 0.104 -0.925 -0.367 150 77 45
-2237.5710 3260.7908 250.1622 0.279 -0.847 0.452 20 20 20
-2211.8711 3467.5737 183.9647 0.593 -0.775 0.218 208 193 200
-2208.5063 3474.0667 180.6180 0.270 -0.795 0.544 217 202 209
-1818.7382 4900.6543 -381.4112 0.770 0.115 0.627 235 207 214
-1815.9703 4912.9121 -385.9521 0.785 0.152 0.600 235 207 214
-1823.7045 4953.3579 -392.5735 0.774 0.108 0.624 235 208 213
-1866.2129 5087.6523 -406.2155 -0.215 -0.905 -0.366 235 208 213
-1766.8510 5166.8774 -475.9577 0.677 -0.394 -0.621 234 206 215
-1773.5876 5208.0254 -483.2550 0.667 -0.032 -0.744 235 205 215
-1756.7933 5246.2490 -501.4626 0.579 -0.335 -0.743 233 201 212
-1774.9204 5344.7847 -517.9484 0.554 -0.167 -0.815 232 199 210
-1776.4379 5371.9897 -524.2289 -0.152 -0.909 -0.388 233 198 210
-1626.8380 4985.9136 -498.5916 0.625 0.073 0.777 227 186 200
-3832.1309 2739.7351 1165.3132 -0.224 -0.922 -0.315 45 37 34
-3764.9712 2732.7871 1133.9380 -0.212 -0.930 -0.301 101 61 42
-3986.2280 3040.8887 1163.1409 0.730 -0.008 -0.684 149 93 74
-3988.7612 3053.0063 1161.2416 0.731 -0.010 -0.683 150 92 73
-3694.2104 2863.7329 1064.9274 0.315 -0.906 0.283 148 90 71
-3682.5479 2865.0217 1058.8301 0.339 -0.898 0.281 146 90 72
-3646.5916 2858.3882 1042.7898 0.022 -0.939 0.342 137 94 78
-3658.0342 2905.3000 1036.2450 0.256 -0.966 0.018 179 137 121
-3261.3723 2982.2424 820.2571 0.986 0.154 0.058 56 56 52
-3448.5059 3224.4736 849.7287 0.307 -0.949 0.074 66 81 84
-3354.3567 3183.7830 813.7925 0.374 -0.921 -0.109 70 68 64
-3327.9338 3181.1453 801.4235 0.352 -0.930 -0.103 87 71 71
-2747.2749 2689.3569 642.4123 -0.248 -0.790 -0.560 170 135 141
-2522.2732 2599.7329 554.5491 0.939 -0.344 -0.002 155 88 53
-2254.0845 3288.6716 242.9013 -0.014 -0.806 0.592 27 27 29
-2252.3616 3297.0647 239.8676 -0.056 -0.803 0.594 31 30 34
-2213.7190 3464.2854 177.2934 0.593 -0.775 0.218 211 196 203
-2208.2114 3467.5684 173.7187 0.282 -0.793 0.539 217 202 209
-1778.0892 5102.8677 -464.0153 0.879 -0.459 0.129 238 207 215
-1798.5927 5182.4175 -474.5702 -0.207 -0.910 0.360 236 206 214
-1790.1243 5244.5552 -494.9117 0.686 -0.011 -0.728 236 204 212
-1784.2467 5360.6582 -528.0054 -0.181 -0.939 -0.294 234 198 208
-1787.3778 5392.7290 -534.7978 -0.184 -0.933 -0.310 235 197 208
-3812.5884 2712.8352 1152.6310 0.815 -0.439 -0.379 43 38 35
-3829.0679 2732.8667 1155.5060 0.562 -0.595 -0.574 44 38 35
-3832.3530 2753.7461 1151.6626 0.481 -0.487 -0.730 81 50 42
-3650.5913 2706.5735 1074.5056 0.620 -0.409 -0.670 107 64 48
-3695.3025 2859.4968 1056.5245 0.329 -0.904 0.271 145 91 71
-3691.8782 2866.6748 1052.9612 0.368 -0.880 0.300 144 92 72
-3657.4614 2909.5344 1024.8057 0.246 -0.968 0.043 165 124 108
-3647.3679 2911.8547 1019.2292 0.246 -0.968 0.043 175 137 119
-3297.5923 2854.0508 862.1273 0.861 -0.279 -0.425 168 133 129
-3510.8000 3034.1992 919.9889 0.603 -0.093 -0.793 168 133 129
-3524.1567 3065.0908 918.4858 0.620 -0.258 -0.741 162 133 134
-3191.7249 2918.2449 793.2115 0.987 0.032 0.159 68 71 66
-3397.0393 3184.5642 824.6495 0.824 0.002 0.567 66 81 84
-3398.5720 3196.3669 822.3173 0.818 0.020 0.575 68 82 82
-2541.6018 2588.8706 559.2533 0.439 -0.889 -0.131 128 63 58
-2534.2058 2590.1741 555.2709 0.500 -0.849 -0.167 120 56 45
-2530.2383 2594.6843 552.1376 0.918 -0.396 -0.003 115 51 34
-2523.4587 2596.5364 548.3153 0.939 -0.344 -0.002 123 61 37
-2432.4353 2674.7363 483.0453 0.922 0.003 -0.388 152 80 40
-2397.2117 2812.0820 429.7807 0.560 -0.482 -0.674 149 75 38
-2375.2869 2823.9224 415.8889 0.410 -0.653 -0.637 150 75 44
-2340.9380 2794.8184 406.5882 0.997 -0.061 -0.056 150 75 44
-2245.2625 2784.1978 362.2578 0.453 -0.585 -0.673 201 137 112
-2251.2151 2799.9656 361.0649 0.446 -0.594 -0.670 210 146 121
-2391.3840 3295.2761 300.5365 0.111 -0.757 -0.644 22 7 7
-2271.1672 3306.5833 238.3877 0.029 -0.655 0.755 27 27 29
-2214.4460 3459.3333 170.5095 0.611 -0.766 0.197 212 197 204
-2210.3040 3464.6484 167.0799 0.619 -0.761 0.191 217 202 209
-1727.2900 5157.6440 -513.5301 0.420 -0.903 0.093 234 198 208
-1762.6831 5306.9316 -535.1482 -0.075 -0.996 -0.041 235 197 208
-3336.1948 2007.7483 1094.3337 -0.200 -0.979 -0.042 56 54 49
-3817.7061 2711.3311 1145.5166 0.867 -0.468 0.174 43 38 35
-3835.2170 2732.0120 1148.6686 0.803 -0.448 -0.392 44 38 35
-3884.1130 2801.8906 1154.2784 0.540 -0.793 -0.281 96 58 39
-3660.4673 2699.3499 1071.5159 0.141 -0.982 -0.128 116 62 34
-3663.6040 2710.6133 1070.0919 0.661 -0.372 -0.652 116 67 45
-3674.7407 2727.3508 1071.1537 0.917 0.200 -0.344 118 71 49
-3628.8428 2816.7185 1025.1243 0.281 -0.945 0.167 141 88 69
-3621.5369 2820.9504 1020.4263 0.453 -0.845 0.284 138 93 75
-3680.0425 2911.2200 1025.3875 0.217 -0.975 -0.046 138 99 82
-3669.7925 2913.4851 1019.7622 0.339 -0.939 0.058 142 103 86
-3542.3936 2858.1047 971.8193 0.065 -0.909 -0.412 177 145 130
-3358.3171 3197.2668 792.2804 0.585 -0.034 0.811 123 92 97
-2658.9578 2634.5435 597.1523 -0.355 -0.932 -0.067 184 128 135
-2544.4768 2587.2539 553.4196 0.490 -0.836 0.249 178 120 125
-2533.0188 2584.7593 548.4537 0.560 -0.828 0.019 158 100 102
-2527.2539 2587.5681 544.8861 0.919 -0.392 -0.033 144 87 81
-2521.0525 2589.9534 541.2158 0.914 -0.354 0.199 116 58 45
-2452.6667 2725.2285 472.0762 0.917 0.163 -0.365 144 72 34
-2460.3347 2741.8198 471.4743 0.936 0.067 -0.346 144 72 34
-2394.9429 2699.9314 450.4074 0.847 -0.102 -0.522 147 72 35
-2311.7822 2629.7922 428.0533 0.939 0.324 0.113 148 72 35
-2316.6768 2651.6638 424.7015 0.974 0.210 0.083 156 80 44
-2318.8354 2662.3643 422.9460 0.974 0.210 0.083 157 79 44
-2388.0593 2824.2947 414.3155 0.490 -0.375 -0.787 150 69 37
-2394.5227 2849.5181 410.8518 0.905 -0.027 -0.425 155 80 49
-2265.1379 2820.3623 355.0360 0.827 -0.104 -0.552 236 180 161
-2699.1819 3455.9941 400.8029 0.808 -0.494 0.321 223 198 186
-2696.1699 3463.6118 397.3210 0.803 -0.500 0.326 222 191 181
-2269.7312 3309.7446 228.5556 0.007 -0.655 0.756 29 28 32
-2214.9146 3454.0061 163.7101 0.490 -0.868 -0.085 213 198 205
-2209.4995 3457.4143 160.1566 0.490 -0.868 -0.085 217 202 209
-3835.1138 2727.0852 1139.8331 0.814 -0.434 -0.386 44 38 35
-3841.8083 2740.7866 1139.4817 0.859 -0.164 -0.485 56 40 32
-3887.3765 2799.0647 1146.3445 0.570 -0.741 -0.356 94 56 37
-3675.1252 2704.4534 1067.5916 0.132 -0.951 -0.278 119 61 31
-3691.8867 2914.7563 1020.1479 0.255 -0.938 0.234 137 98 81
-3680.7043 2916.3723 1014.2526 0.263 -0.938 0.226 137 98 81
-3588.1296 2858.2903 984.3531 0.023 -0.901 -0.432 136 99 81
-3569.6565 2863.7903 973.8652 0.023 -0.901 -0.432 146 113 96
-3551.7009 2860.0435 966.0768 0.065 -0.909 -0.412 156 124 109
-3544.0356 2863.8823 961.3130 0.187 -0.941 -0.283 166 134 119
-3288.5830 2931.7412 818.4516 -0.218 -0.674 0.705 56 41 37
-3212.6636 2935.5266 780.3279 0.944 0.032 0.328 70 79 71
-3359.9468 3162.0293 792.4192 0.764 -0.546 0.343 75 61 61
-2536.4519 2575.4761 544.9399 0.531 -0.842 -0.097 195 139 155
-2530.8901 2578.4751 541.4268 0.918 -0.396 -0.027 206 152 164
-2528.4246 2584.3701 538.6616 0.918 -0.396 -0.027 215 162 167
-2525.9561 2590.2725 535.8931 0.918 -0.396 -0.027 192 139 137
-2523.7488 2596.4319 533.1842 0.915 -0.402 -0.037 172 120 111
-2444.3958 2695.0298 468.2972 0.842 0.037 -0.539 152 80 42
-2352.0242 2642.3955 437.0558 0.445 -0.895 0.024 149 76 38
-2248.4248 2787.4204 348.0300 0.989 0.132 -0.060 232 180 165
-2669.3821 3380.9580 396.8335 0.460 -0.586 -0.667 227 196 186
-2693.7878 3432.3906 395.1597 0.940 -0.010 0.341 218 200 186
-2693.3394 3443.0393 392.1231 0.942 -0.006 0.336 223 198 186
-2693.4185 3454.3645 389.1654 0.940 -0.009 0.340 223 192 182
-2265.1848 3297.7937 221.1965 0.005 -0.664 0.748 28 28 31
-2231.7808 3262.3872 214.2305 -0.032 -0.759 0.650 33 31 41
-2209.7380 3428.9507 159.3848 0.119 -0.563 -0.818 130 113 121
-2208.5752 3438.6033 156.2624 0.116 -0.555 -0.824 205 190 197
-2202.2195 3440.5688 152.6347 0.122 -0.560 -0.820 217 202 209
-1716.1561 5166.7168 -541.7188 0.304 -0.757 0.579 222 184 195
-3416.1143 2028.2234 1111.5433 0.231 -0.727 0.646 89 84 78
-3402.8647 2028.4185 1105.0355 0.296 -0.719 0.629 81 78 71
-3362.4263 2021.3285 1087.2177 0.120 -0.975 0.186 68 67 62
-3808.1443 2704.7419 1122.5568 0.800 -0.600 0.028 44 38 35
-3816.5479 2719.4663 1122.7336 0.810 -0.586 0.031 56 41 32
-3679.6609 2702.7314 1060.4862 0.712 -0.339 -0.615 122 61 29
-3697.7483 2894.4409 1018.2890 0.385 -0.850 0.360 133 94 77
-3694.5205 2911.5786 1012.1563 0.359 -0.875 0.324 139 97 81
-3694.7126 2921.4934 1009.6117 0.772 -0.636 0.015 138 98 81
-3563.5449 2863.8401 961.0387 0.074 -0.907 -0.414 139 106 91
-3554.7622 2866.8777 955.9509 0.074 -0.907 -0.414 140 108 93
-3543.6040 3095.4146 889.7044 0.535 -0.300 -0.790 72 65 59
-3544.6824 3106.5371 887.2703 0.553 -0.293 -0.780 69 63 57
-3285.3113 2924.0356 809.4479 -0.213 -0.671 0.710 44 35 30
-3327.3889 3190.1345 759.1468 0.790 -0.093 0.607 173 113 128
-2601.1494 2623.0056 556.1780 -0.250 -0.653 -0.715 186 133 158
-2524.1318 2600.7344 524.5759 0.259 -0.954 -0.153 197 148 143
-2353.2458 2715.6648 410.7280 0.832 0.533 0.153 165 73 42
-2380.5037 2762.3052 411.5997 0.794 0.452 0.406 165 73 42
-2777.4792 3447.5959 422.6887 0.715 -0.419 -0.560 187 152 146
-2767.7229 3447.3550 417.9990 0.717 -0.436 -0.544 206 171 165
-2690.9727 3423.1575 387.0397 0.871 -0.083 0.484 219 200 186
-2690.4487 3433.6821 383.9840 0.875 -0.082 0.476 223 198 186
-2700.2893 3456.7871 382.6311 0.925 -0.011 0.379 224 193 183
-2701.4226 3469.4424 379.8159 0.857 -0.061 0.512 171 132 125
-2701.0544 3480.3196 376.7424 0.863 -0.049 0.503 100 56 50
-2698.5894 3488.6704 373.3192 0.863 -0.049 0.503 89 40 35
-2250.4875 3271.9099 212.6505 -0.111 -0.955 0.276 28 28 31
-2234.9937 3261.2290 207.9428 0.776 -0.148 -0.613 32 30 40
-2220.1912 3461.2549 147.5068 0.087 -0.283 -0.955 217 202 209
-2739.1230 1487.1967 919.2888 0.935 -0.083 -0.346 80 77 72
-3392.9817 2019.5519 1094.3229 0.278 -0.811 0.515 92 89 84
-3382.2341 2021.0060 1088.7151 0.283 -0.812 0.511 86 85 80
-3366.3518 2019.7253 1081.3458 0.120 -0.975 0.186 78 78 74
-3945.6965 2837.1392 1143.9181 0.560 -0.826 0.065 106 59 37
-3699.2034 2720.2566 1055.5072 0.152 -0.979 -0.132 126 67 38
-3687.4097 2721.5225 1049.4419 0.729 -0.199 -0.655 131 74 43
-3699.6816 2748.3381 1048.2251 0.705 -0.242 -0.667 144 83 54
-3765.0239 2802.2488 1065.5265 0.803 -0.286 -0.523 144 86 55
-3763.8252 2810.9287 1062.6218 0.803 -0.286 -0.523 145 86 55
-3794.8779 2909.8279 1051.2349 -0.135 -0.915 0.381 142 85 64
-3670.7361 2869.9465 1001.6282 0.666 -0.746 -0.009 135 94 76
-3672.8127 2881.0854 999.6559 0.683 -0.730 0.020 139 96 79
-3681.2632 2896.8831 999.5316 0.738 -0.671 0.066 141 97 80
-3685.8606 2939.3323 990.4048 0.349 -0.919 0.184 141 106 91
-3568.7776 2862.7285 954.0522 0.491 -0.729 0.477 140 105 90
-3561.4548 2866.8606 949.3910 0.504 -0.727 0.466 138 104 89
-3511.7627 2954.8345 901.7208 0.954 0.034 -0.299 165 131 127
-3516.2456 2987.8540 895.0616 0.960 0.043 -0.276 162 130 126
-3517.4065 2998.6741 892.7299 0.960 0.043 -0.276 149 119 114
-3224.0559 2868.7249 785.0634 -0.158 -0.663 0.732 50 44 42
-3358.1497 3159.9873 772.2338 0.881 -0.163 0.444 143 111 115
-3373.6067 3236.5183 759.2599 -0.143 -0.989 0.023 180 117 132
-2418.9722 2643.4568 454.4248 0.143 -0.988 -0.050 150 82 44
-2782.1172 3447.1499 415.6899 0.744 -0.452 -0.493 162 129 122
-2768.8972 3442.8606 410.4185 0.050 -0.997 0.065 190 157 152
-2717.1274 3437.4910 386.7179 0.855 -0.091 -0.510 220 200 186
-2691.4031 3417.8408 379.4854 0.872 -0.083 0.482 220 200 186
-2686.9316 3423.5952 375.7744 0.875 -0.082 0.476 224 197 186
-2698.9409 3449.2610 374.7375 0.839 -0.056 0.542 226 193 184
-2698.1865 3459.5977 371.6052 0.769 -0.093 0.633 178 138 132
-2694.3950 3466.2747 367.9775 0.769 -0.093 0.633 103 57 52
-2693.1450 3476.0632 364.7511 0.842 -0.073 0.535 85 36 31
-2239.1870 3261.4177 201.7638 0.757 0.129 -0.641 32 31 40
-2237.2803 3269.4607 198.6858 0.754 0.124 -0.644 37 35 46
-2211.7925 3320.0862 172.7626 0.064 -0.984 -0.169 61 62 81
-2235.3528 3489.2473 138.9359 0.103 -0.275 -0.956 217 202 209
-2288.6296 3604.2769 134.0237 0.391 -0.614 -0.685 223 202 202
-1725.5493 5128.4512 -547.2502 0.368 -0.923 -0.113 220 184 194
-2663.1387 1450.2853 886.1189 0.913 0.127 -0.389 74 71 64
-3377.7373 2014.9697 1079.9238 0.120 -0.978 0.172 92 89 84
-3368.8074 2017.3452 1074.9636 0.121 -0.978 0.170 89 87 82
-3814.0503 2708.1851 1104.4882 0.805 -0.594 0.008 55 39 33
-3942.3633 2829.8931 1133.8209 0.594 -0.802 0.068 101 56 37
-3959.8926 2851.1726 1136.5763 0.601 -0.766 -0.230 108 57 34
-3702.8911 2717.9341 1048.0789 0.145 -0.982 -0.124 117 59 31
-3687.6714 2716.9033 1040.9919 0.726 -0.184 -0.662 123 66 38
-3691.8289 2728.9231 1039.7690 0.735 -0.208 -0.646 130 72 44
-3654.6184 2843.8049 990.8485 0.940 -0.340 0.029 137 84 61
-3569.3523 2839.1697 950.8389 0.697 -0.353 0.624 140 98 75
-3467.2107 2905.5256 883.5595 -0.053 -0.999 -0.008 169 133 126
-3520.5881 2956.5798 895.6476 0.958 -0.111 -0.265 159 129 126
-3520.2351 2966.1167 892.9104 0.958 -0.111 -0.265 152 125 125
-3523.3279 2978.3748 891.1081 0.961 -0.129 -0.245 146 123 124
-3522.7795 2987.8232 888.3000 0.961 -0.129 -0.245 141 121 121
-3528.6467 3032.3032 879.1689 0.913 0.389 -0.120 88 87 82
-3575.2002 3110.2776 880.7108 0.908 0.320 0.270 45 55 60
-3552.5510 3102.2170 871.9209 0.979 0.201 -0.047 44 56 60
-3332.7686 3061.4019 776.5604 0.890 0.405 0.208 52 50 48
-3344.1089 3081.1558 776.7315 0.890 0.405 0.208 55 48 48
-2936.6685 2943.0515 616.7519 0.899 0.228 0.375 184 134 141
-2948.1426 2963.2817 616.8596 0.886 0.216 0.411 184 135 140
-3079.3313 3136.2051 633.8016 0.782 -0.245 -0.573 203 155 146
-2381.9189 2577.2185 446.7791 0.934 0.290 -0.207 125 70 49
-2797.3252 3436.6106 416.5076 0.791 -0.393 -0.470 175 142 134
-2795.0803 3445.1921 413.1120 0.791 -0.393 -0.470 166 133 126
-2787.0632 3447.0547 408.7317 0.175 -0.930 0.322 159 126 121
-2768.1177 3436.0830 402.5172 0.168 -0.975 0.145 160 127 122
-2696.7129 3396.2222 378.6940 0.759 -0.615 0.212 224 194 188
-2694.6516 3404.8198 375.3831 0.833 -0.483 0.270 220 197 184
-2684.7019 3403.9961 370.7905 0.867 -0.112 0.485 221 198 184
-2685.1982 3415.6787 367.8867 0.872 -0.083 0.482 224 195 184
-2694.2886 3437.7690 366.3405 0.839 -0.056 0.542 227 191 182
-2692.1460 3446.3857 362.9849 0.838 -0.052 0.543 183 141 134
-2689.4146 3454.3103 359.5306 0.838 -0.052 0.543 108 59 54
-2688.8018 3464.8350 356.4019 0.842 -0.073 0.535 93 40 36
-2246.3916 3265.7393 195.9151 0.733 0.036 -0.679 25 24 31
-1732.6653 5159.5854 -562.3093 0.537 -0.821 -0.193 214 177 185
-3343.8682 1993.5914 1061.1562 0.383 -0.733 0.563 93 88 84
-3338.1982 1997.6061 1057.3361 0.316 -0.724 0.614 93 88 84
-3325.4734 1997.8955 1051.1223 0.316 -0.724 0.614 94 89 85
-3710.9839 2727.7876 1039.4742 0.167 -0.785 -0.596 120 64 39
-3697.2642 2727.7834 1032.8602 0.728 -0.216 -0.650 125 70 44
-3695.3035 2887.2051 988.7716 0.531 -0.653 -0.540 140 84 59
-3692.3870 2894.8030 985.3093 0.452 -0.831 -0.325 143 88 63
-3510.3469 2914.4119 892.2303 -0.006 -0.942 -0.335 164 128 116
-3494.0571 2930.9211 879.9083 0.927 -0.038 -0.374 154 126 123
-3333.4863 3066.8083 765.7133 0.918 0.396 0.037 46 30 28
-3315.8728 3205.2166 719.7643 0.830 0.277 0.483 164 112 116
-3318.5654 3218.1467 717.5633 0.841 0.279 0.463 166 114 118
-3316.4922 3226.7986 714.2224 0.849 0.284 0.446 174 122 126
-2802.3257 3436.5483 409.5490 0.783 -0.409 -0.469 167 134 127
-2801.5986 3446.8970 406.3978 0.238 -0.952 0.193 162 129 122
-2792.5957 3447.6328 401.8578 0.234 -0.953 0.191 155 122 117
-2704.5208 3377.6917 378.3194 0.750 -0.527 0.401 202 169 164
-2699.1831 3382.3684 374.4801 0.750 -0.527 0.401 224 191 186
-2694.3713 3387.6643 370.7269 0.757 -0.575 0.308 226 196 190
-2692.2065 3396.1116 367.3970 0.792 -0.526 0.311 220 197 184
-2685.9106 3399.6445 363.4053 0.911 0.008 0.412 221 197 183
-2684.8745 3409.4722 360.2462 0.811 0.123 0.572 224 194 183
-2684.2676 3419.8479 357.1455 0.811 0.123 0.572 227 191 182
-2686.0054 3433.0916 354.3994 0.809 0.121 0.576 184 141 134
-2685.3289 3443.4648 351.2660 0.809 0.121 0.576 109 59 55
-2685.1902 3454.5276 348.2052 0.810 0.125 0.572 94 40 36
-2686.1702 3466.9966 345.3034 0.810 0.122 0.573 95 37 32
-2270.4988 3552.6907 121.6927 0.180 -0.354 -0.918 229 209 208
-2258.6860 3558.6692 114.3791 0.123 -0.747 -0.653 224 202 204
-1756.5066 5047.8032 -530.7455 0.803 0.270 0.531 233 200 207
-3337.7114 1986.7521 1051.9270 0.315 -0.722 0.616 93 88 84
-3339.4243 2001.6082 1048.7072 0.478 -0.561 0.675 94 89 85
-3349.8872 2021.1924 1048.4045 -0.239 -0.942 -0.234 93 88 84
-3311.7698 2014.9666 1031.7850 -0.225 -0.942 -0.250 81 76 72
-3683.6790 2741.4956 1012.7563 0.197 -0.976 -0.092 138 86 62
-3814.3528 2898.3762 1032.8467 0.334 -0.585 -0.739 143 81 56
-3702.2375 2887.1345 982.0393 0.531 -0.653 -0.540 135 78 51
-3703.2842 2897.5959 979.6953 0.470 -0.850 -0.237 138 81 54
-3492.5493 2915.0222 873.7038 0.901 -0.037 -0.432 157 121 112
-3500.8044 2931.0762 873.3012 0.910 -0.046 -0.411 149 120 118
-3520.2070 2985.3716 867.8475 0.956 0.034 -0.293 66 59 56
-3277.4392 3144.5383 707.8928 0.936 0.338 -0.100 146 94 93
-3321.0320 3289.2756 689.4489 0.780 0.174 0.602 171 121 124
-2817.1279 3425.4546 410.2851 0.807 -0.362 -0.466 213 179 169
-2810.3601 3428.8157 406.1187 0.935 -0.215 -0.284 192 158 148
-2809.3843 3438.8530 402.9184 0.215 -0.971 0.102 159 126 119
-2801.3472 3440.7358 398.5446 0.050 -0.958 0.282 156 123 116
-2792.7573 3441.9495 394.0872 0.226 -0.954 0.196 149 116 111
-2709.8813 3367.3027 374.5829 0.862 -0.387 0.328 162 129 124
-2704.5125 3371.9385 370.7419 0.750 -0.527 0.401 177 144 139
-2697.4922 3374.6201 366.6392 0.854 -0.411 0.319 207 174 169
-2693.2588 3380.5833 362.9824 0.854 -0.411 0.319 230 200 194
-2687.6038 3384.8613 359.1012 0.630 -0.009 0.776 220 197 184
-2682.9429 3390.3174 355.3770 0.630 -0.009 0.776 222 196 183
-2684.5293 3403.2527 352.6191 0.671 0.026 0.741 225 195 183
-2680.8208 3409.8811 349.0335 0.671 0.026 0.741 227 191 182
-2678.1633 3417.7856 345.6056 0.668 0.024 0.744 185 141 134
-2674.3967 3424.3662 342.0050 0.668 0.024 0.744 110 60 55
-2670.6272 3430.9521 338.4017 0.668 0.024 0.744 94 39 36
-2669.2031 3440.4045 335.1451 0.659 0.019 0.752 95 38 32
-2473.9631 3340.4607 268.5390 0.350 -0.890 -0.294 28 5 1
-2252.4456 3262.8542 183.2287 0.271 -0.143 -0.952 23 22 29
-2232.6655 3321.5798 157.7438 0.417 -0.905 -0.081 61 61 82
-2273.5632 3527.5361 121.3453 0.078 -0.394 -0.916 178 165 165
-2275.2700 3553.5930 115.0743 0.320 -0.686 -0.653 230 210 208
-3332.4346 1994.3029 1039.2233 0.530 -0.524 0.666 93 88 84
-3344.9690 2021.9697 1037.6532 -0.221 -0.944 -0.244 100 95 91
-3757.5737 2749.3687 1036.1372 -0.009 -0.968 -0.250 118 64 40
-3707.6848 2743.6951 1013.8052 0.116 -0.966 -0.231 130 78 56
-3731.5396 2797.4451 1010.5170 0.526 -0.829 -0.191 149 89 63
-3802.4604 2884.9739 1020.5186 0.888 -0.456 0.057 143 81 56
-3819.9619 2906.9968 1022.8708 0.379 -0.740 -0.555 137 75 50
-3718.2388 2893.5493 977.8502 0.529 -0.689 -0.496 130 73 46
-3713.6982 2900.0188 973.9061 0.362 -0.928 0.091 133 76 49
-3700.5769 2949.3059 954.1367 0.295 -0.756 0.584 139 94 73
-3715.3806 2970.1216 955.5279 0.399 -0.714 0.575 143 98 77
-3566.9873 2879.7124 909.2242 0.518 -0.571 0.637 145 100 79
-3535.9849 2953.1580 874.2833 0.973 0.014 0.230 145 116 115
-3245.7681 2923.7356 743.3918 0.217 -0.475 -0.853 74 57 39
-3257.7632 3183.3369 678.0945 0.705 -0.249 0.665 162 110 112
-3283.9578 3249.3728 672.5646 0.752 0.093 0.653 167 117 118
-2437.7949 2628.0818 437.4758 0.839 -0.465 0.281 171 122 108
-2290.6216 2602.0986 374.1260 0.869 -0.276 -0.412 144 72 38
-2455.8367 2911.2212 368.6322 0.803 -0.174 -0.571 233 180 164
-2824.6467 3417.1140 406.7645 0.682 -0.688 -0.250 221 187 177
-2830.7271 3435.1975 404.7269 0.595 -0.765 -0.244 205 171 161
-2831.9280 3447.7637 401.8631 0.548 -0.793 -0.265 181 147 137
-2826.5190 3452.7581 397.9069 0.571 -0.777 -0.264 155 122 115
-2805.8774 3440.1206 391.4828 0.043 -0.961 0.275 150 117 110
-2795.6455 3439.4431 386.7696 0.234 -0.950 0.205 143 110 105
-2718.4817 3360.7146 371.3711 0.807 -0.025 0.590 140 107 102
-2711.9185 3363.9626 367.3401 0.772 -0.154 0.617 152 119 114
-2671.8313 3371.3191 346.1350 0.630 -0.009 0.776 222 196 183
-2669.0974 3379.0205 342.7187 0.661 0.047 0.749 225 194 183
-2672.4165 3393.9963 340.2095 0.667 0.023 0.744 229 190 182
-2670.2424 3402.4314 336.8605 0.671 0.050 0.740 186 141 134
-2666.8669 3409.4370 333.3273 0.671 0.050 0.740 110 60 55
-2664.0339 3417.1123 329.8707 0.670 0.045 0.741 94 39 36
-2668.7231 3433.9529 327.5073 0.658 0.027 0.753 96 38 32
-2481.1299 3343.8914 262.3413 0.420 -0.723 -0.549 28 5 1
-2222.4448 3301.4714 150.1026 0.358 -0.906 -0.227 61 61 82
-2223.6865 3391.2893 126.1183 0.597 -0.135 -0.791 44 52 73
-2298.0977 3522.3611 125.8753 0.093 -0.433 -0.897 62 63 78
-2285.0884 3538.3950 115.2594 0.932 -0.064 -0.357 132 119 120
-2285.4683 3550.7271 112.0665 0.932 -0.064 -0.357 211 193 192
-2281.8027 3557.0999 108.5677 0.292 -0.840 -0.457 229 210 206
-3320.2876 2019.2399 1018.4534 -0.220 -0.944 -0.246 95 92 87
-3715.6387 2744.2366 1007.5644 0.116 -0.966 -0.231 126 72 48
-3686.8086 2752.5171 991.5323 0.081 -0.996 0.038 151 92 68
-3691.1216 2764.7859 990.2141 0.404 -0.900 0.166 147 87 61
-3761.9351 2822.9104 1008.0021 0.675 -0.437 -0.594 147 85 60
-3701.1667 2790.4514 987.9438 0.738 -0.675 0.008 146 84 59
-3747.4678 2841.5867 995.9614 0.552 -0.827 0.108 150 88 63
-3739.9861 2845.9573 991.1896 0.552 -0.827 0.108 144 82 57
-3739.3306 2855.1072 988.3591 0.569 -0.821 0.054 138 76 51
-3571.2957 2877.9099 901.9230 0.565 -0.661 0.494 144 99 78
-3579.2666 2991.2993 874.5249 0.909 0.090 -0.408 111 86 87
-3428.6743 2961.5974 810.8571 0.990 0.125 0.062 53 52 46
-3230.5437 2812.5188 757.3592 0.970 0.181 -0.160 53 52 46
-3309.8364 3121.5862 710.1420 0.511 -0.785 0.350 96 41 38
-3301.2705 3134.4917 702.5045 0.289 -0.719 0.632 94 38 37
-3278.0171 3248.9341 659.9210 0.730 0.090 0.678 121 71 72
-2447.6577 2641.8721 430.8364 0.703 -0.628 0.334 197 147 130
-2552.4319 3032.2998 373.3877 0.793 -0.112 -0.599 227 182 164
-2851.6494 3453.2629 400.2969 0.227 -0.973 -0.050 176 142 132
-2846.8774 3459.0400 396.4307 0.215 -0.975 -0.059 160 126 116
-2835.9912 3457.7812 391.5838 0.216 -0.974 -0.068 152 119 112
-2808.9441 3437.8069 384.1771 0.044 -0.960 0.278 147 114 107
-2794.0610 3431.7510 378.7434 0.209 -0.975 0.071 140 107 102
-2710.7520 3346.0129 362.5925 0.807 -0.077 0.586 135 102 97
-2697.7759 3341.7356 357.5792 0.771 0.018 0.637 136 103 98
-2658.1428 3338.4700 339.5706 0.679 0.070 0.731 228 203 191
-2660.7756 3352.4478 336.9805 0.635 -0.007 0.773 219 192 179
-2658.4775 3382.5066 327.6130 0.695 0.076 0.715 167 122 115
-2655.8186 3390.3123 324.1968 0.695 0.076 0.715 106 56 52
-2655.9104 3401.4626 321.1724 0.685 0.065 0.726 95 40 37
-2268.3066 3305.6089 162.6401 0.188 -0.948 -0.258 27 25 36
-2254.3230 3297.0779 158.3165 0.278 -0.784 0.554 29 27 38
-2258.6763 3313.9429 155.7526 0.194 -0.699 0.688 39 37 48
-2292.7178 3555.2507 105.5932 0.973 -0.033 -0.228 159 141 140
-2286.3250 3557.6011 101.8966 0.306 -0.909 -0.283 216 196 192
-1616.6869 4582.7695 -499.6457 0.650 0.082 0.755 232 199 206
-3184.3162 1990.5687 953.6216 0.002 -0.985 -0.175 60 56 53
-3826.3230 2701.2808 1062.1632 0.866 -0.453 -0.210 62 32 28
-3694.7349 2753.0842 985.2798 0.087 -0.990 -0.107 142 83 59
-3699.6951 2765.7966 984.1204 0.465 -0.885 0.023 150 90 66
-3768.3621 2822.3579 1001.1121 0.675 -0.437 -0.594 154 92 67
-3773.7852 2835.6599 1000.0096 0.871 -0.143 -0.470 155 93 68
-3741.1794 2841.7913 982.8141 0.553 -0.824 0.124 146 84 59
-3731.0891 2844.3213 977.3175 0.502 -0.862 0.061 140 79 53
-3734.4084 2856.2551 975.5936 0.435 -0.852 0.291 134 75 51
-3582.1248 2861.7798 901.6768 0.805 -0.569 -0.167 135 93 71
-3579.5269 2879.0088 895.6749 0.811 -0.563 -0.156 140 95 74
-3581.4502 2890.0510 893.5341 0.859 -0.488 -0.157 139 95 77
-3261.8938 2860.8025 749.7248 0.970 0.157 -0.187 59 50 39
-3244.8247 2865.7021 740.2553 0.276 -0.396 -0.876 62 36 25
-3313.7480 3069.0703 716.7509 0.781 0.037 0.623 96 35 25
-3307.0537 3144.5088 692.6965 0.312 -0.899 0.307 76 21 19
-3278.8435 3160.5381 674.8519 0.887 0.224 -0.403 119 67 71
-3215.2434 3206.1699 631.9941 0.713 -0.437 -0.549 144 94 95
-2851.3740 3424.7341 398.5564 0.960 -0.262 -0.097 201 167 157
-2852.3555 3448.1895 392.5334 0.229 -0.973 -0.043 171 137 127
-2851.5935 3458.5488 389.3050 0.221 -0.973 -0.070 158 124 114
-2842.7688 3459.6794 384.7973 0.214 -0.974 -0.071 151 118 111
-2827.2676 3453.0811 379.2545 0.211 -0.978 0.010 146 113 106
-2803.8960 3437.2898 372.5138 0.183 -0.978 0.096 140 107 102
-2701.6541 3329.7668 353.6620 0.795 -0.113 0.595 135 102 97
-2657.9973 3332.6270 332.1183 0.634 -0.008 0.773 215 190 178
-2653.4592 3338.0715 328.4547 0.634 -0.008 0.773 218 191 178
-2647.7939 3363.9426 318.6038 0.685 0.069 0.725 164 119 112
-2644.2795 3370.6577 315.0753 0.690 0.072 0.721 106 56 51
-2644.3970 3381.7683 312.0572 0.685 0.065 0.726 96 41 38
-2644.1628 3392.4941 308.9782 0.689 0.082 0.720 90 32 27
-2493.6208 3348.3464 249.6324 0.411 -0.722 -0.556 26 5 1
-2296.7698 3555.0300 98.8743 0.306 -0.909 -0.283 139 121 120
-2292.2117 3560.1111 95.3019 0.321 -0.906 -0.276 205 185 183
-3874.2063 2708.6294 1072.7759 0.634 -0.773 0.029 35 28 25
-3745.0737 2745.0620 1001.4769 0.446 -0.891 0.078 91 37 13
-3710.5139 2749.6694 983.8259 0.084 -0.996 -0.032 102 47 23
-3698.7898 2760.3127 975.3120 0.448 -0.892 0.056 145 85 61
-3778.9485 2824.6499 995.3812 0.686 -0.426 -0.590 151 91 65
-3778.0583 2843.2070 989.7971 0.871 -0.143 -0.470 159 97 72
-3644.5273 2778.8086 944.4651 -0.193 -0.976 0.098 139 79 53
-3666.9116 2803.8752 948.0942 0.761 -0.646 0.057 135 75 49
-3590.3730 2862.8567 895.4336 0.797 -0.585 -0.148 131 86 65
-3586.2654 2869.4014 891.6674 0.797 -0.585 -0.148 133 88 67
-3582.1553 2875.9497 887.8989 0.797 -0.585 -0.148 133 87 67
-3584.4465 2887.2544 885.8393 0.859 -0.488 -0.157 133 87 70
-3264.3943 2857.9302 742.4042 0.990 -0.109 0.090 55 43 28
-3320.7295 3059.7910 712.9316 0.961 -0.120 0.248 99 38 22
-3384.6748 3176.3865 710.7836 0.890 0.366 0.274 68 13 10
-3260.3577 3169.4443 653.8320 0.781 -0.331 -0.530 115 63 65
-3250.1338 3180.8574 645.8145 0.714 -0.360 -0.601 102 52 53
-3220.5581 3184.8328 630.7000 0.618 -0.521 -0.589 137 87 88
-3225.4712 3199.7776 628.8696 0.699 -0.484 -0.526 151 101 102
-3219.9380 3205.0776 624.7744 0.722 -0.430 -0.542 146 96 97
-3220.3403 3215.9124 621.9508 0.734 -0.131 0.666 138 88 89
-3215.6953 3222.0579 618.0411 0.734 -0.131 0.666 130 81 81
-3176.1353 3322.6536 571.3187 0.876 0.152 0.459 139 90 76
-2709.6216 2883.5422 472.5110 0.350 -0.720 -0.599 149 100 85
-2867.6516 3448.5044 390.1949 0.238 -0.962 -0.132 178 144 134
-2862.2468 3453.5828 386.2222 0.228 -0.911 -0.344 168 134 124
-2837.6416 3447.9089 376.1463 0.733 -0.526 -0.431 151 118 111
-2819.7981 3449.8042 367.1675 0.503 -0.730 -0.461 140 107 102
-2721.5347 3347.1570 349.1805 0.713 -0.519 -0.472 135 102 97
-2691.6511 3323.2737 341.6702 0.783 -0.113 0.611 137 104 99
-2652.0464 3319.9468 323.8369 0.655 -0.212 0.725 192 167 155
-2643.2175 3320.2756 319.5637 0.642 -0.006 0.767 217 190 177
-2640.4080 3349.3835 310.1354 0.681 0.057 0.730 164 119 113
-2637.7686 3357.1045 306.7373 0.685 0.061 0.726 105 55 51
-2634.7683 3364.4082 303.2844 0.685 0.061 0.726 95 41 37
-2635.6855 3376.4646 300.3649 0.679 0.057 0.732 89 32 26
-2520.9426 3333.5811 257.9467 0.493 -0.864 -0.100 82 39 19
-2484.0962 3330.5718 241.3315 0.098 -0.723 -0.684 26 5 1
-2500.1357 3361.8130 240.2376 -0.146 -0.989 -0.003 22 6 4
-2279.3491 3331.1978 144.1789 0.203 -0.483 0.852 37 35 46
-2248.7898 3432.4692 101.5317 0.226 -0.633 -0.741 55 56 71
-2299.1475 3552.3352 92.0380 0.310 -0.911 -0.273 127 109 109
-2293.2502 3555.4370 88.3819 0.310 -0.911 -0.273 196 176 175
-3252.9622 1832.4066 1014.5479 0.846 0.417 0.332 76 72 69
-3208.7451 1996.8027 947.6975 0.001 -0.989 -0.146 84 80 77
-3178.8477 1987.2932 936.2474 -0.338 -0.927 -0.164 65 64 60
-3866.0637 2698.6050 1061.6215 0.649 -0.759 0.050 29 23 19
-3871.6489 2720.7632 1058.0598 0.944 -0.286 0.164 63 33 27
-3871.4214 2729.9553 1055.3812 0.940 -0.281 0.194 74 37 29
-3746.5701 2741.2153 993.3084 0.515 -0.835 0.192 103 52 30
-3738.4702 2745.0867 988.4028 0.515 -0.835 0.192 113 63 41
-3726.5527 2746.3684 982.4200 0.459 -0.862 0.215 111 62 39
-3717.8005 2749.7585 977.3411 0.459 -0.862 0.215 112 62 39
-3707.6047 2752.1494 971.8605 0.426 -0.904 0.037 113 57 34
-3699.3477 2755.8367 966.9321 0.426 -0.904 0.037 120 63 40
-3782.2756 2821.9495 987.5779 0.878 -0.135 -0.460 133 76 53
-3714.5459 2803.8257 960.6823 -0.276 -0.917 0.287 151 92 68
-3598.4470 2863.7903 889.1173 0.802 -0.567 -0.188 128 79 58
-3594.2932 2870.3140 885.3323 0.800 -0.582 -0.146 131 82 61
-3590.1980 2876.8862 881.5612 0.800 -0.582 -0.146 131 82 60
-3583.5425 2881.5681 877.1106 0.741 -0.606 -0.290 130 82 63
-3584.9082 2892.2048 874.7800 0.693 -0.715 -0.091 131 90 72
-3399.4314 2913.4961 781.2893 0.913 -0.397 -0.094 47 33 17
-3388.3875 2914.3423 775.8404 0.925 -0.379 -0.032 49 33 17
-3265.3816 2844.4961 737.3243 0.984 -0.125 0.129 53 37 21
-3267.9746 2855.9285 735.3503 0.990 -0.098 0.099 54 37 22
-3283.0291 2886.9368 733.7820 0.842 0.111 -0.529 66 32 21
-3319.3201 3053.3584 704.3609 0.961 -0.120 0.248 114 52 33
-3263.5908 3055.2625 677.5269 0.976 0.216 0.018 76 22 17
-3320.7805 3125.3855 684.9039 0.599 -0.726 0.337 75 21 17
-3264.7178 3167.9890 646.5287 0.916 -0.276 -0.290 138 87 86
-3234.4861 3181.8547 628.3826 0.606 -0.518 -0.604 117 69 71
-3226.8181 3185.1794 623.8339 0.618 -0.521 -0.589 117 70 69
-3203.6914 3194.9351 610.1905 0.757 -0.052 0.651 130 83 82
-2840.4524 3467.7395 362.4561 0.448 -0.307 -0.839 140 107 102
-2728.5334 3349.5701 342.6885 0.707 -0.515 -0.484 136 103 98
-2640.3643 3311.2668 311.7907 0.670 -0.210 0.712 216 188 176
-2625.2332 3336.3704 297.6280 0.812 -0.148 0.564 105 56 51
-2629.5703 3352.4326 295.1823 0.832 -0.165 0.530 94 41 38
-2626.0132 3359.0415 291.6549 0.832 -0.165 0.530 88 32 26
-2517.3706 3345.1265 244.2734 0.198 -0.973 -0.116 62 29 15
-2493.5962 3336.9065 235.3523 0.106 -0.766 -0.634 26 4 1
-2505.2688 3362.5901 233.6774 -0.146 -0.989 -0.003 22 6 5
-2301.1328 3549.0642 85.1781 0.314 -0.908 -0.276 118 101 102
-2299.8997 3559.0464 81.8041 0.964 -0.018 -0.267 186 167 167
-2295.1133 3563.8047 78.2143 0.313 -0.909 -0.276 221 199 201
-3255.2432 1830.1433 1008.5251 0.956 0.270 0.112 79 78 73
-3203.6672 1997.3290 937.2563 -0.284 -0.944 -0.168 84 80 77
-3848.4294 2673.3835 1050.3359 0.540 -0.619 0.570 25 23 12
-3848.7317 2682.7668 1047.8392 0.932 -0.332 0.147 23 19 6
-3865.5835 2702.7388 1050.1473 0.965 -0.222 0.138 45 24 11
-3864.0664 2720.3579 1044.4792 0.947 -0.293 0.132 81 42 26
-3743.9775 2734.6404 983.9913 0.459 -0.861 0.219 111 69 52
-3735.1780 2738.0327 978.8994 0.459 -0.861 0.219 125 89 70
-3727.6709 2742.2766 974.1756 0.442 -0.872 0.208 123 89 69
-3720.1846 2746.5229 969.4611 0.459 -0.862 0.215 122 89 68
-3707.8931 2794.3005 950.2452 -0.142 -0.891 0.431 120 78 62
-3681.1592 2785.1934 940.2347 -0.142 -0.891 0.431 123 80 65
-3673.9644 2798.9875 932.9722 -0.250 -0.893 0.374 143 86 57
-3607.4663 2865.3997 883.0256 0.818 -0.556 -0.150 129 71 42
-3604.8499 2873.0671 879.6390 0.821 -0.554 -0.140 128 70 42
-3593.4771 2874.2993 873.9445 0.800 -0.582 -0.146 129 71 43
-3576.2095 2871.1399 866.7130 0.740 -0.611 -0.280 129 71 43
-3584.0046 2886.5100 866.0562 0.692 -0.721 -0.034 134 78 56
-3150.2988 2792.6147 688.5124 0.802 0.077 -0.593 67 23 13
-3314.4778 3053.9929 692.2131 0.677 -0.126 -0.726 88 42 19
-3217.4600 3150.5559 619.4357 0.978 -0.155 0.140 120 77 73
-3225.8730 3199.6736 609.5790 0.582 -0.812 0.048 121 79 74
-3188.9854 3186.1855 596.0258 0.407 -0.432 0.805 146 104 99
-3181.8008 3200.2451 588.6935 0.499 -0.366 0.785 153 114 105
-3171.7014 3201.1543 583.6886 0.837 0.124 0.534 141 102 94
-3165.7354 3205.9407 579.5371 0.944 0.250 0.216 135 96 87
-3168.0398 3218.5742 577.0680 0.832 0.122 0.541 116 77 68
-3165.2273 3236.8936 570.5938 0.720 -0.584 -0.375 122 83 74
-3195.7998 3319.7432 561.6716 0.736 -0.422 -0.530 114 65 50
-3202.3735 3336.9951 559.9114 0.752 -0.419 -0.510 114 65 50
-2866.7339 3402.4189 383.6796 0.775 0.255 -0.578 179 138 130
-2701.0867 3322.9397 328.1354 0.573 -0.386 0.723 132 98 96
-2648.7612 3304.8250 308.6237 -0.115 -0.991 -0.071 145 109 100
-2639.4119 3304.5234 304.3119 0.780 -0.618 0.101 186 150 141
-2634.7822 3309.7695 300.6595 0.780 -0.618 0.101 212 174 165
-2627.7075 3322.8665 293.6496 0.958 -0.281 0.058 139 98 91
-2627.1628 3333.0095 290.5410 0.953 -0.296 0.061 88 44 37
-2525.1821 3316.7236 247.1648 0.227 -0.955 -0.189 93 42 25
-2519.6248 3342.2510 237.3728 0.182 -0.975 -0.129 54 22 10
-2512.6816 3344.4070 233.5015 0.175 -0.976 -0.131 39 12 5
-2298.1030 3538.4397 78.0313 0.913 -0.052 -0.404 110 101 111
-2300.8884 3554.2996 74.8811 0.919 -0.033 -0.394 181 168 175
-2303.3147 3569.7063 71.6893 0.913 -0.071 -0.401 219 199 202
-1643.1456 4890.6392 -610.2216 0.137 -0.870 0.474 221 186 192
-1523.8163 4576.7603 -578.0677 0.706 -0.679 -0.201 222 186 192
-1519.1969 4582.1255 -581.7489 0.703 -0.680 -0.208 225 189 195
-1518.9843 4600.7192 -587.0778 0.667 -0.712 -0.219 228 192 198
-3832.5063 2658.5430 1037.0537 0.491 -0.636 0.595 29 24 13
-3866.3467 2698.3994 1041.6410 0.962 -0.243 0.125 67 43 28
-3863.9651 2706.1494 1038.3339 0.962 -0.243 0.125 84 49 33
-3788.2383 2778.1306 982.5013 0.789 -0.588 0.179 119 90 72
-3722.5674 2743.2876 961.5826 0.459 -0.862 0.215 118 90 72
-3578.1350 2848.5022 864.1622 0.588 -0.622 0.517 131 67 39
-3564.8030 2876.8435 849.9026 0.418 -0.710 0.567 135 74 50
-3467.5398 2928.0042 789.8657 -0.143 -0.973 0.183 53 17 8
-3455.8755 2938.2644 781.4996 0.862 -0.129 -0.490 47 20 4
-3298.3826 2870.5818 726.8428 0.878 0.046 -0.477 50 25 8
-3288.7583 2872.2637 721.8579 0.859 -0.061 -0.508 52 25 8
-3168.2605 2793.3540 687.7094 0.914 0.217 -0.341 65 23 9
-3156.5720 2792.9702 682.3412 0.801 0.080 -0.593 66 22 9
-3331.7727 3063.5459 687.9308 0.738 -0.091 -0.668 88 43 22
-3292.8196 3203.3877 630.1422 0.627 -0.460 0.629 129 88 82
-3221.0503 3189.7688 600.3654 0.758 -0.650 0.060 112 71 65
-3184.5569 3176.6445 586.9773 0.416 -0.423 0.805 150 109 103
-3175.3525 3188.7573 579.2399 0.499 -0.366 0.785 156 118 109
-3166.6067 3190.9187 574.5311 0.837 0.123 0.533 155 117 108
-3162.5569 3197.4900 570.7756 0.945 0.246 0.217 154 116 107
-3166.2688 3221.8879 565.6168 0.898 0.168 0.407 115 77 68
-3193.6738 3258.5474 568.0925 0.957 -0.231 -0.175 116 78 69
-3168.6079 3245.1587 560.1334 0.728 -0.589 -0.351 131 92 83
-3196.4883 3293.2451 559.6011 0.795 -0.357 -0.490 131 82 67
-3201.0669 3319.2117 554.4049 0.745 -0.414 -0.524 117 68 53
-3210.7466 3339.4802 553.2098 0.746 -0.439 -0.502 112 63 48
-2883.7346 3415.6147 378.4644 0.777 0.285 -0.561 175 132 125
-2908.5840 3522.6882 359.8345 -0.345 -0.917 -0.198 144 111 106
-2665.3748 3275.9956 315.6273 0.678 -0.250 0.691 131 97 95
-2646.4099 3296.4597 300.9556 -0.044 -0.971 -0.237 140 102 94
-2638.5129 3297.8586 296.8600 0.786 -0.615 0.062 167 129 120
-2632.7805 3301.7874 293.0633 0.797 -0.600 0.074 189 151 142
-2625.3682 3325.2039 282.9698 0.957 -0.290 0.033 86 43 36
-2527.2078 3313.5879 240.2614 0.222 -0.957 -0.185 93 42 25
-2535.5391 3334.7107 238.1929 0.502 -0.863 -0.061 83 43 25
-2321.0537 3577.7363 68.9861 0.131 -0.895 -0.427 180 169 179
-2306.9900 3568.9016 64.8944 0.936 -0.008 -0.352 219 199 202
-1646.0831 4807.9600 -595.0893 0.445 -0.519 0.729 221 184 191
-1650.4467 4840.5693 -602.2644 0.382 -0.597 0.706 222 185 192
-1607.9117 4756.3794 -598.3909 0.384 -0.764 0.519 221 189 194
-1602.1300 4759.2031 -601.8983 0.378 -0.766 0.520 224 189 195
-1531.2191 4588.6421 -586.9006 0.317 -0.757 0.572 213 178 184
-1512.9200 4553.2915 -585.4798 0.508 -0.701 -0.501 221 186 192
-1509.5178 4562.1855 -589.5886 0.451 -0.721 -0.527 226 191 197
-1510.1520 4583.2539 -595.2480 0.572 -0.669 -0.474 223 188 195
-1497.0909 4601.6997 -606.5829 0.632 -0.642 -0.434 221 186 193
-1494.5181 4613.3184 -611.0734 0.612 -0.650 -0.449 224 189 196
-1883.5441 1009.9139 585.8364 0.614 -0.460 0.642 28 27 25
-3848.4768 2673.0317 1030.4240 0.860 -0.324 -0.394 77 66 54
-3866.2097 2693.4932 1032.8864 0.867 -0.350 -0.355 103 76 61
-3918.5234 2764.4500 1037.1398 0.680 -0.318 0.661 102 63 45
-3796.5957 2778.8230 976.1331 0.868 -0.494 -0.053 109 84 67
-3481.7229 2933.9937 785.0305 -0.156 -0.975 0.161 63 21 9
-3464.6255 2940.0620 775.3237 0.860 -0.123 -0.495 52 19 4
-3305.6851 2862.1033 723.2826 0.764 -0.043 -0.644 54 24 8
-3353.5251 2919.4417 729.3184 0.842 0.045 -0.538 55 24 8
-3229.1255 2884.7148 681.1140 0.715 0.022 -0.698 65 21 10
-3343.0569 3057.8928 685.0776 0.726 -0.116 -0.678 100 54 36
-3289.7939 3174.3833 627.1005 0.820 -0.298 0.489 129 88 84
-3236.3538 3136.5083 612.9180 0.689 -0.368 0.624 136 95 91
-3177.9758 3165.1277 577.5297 0.416 -0.423 0.805 128 87 81
-3171.5835 3169.4817 573.3079 0.476 -0.386 0.791 134 96 87
-3161.7727 3180.9551 565.4666 0.803 0.112 0.585 156 118 109
-3157.9392 3187.7034 561.7588 0.945 0.246 0.217 164 126 117
-3158.5115 3198.6277 558.9208 0.896 0.170 0.411 145 107 98
-3159.3674 3209.8594 556.1279 0.896 0.170 0.411 122 84 75
-3199.0400 3258.1174 560.9317 0.958 -0.243 -0.155 109 71 62
-3208.4197 3277.7124 559.7408 0.742 -0.411 -0.529 114 75 66
-3208.9136 3299.6082 553.7476 0.733 -0.420 -0.534 110 61 46
-3206.6663 3318.9937 547.1884 0.736 -0.422 -0.530 121 72 57
-3207.7712 3330.8977 544.3206 0.727 -0.440 -0.528 112 63 48
-2385.0032 2686.7627 343.3071 0.114 -0.985 0.131 113 49 24
-2373.3020 2708.7202 331.6032 0.184 -0.905 -0.384 151 88 70
-2924.5181 3534.8818 354.1045 -0.295 -0.902 -0.315 144 111 106
-2646.6509 3301.8279 290.6278 -0.031 -0.980 -0.197 141 103 94
-2643.8149 3309.1987 287.2087 -0.052 -0.980 -0.192 160 120 112
-2605.1746 3316.9192 266.9753 -0.295 -0.934 0.199 86 42 32
-2518.8481 3297.6272 232.1579 0.262 -0.949 -0.177 93 42 25
-2533.0671 3325.9705 230.7396 0.001 -0.982 -0.191 83 43 25
-2322.7405 3573.9753 62.0561 0.893 -0.449 -0.007 179 169 180
-2309.5881 3566.5049 58.0396 0.936 -0.008 -0.352 219 199 203
-1641.6709 4784.7437 -600.0494 0.507 -0.519 0.688 220 183 190
-1640.5497 4801.3159 -605.2834 0.459 -0.484 0.745 226 189 196
-1631.3158 4794.3862 -607.6244 0.383 -0.574 0.724 229 194 200
-1621.0532 4784.3403 -609.5600 0.442 -0.621 0.647 227 195 200
-1616.1071 4789.7583 -613.4092 0.412 -0.679 0.608 225 193 198
-1586.8906 4723.6318 -608.2527 0.175 -0.864 0.472 223 191 196
-1517.0178 4593.7017 -603.9406 0.288 -0.851 -0.439 221 188 195
-1508.1721 4586.3584 -605.9830 0.306 -0.853 -0.422 218 185 192
-1501.2966 4584.8682 -608.7691 0.373 -0.837 -0.400 219 186 195
-1461.5126 4540.4282 -614.7103 0.422 -0.845 -0.329 224 189 196
-3821.0508 2632.7810 1019.1528 0.415 -0.272 0.868 74 59 51
-3800.8164 2776.7324 968.6058 0.830 -0.556 -0.045 104 80 64
-3801.3977 2786.5723 966.0645 0.779 -0.567 -0.266 103 81 64
-3755.8247 2812.5276 937.4496 -0.038 -0.989 0.144 91 59 48
-3742.1248 2812.6008 931.0563 -0.047 -0.982 0.184 99 67 56
-3631.3303 2754.6611 896.0777 0.283 -0.742 -0.608 112 62 41
-3507.3647 2939.0994 785.7117 -0.091 -0.890 0.448 80 31 16
-3487.1501 2933.1475 778.0098 -0.091 -0.890 0.448 73 26 10
-3468.4199 2947.6907 765.1418 0.865 -0.128 -0.485 55 17 4
-3364.7283 2923.4285 723.8435 0.777 -0.044 -0.628 58 22 8
-3215.4832 2859.1951 672.7783 0.777 -0.080 -0.624 64 20 7
-3216.4160 2869.3262 670.3172 0.777 -0.080 -0.624 66 22 9
-3337.4382 3047.8997 675.5812 0.793 -0.039 -0.608 120 77 63
-3302.6384 3170.1316 624.4659 0.960 0.278 -0.007 111 70 66
-3280.9824 3161.0559 616.9862 0.812 -0.281 0.512 127 86 82
-3265.0654 3157.0464 610.7283 0.747 -0.269 0.608 138 97 93
-3259.6299 3162.4478 606.6564 0.582 -0.387 0.715 125 84 78
-3232.1079 3178.7273 589.2029 0.877 -0.289 0.383 133 92 86
-3225.6401 3183.1479 584.9313 0.450 -0.842 0.297 121 80 74
-3152.6514 3156.7180 558.5336 0.733 -0.220 0.643 120 82 73
-3149.2283 3163.7888 554.9208 0.855 -0.090 0.510 143 105 96
-3149.1423 3174.0100 551.9601 0.944 0.243 0.222 159 121 112
-3201.1885 3254.6177 553.1348 0.958 -0.243 -0.155 104 66 57
-3209.8379 3273.4878 551.7657 0.952 -0.258 -0.166 101 62 53
-3229.1052 3313.4026 549.3219 0.959 -0.230 -0.166 94 45 30
-3229.3054 3324.4114 546.2692 0.969 -0.194 -0.152 111 62 47
-2417.2754 2724.4973 339.9885 0.698 -0.630 -0.341 118 56 33
-2398.8459 2713.8701 334.4530 0.681 -0.733 0.002 113 51 30
-2382.2166 2713.6248 326.7881 0.450 -0.865 0.220 151 89 68
-2938.4856 3544.7771 348.0258 -0.296 -0.903 -0.313 144 111 106
-2939.7002 3557.7405 344.8864 -0.295 -0.900 -0.320 137 103 101
-2663.2336 3304.9531 288.5255 -0.027 -0.980 -0.199 134 94 87
-2654.6086 3305.5613 284.3398 -0.027 -0.980 -0.199 124 84 76
-2516.6162 3289.2703 224.8089 0.469 -0.774 -0.426 93 42 25
-2313.4775 3566.0037 51.2422 0.892 -0.006 -0.452 219 199 203
-1606.3766 4750.7446 -616.2073 0.191 -0.796 0.574 213 181 186
-1587.4100 4714.7690 -614.7493 0.174 -0.865 0.471 208 176 181
-1521.1595 4595.9321 -611.6068 0.363 -0.514 -0.777 211 178 185
-1517.6401 4604.6577 -615.7372 0.363 -0.514 -0.777 220 187 194
-1514.5945 4614.8457 -620.0652 0.318 -0.587 -0.744 219 186 195
-1531.1542 4684.5654 -632.2853 0.303 -0.888 -0.346 219 186 193
-1525.7015 4687.7744 -635.7386 0.303 -0.888 -0.346 222 189 196
-1503.6506 4659.8560 -638.0175 0.217 -0.892 -0.396 222 189 196
-597.8821 432.9347 147.4427 0.601 0.286 0.746 53 50 41
-2960.4834 1594.1486 908.7891 0.903 -0.123 -0.413 78 74 71
-3875.1067 2689.5090 1018.0001 0.862 -0.356 -0.362 138 105 90
-3873.5308 2697.7610 1014.8994 0.801 -0.468 -0.374 147 107 91
-3730.5225 2734.1279 938.1762 0.021 -1.000 0.007 99 76 58
-3377.9355 2871.6816 735.2581 0.973 -0.089 0.215 67 23 9
-3392.1270 2921.0632 727.6492 0.731 -0.087 -0.676 69 27 16
-3376.7458 2918.4204 721.2800 0.747 -0.063 -0.662 82 38 27
-3196.2878 2847.8875 657.9104 0.737 -0.209 -0.643 63 19 6
-3183.8943 2846.9824 652.4267 0.736 -0.192 -0.650 62 18 5
-3174.4907 2848.5071 647.6306 0.705 -0.213 -0.677 76 32 22
-3340.9023 3055.6150 665.2570 0.776 -0.031 -0.631 129 84 78
-3397.9568 3165.7651 660.0556 -0.015 -0.606 0.795 145 100 97
-3257.2249 3103.8359 612.6249 0.970 0.242 -0.032 121 80 76
-3306.7244 3158.0361 619.9951 0.991 0.134 0.002 116 75 71
-3308.3120 3169.7908 617.3542 0.991 0.134 0.002 112 71 67
-3288.6716 3162.5593 610.3294 0.572 -0.428 0.699 107 66 62
-3262.5845 3149.4343 602.0099 0.582 -0.387 0.715 103 62 58
-3254.8145 3152.7119 597.4674 0.582 -0.387 0.715 120 79 73
-3236.3979 3146.3250 590.7672 0.734 -0.292 0.612 129 88 82
-3231.4246 3152.0759 586.8102 0.784 -0.197 0.589 141 100 94
-3219.0764 3171.6963 575.4512 0.450 -0.853 0.266 132 91 85
-3144.9263 3154.3892 546.0588 0.855 -0.090 0.510 131 93 84
-3144.5359 3164.2925 543.0330 0.944 0.243 0.222 139 101 92
-3196.6909 3244.8110 544.0733 0.925 -0.334 -0.178 97 59 50
-3194.3450 3253.1567 540.5886 0.925 -0.334 -0.178 94 55 46
-3191.9949 3261.5173 537.0978 0.925 -0.334 -0.178 87 38 24
-2394.4324 2687.6421 332.3308 0.117 -0.989 0.095 116 52 27
-2400.1091 2702.0940 330.8102 0.629 -0.735 0.254 115 53 28
-2396.1116 2706.5063 327.6901 0.663 -0.749 0.001 115 53 30
-2953.7585 3533.0071 348.6986 -0.326 -0.939 -0.108 150 108 102
-2950.0212 3563.4556 338.2198 -0.294 -0.902 -0.317 139 105 103
-2519.6921 3287.4661 218.0707 0.472 -0.766 -0.436 93 42 25
-2309.1765 3393.0405 90.1807 0.178 -0.287 -0.941 63 64 84
-2298.3354 3389.0356 86.3071 0.107 -0.400 -0.910 63 64 84
-2215.1982 3348.7664 59.3459 0.447 -0.676 -0.586 54 53 69
-2322.7876 3573.4426 44.6648 0.868 -0.298 0.398 218 198 202
-1633.2554 4759.3472 -615.5665 -0.013 -0.917 0.399 193 158 164
-1627.5842 4762.6313 -619.1382 -0.085 -0.951 0.298 179 146 151
-1620.5847 4762.0327 -622.2100 -0.088 -0.949 0.302 179 147 152
-1612.6564 4758.6665 -624.9174 -0.084 -0.947 0.310 187 155 160
-1589.4865 4710.5034 -621.8194 0.174 -0.865 0.471 165 133 138
-1526.0995 4619.8315 -625.1485 0.368 -0.513 -0.776 188 155 162
-1522.6311 4628.8145 -629.3363 0.318 -0.587 -0.745 205 172 181
-1534.4050 4723.7065 -651.1394 0.236 -0.570 0.787 224 191 198
-3805.6340 2613.7439 997.7161 0.599 -0.444 0.667 126 98 95
-3879.1968 2687.2844 1010.4457 0.862 -0.356 -0.362 148 114 100
-3877.4653 2695.4360 1007.2922 0.730 -0.679 -0.071 156 116 100
-3824.0444 2716.7810 976.4616 0.853 -0.384 -0.352 89 48 30
-3672.8022 2783.0825 887.4803 0.408 -0.453 -0.792 96 50 34
-3363.1951 2855.2122 723.6926 0.238 -0.960 0.145 72 22 10
-3216.8350 2859.8894 654.7615 0.641 -0.368 -0.674 62 18 5
-3190.6748 2857.0305 643.5080 0.728 -0.181 -0.661 79 34 30
-3318.8770 3041.6633 649.3854 0.372 -0.612 0.698 142 97 94
-3307.9746 3042.3291 644.1591 0.372 -0.612 0.698 143 98 95
-3286.8589 3034.2073 636.7546 0.930 -0.117 0.349 143 98 95
-3251.6003 3103.6790 600.4121 0.968 0.246 -0.057 118 77 73
