ply
format ascii 1.0
element vertex 795
property float x
property float y
property float z
property float nx
property float ny
property float nz
property uchar diffuse_red
property uchar diffuse_green
property uchar diffuse_blue
end_header
-2814.1284 5749.6025 1562.5057 0.501 -0.566 0.654 27 20 12
-2547.7476 5524.2310 1402.3287 0.683 0.379 -0.625 24 20 17
-2728.8118 5946.4321 1494.7794 0.560 0.379 -0.737 31 32 27
-2697.6184 5951.9902 1474.0719 -0.140 -0.670 -0.729 53 54 52
-2688.6301 5956.7173 1467.9143 -0.107 -0.723 -0.682 72 67 61
-2685.1414 5973.1353 1464.6338 -0.102 -0.720 -0.686 54 58 57
-2671.6680 5968.2368 1456.1353 -0.105 -0.763 -0.637 45 77 92
-2670.6675 6161.1816 1443.7014 0.714 -0.638 0.289 17 24 28
-2241.7178 6200.6406 1161.2034 0.755 0.297 -0.584 8 18 30
-2060.2500 5919.5005 1059.8767 0.441 -0.597 0.670 34 54 67
-2054.6096 5929.5786 1055.5784 0.447 -0.591 0.672 45 65 79
-2000.9469 5857.2598 1024.9541 0.952 0.226 0.208 35 53 68
-2003.4038 5889.6719 1024.5793 0.956 -0.292 -0.020 24 43 59
-1943.0686 6138.7769 969.9733 0.057 -0.839 -0.541 12 30 44
-1656.7473 5645.0884 813.1583 0.388 -0.779 -0.492 8 21 29
-1768.3191 6176.0718 853.5910 0.084 -0.996 -0.008 5 12 19
-1789.4802 6275.9077 861.3129 0.220 -0.302 -0.928 6 12 17
-1777.8967 6266.4282 854.3281 0.228 -0.378 -0.897 10 14 15
-1776.9174 6292.6392 852.0883 0.214 -0.366 -0.906 43 43 40
-1771.9558 6305.4932 848.0637 0.214 -0.366 -0.906 99 95 90
-1770.4100 6330.0576 845.5546 0.286 -0.374 -0.882 135 126 123
-1761.4343 6329.2847 839.7410 0.174 -0.252 -0.952 146 131 130
-1184.0358 659.0548 805.6490 0.152 -0.823 -0.548 106 92 77
-4675.8223 3265.4568 2915.1001 0.732 -0.236 -0.639 206 199 193
-4094.6516 2920.4404 2558.4409 0.145 -0.821 -0.552 224 217 211
-4768.3306 3549.2783 2957.5283 0.303 -0.930 0.208 217 208 201
-3541.7651 6152.4282 1996.0516 0.541 -0.484 0.688 134 97 71
-3544.8564 6181.1758 1996.2623 0.882 0.063 0.467 132 96 69
-3546.4048 6207.4707 1995.6224 0.882 0.063 0.467 127 91 64
-2802.9990 5625.6509 1548.2041 -0.061 -0.998 0.014 32 13 0
-2712.2717 5968.1045 1467.6919 -0.146 -0.690 -0.709 58 59 56
-2700.0271 5966.0156 1459.8529 -0.107 -0.723 -0.682 86 82 76
-2702.4177 5994.9609 1459.5952 -0.130 -0.705 -0.697 59 64 64
-2686.2690 5984.4785 1449.7410 -0.115 -0.750 -0.651 38 71 88
-2162.3120 6076.1870 1102.9556 0.959 0.200 0.200 6 14 24
-2006.2048 5880.1660 1013.6298 0.956 -0.293 -0.017 24 40 54
-2002.0244 5894.0283 1010.0402 0.956 -0.293 -0.017 23 40 56
-1995.5175 5901.3740 1005.3445 0.210 -0.940 -0.267 25 40 57
-1980.5721 5884.7812 996.6565 0.974 0.186 0.132 23 40 57
-1661.4443 5642.0156 804.1511 0.344 -0.774 -0.531 10 22 29
-1772.2970 6168.8848 843.2899 0.079 -0.979 -0.185 7 12 19
-1800.2490 6291.0439 853.8289 0.220 -0.302 -0.928 7 12 16
-1785.6897 6271.7202 845.5632 0.249 -0.306 -0.919 13 16 17
-1787.0793 6305.8828 844.3270 0.214 -0.366 -0.906 48 48 45
-1782.1140 6318.7764 840.2872 0.214 -0.366 -0.906 103 99 95
-1785.2131 6359.1592 839.7739 0.271 -0.237 -0.933 140 131 128
-4675.9761 3260.4514 2900.8489 0.715 -0.255 -0.651 212 204 201
-4676.9165 3274.4290 2900.5610 0.355 -0.243 -0.903 197 192 188
-4675.6636 3287.0056 2898.9399 0.121 -0.525 -0.843 207 202 198
-4760.2144 3509.5649 2939.4956 0.968 0.068 -0.243 210 203 197
-4792.9307 3546.5344 2958.3469 0.304 -0.936 0.175 204 197 191
-4770.5356 3545.1750 2943.9036 0.298 -0.937 0.180 216 209 203
-4296.1143 4850.3682 2552.2124 -0.142 -0.933 -0.330 234 226 223
-2747.1223 5955.1987 1476.1935 0.571 -0.399 -0.717 23 23 16
-2719.8662 5969.2808 1457.6041 -0.130 -0.691 -0.711 43 38 35
-2708.1360 5968.3154 1450.0554 -0.132 -0.694 -0.708 45 42 36
-2706.7156 5989.1382 1447.7957 -0.110 -0.723 -0.683 37 41 42
-2668.2683 5931.1880 1426.5743 -0.031 -0.565 -0.824 36 50 63
-2663.4746 6113.9575 1411.7186 0.668 -0.660 0.344 17 23 27
-2413.0371 6644.9214 1215.1078 0.731 0.312 -0.607 7 10 10
-2024.1194 5761.8638 1019.5187 0.575 -0.545 0.610 11 15 19
-1986.6909 5962.2642 982.3558 0.998 0.030 -0.063 19 24 31
-1934.6284 6075.6235 941.2916 -0.387 -0.461 -0.799 14 21 29
-1797.9546 5980.3682 858.7363 0.191 -0.970 0.150 9 15 20
-1777.8522 6166.9624 833.7021 0.083 -0.973 -0.216 7 11 14
-1807.3667 6293.9248 844.6926 0.095 -0.066 -0.993 8 10 12
-1804.4880 6313.7568 841.5504 0.102 -0.060 -0.993 22 20 21
-1824.0717 6469.6367 844.2393 0.133 0.014 -0.991 130 118 118
-4694.4331 3267.3979 2897.6877 0.358 -0.237 -0.903 212 204 201
-4690.3120 3278.0852 2894.3186 0.355 -0.243 -0.903 197 192 188
-4690.8350 3291.8433 2893.7505 0.121 -0.525 -0.843 207 202 198
-4115.5820 2925.1956 2545.8523 0.145 -0.821 -0.552 222 217 213
-4114.6099 2936.4001 2544.4858 0.132 -0.817 -0.561 216 211 207
-4770.4302 3454.7971 2934.4963 0.130 -0.777 -0.616 207 200 194
-4765.2900 3507.5166 2927.6995 0.549 -0.337 -0.764 210 203 197
-4375.4312 4908.4863 2583.2830 -0.272 -0.845 -0.460 227 219 216
-3786.9790 5765.8647 2146.2288 0.035 -0.972 -0.231 115 85 59
-3772.9451 5766.9829 2137.0786 0.889 -0.454 0.057 123 92 64
-3660.5481 5838.8438 2059.6523 0.070 -0.957 0.280 128 94 66
-3305.5730 6383.5122 1794.1967 -0.032 -0.244 -0.969 84 60 38
-2874.5347 5713.7305 1559.5355 0.852 -0.446 0.273 29 16 8
-2593.1338 5621.3550 1383.6227 0.359 -0.705 -0.611 24 21 14
-2702.6370 5918.3521 1434.8828 0.601 -0.744 0.292 38 33 29
-2693.7327 5923.1611 1428.8073 0.601 -0.744 0.292 35 33 27
-2686.7812 5932.0688 1423.7247 0.567 -0.708 0.422 31 35 36
-2641.6533 5859.8657 1399.2936 -0.132 -0.938 -0.320 30 41 51
-1919.2043 5628.0420 947.3158 0.440 -0.778 0.448 16 17 21
-1897.4640 6541.3682 873.0996 0.061 -0.049 -0.997 7 11 14
-1882.4954 6522.2549 864.6774 0.066 -0.040 -0.997 10 10 12
-1807.8357 6333.5298 828.8213 0.395 0.105 -0.913 70 61 62
-1819.3068 6401.8149 831.7427 0.395 0.105 -0.913 109 99 98
-1846.1942 6522.7847 841.1647 0.148 0.029 -0.989 129 117 117
-1847.1705 6556.8506 839.5524 0.214 0.047 -0.976 129 117 117
-1873.7672 6742.1118 844.5518 -0.052 -0.935 -0.350 143 131 131
-1923.2438 7182.7915 847.5259 -0.015 -0.965 -0.263 145 125 124
-4091.1714 2800.2656 2525.6182 0.504 -0.049 -0.862 216 208 205
-4102.8794 2819.1785 2531.8901 0.522 -0.104 -0.847 209 201 198
-4133.9053 2932.7415 2544.2312 0.140 -0.815 -0.562 222 217 213
-4124.8291 2938.6072 2537.9844 0.140 -0.815 -0.562 216 211 207
-4761.8398 3457.4631 2913.6560 0.442 -0.372 -0.816 212 205 199
-4774.3110 3494.0847 2919.2258 0.595 -0.110 -0.796 221 214 208
-4772.8833 3507.2131 2917.4197 0.531 -0.350 -0.772 210 203 197
-4361.6636 4903.2402 2558.1318 -0.172 -0.951 0.258 234 226 223
-4294.1675 4903.6836 2514.5874 0.839 -0.510 -0.191 236 228 225
-3752.3262 5724.9048 2109.8667 0.843 -0.507 0.180 123 92 64
-3759.0334 5756.3105 2112.0720 0.915 -0.402 -0.020 127 96 68
-3331.7656 6417.2856 1792.0260 -0.033 -0.257 -0.966 84 60 39
-2787.7471 5514.1338 1502.2307 0.886 -0.395 0.244 27 16 10
-2872.9512 5697.3628 1544.7999 0.858 -0.432 0.278 27 16 10
-2713.9458 5880.6201 1429.9279 0.528 -0.760 0.380 22 21 16
-2671.5833 5932.3003 1399.1307 0.329 -0.880 0.343 17 29 40
-2679.1047 5995.9390 1399.6865 0.352 -0.897 0.266 18 28 40
-2673.7102 6008.3188 1395.3735 0.371 -0.883 0.287 16 27 40
-2675.9312 6037.2007 1394.8571 0.342 -0.895 0.285 14 28 41
-2681.6301 6073.8018 1396.0619 0.380 -0.879 0.290 16 27 39
-1875.3939 5537.2192 912.4878 0.968 0.209 0.136 11 10 12
-1897.3556 5772.4219 910.7791 0.335 -0.942 -0.024 13 17 20
-1998.9385 6120.7085 952.7726 -0.447 -0.560 -0.697 14 18 21
-1988.4226 6116.8779 946.2516 -0.448 -0.545 -0.709 14 18 21
-1976.7006 6109.3740 939.2007 -0.444 -0.552 -0.706 14 18 21
-1919.0663 6590.9590 869.5559 0.061 -0.045 -0.997 7 11 14
-1825.1284 6370.2700 823.8831 0.402 0.110 -0.909 65 56 57
-1874.9935 6598.0513 840.6641 0.211 0.064 -0.975 110 100 99
-1874.9398 6628.9111 838.5476 0.226 0.059 -0.972 112 102 101
-1878.8149 6768.6499 831.6189 -0.251 -0.933 -0.259 135 120 119
-1940.8047 7185.7881 843.4422 -0.006 -0.960 -0.279 144 126 124
-1945.0490 7270.7427 840.4473 0.252 -0.309 -0.917 148 128 127
-1940.4204 7289.3652 836.2070 0.248 -0.382 -0.890 150 129 126
-1293.2938 5305.3311 552.8570 0.136 -0.746 -0.652 169 140 134
-4101.2090 2802.3208 2519.2727 0.520 -0.059 -0.852 216 208 205
-4144.5913 2935.2300 2537.9731 0.140 -0.815 -0.562 222 217 213
-4125.2642 2958.0989 2523.9736 -0.094 -0.643 -0.760 205 200 196
-4773.7124 3460.1042 2906.0195 0.442 -0.372 -0.816 212 205 199
-4785.6123 3496.3323 2911.1650 0.591 -0.343 -0.730 221 214 208
-4778.5967 3505.6101 2906.0159 0.602 -0.378 -0.704 210 203 197
-4768.2285 3512.5642 2898.8728 0.549 -0.833 -0.064 204 197 191
-3727.6055 5677.0059 2080.6675 0.581 -0.814 -0.008 123 92 64
-3758.8665 5744.2124 2096.1157 0.652 -0.757 -0.031 127 96 68
-3592.3035 5775.1299 1986.9420 -0.347 -0.819 -0.457 135 98 69
-3538.5330 6234.2627 1920.6815 0.651 -0.117 0.750 111 78 50
-3506.8298 6275.7163 1897.4454 0.573 -0.362 0.736 85 54 26
-3452.7097 6302.0908 1860.8448 0.483 -0.809 -0.334 113 81 58
-3423.9556 6275.6250 1844.1941 0.533 -0.767 -0.357 113 81 58
-2792.0977 5509.5200 1491.0475 0.901 -0.356 0.249 27 16 10
-2874.7239 6030.3018 1508.1824 0.022 -0.782 -0.623 23 16 10
-2859.9375 6024.1836 1499.1025 0.029 -0.766 -0.642 23 16 10
-2595.4346 5733.1226 1349.2246 0.019 -0.861 0.508 15 18 24
-1826.2476 5360.1255 880.6794 0.681 -0.643 0.352 6 4 7
-1863.5149 5535.4116 892.5240 0.238 -0.338 -0.911 8 6 7
-1988.7054 6045.7300 937.7343 0.835 0.135 -0.533 8 12 15
-2037.5569 6297.8135 951.7197 0.774 -0.051 -0.632 12 13 17
-1907.8545 6563.0015 850.0560 -0.016 -0.042 -0.999 10 10 12
-1877.4719 6493.0151 835.3643 0.116 -0.012 -0.993 20 16 17
-1837.9658 6391.9429 816.9562 0.396 0.072 -0.915 47 38 39
-1890.7258 6628.9360 834.4954 0.234 0.063 -0.970 81 71 70
-1900.8363 6694.1548 836.4889 0.226 0.059 -0.972 86 76 75
-1889.7637 6688.1284 829.7894 0.075 -0.023 -0.997 95 85 84
-1886.1206 6707.2617 826.1270 0.155 -0.136 -0.979 101 91 90
-1876.0619 6965.0601 801.8603 0.756 0.005 -0.654 145 125 124
-1872.3988 7019.4033 795.7535 0.280 -0.122 -0.952 150 129 128
-1914.8402 7206.7759 810.0884 0.396 -0.917 -0.037 150 129 126
-1924.9047 7278.3911 811.6106 -0.388 -0.913 -0.127 150 129 126
-1578.6196 6582.5063 637.1328 -0.238 -0.570 -0.787 188 158 148
-1520.1951 6514.1313 604.3090 -0.087 -0.453 -0.887 192 164 153
-1523.1201 6559.7671 603.0373 -0.092 -0.431 -0.898 191 164 153
-4750.3242 3328.9382 2885.2163 0.385 -0.227 -0.894 210 205 201
-3656.2896 2672.9451 2230.7515 0.121 -0.348 -0.930 218 213 207
-4791.9897 3495.1904 2900.1609 0.602 -0.378 -0.704 222 215 209
-4788.3672 3506.8054 2897.0198 0.602 -0.378 -0.704 211 204 198
-4769.4668 3507.8667 2884.8376 0.577 -0.810 -0.106 204 197 191
-4765.6274 3519.3274 2881.5686 0.517 -0.849 0.108 216 209 203
-4754.0371 3525.3967 2873.7151 0.517 -0.849 0.108 218 209 202
-4322.8433 4935.4932 2497.8818 0.727 0.471 -0.499 230 222 215
-3758.3936 5731.7129 2080.0581 0.578 -0.816 0.017 119 88 60
-3506.0317 6142.0835 1889.4095 0.685 -0.077 0.724 125 85 56
-3491.4297 6235.2974 1873.4705 0.566 -0.367 0.738 91 60 32
-3448.4402 6256.4307 1844.4393 0.813 -0.183 0.553 108 76 53
-3437.6956 6285.6768 1835.4904 0.356 -0.842 -0.405 108 76 53
-2800.4038 5512.3711 1481.8912 0.889 -0.355 0.290 28 17 11
-2839.2966 5829.4321 1484.4049 0.230 -0.132 -0.964 29 24 20
-2922.7708 6064.4614 1521.2717 0.147 -0.987 -0.065 30 23 17
-2785.9658 5860.5176 1448.0464 -0.001 -0.995 -0.103 21 14 8
-2414.8657 5402.0552 1242.7191 0.084 -0.445 -0.892 17 17 21
-1926.3951 5696.3535 909.0258 0.481 -0.876 -0.036 7 7 9
-1824.7877 5528.7700 855.7783 -0.080 -0.477 -0.875 4 7 12
-1831.2251 5571.6108 856.8753 -0.114 -0.832 -0.543 3 7 10
-1973.0457 6724.3188 866.2843 0.094 -0.095 -0.991 12 13 17
-1935.1483 6631.1221 848.5925 -0.219 -0.807 -0.549 13 13 15
-1916.9125 6694.5767 832.4281 0.435 0.123 -0.892 57 47 46
-1932.2084 6777.3521 836.3783 0.435 0.123 -0.892 59 49 48
-1922.1401 6775.1743 830.0827 0.111 -0.026 -0.993 62 52 51
-1907.3158 6756.7485 821.8884 -0.110 -0.801 -0.589 62 52 51
-1903.6034 6807.9844 815.8905 -0.054 -0.585 -0.809 85 71 70
-1886.9202 6782.7900 806.9836 0.022 -0.613 -0.790 99 84 81
-1824.7815 6694.7905 773.3963 0.104 -0.495 -0.863 125 107 105
-1817.9497 6702.7446 768.4581 0.619 -0.099 -0.779 130 112 110
-1833.0850 6788.5952 772.0881 0.769 0.070 -0.635 136 116 115
-1845.9357 6867.0684 774.7759 0.602 0.009 -0.799 134 114 113
-1872.1849 6994.2217 782.6072 0.329 -0.158 -0.931 136 115 114
-1862.8632 7131.7515 766.9196 -0.036 -0.940 0.340 145 124 121
-1847.8403 7111.2583 758.7442 -0.034 -0.942 0.335 152 128 126
-1792.0789 7007.9121 730.3261 -0.168 -0.844 -0.510 156 127 123
-1797.0527 7061.3037 729.7402 0.005 -0.973 -0.230 155 126 122
-1473.5486 6267.3994 578.6003 0.297 0.114 -0.948 191 163 152
-1469.1838 890.0184 951.5179 0.704 -0.016 -0.710 189 182 172
-2961.4915 2141.1104 1814.0101 0.592 0.039 -0.805 204 199 195
-4763.5747 3332.4419 2878.6174 0.385 -0.227 -0.894 210 205 201
-3663.6111 2652.5203 2225.3845 0.125 -0.356 -0.926 210 205 201
-3670.4915 2699.7754 2226.3640 0.119 -0.667 -0.735 202 195 189
-4773.8916 3519.4980 2871.6926 0.530 -0.847 -0.050 216 209 203
-4406.2129 4905.9272 2536.7683 -0.231 -0.958 0.168 231 223 220
-4301.4761 4884.9717 2471.4055 0.992 -0.073 0.105 245 237 234
-4330.3169 4934.6777 2486.2302 0.727 0.471 -0.499 233 225 219
-4357.8779 5020.6860 2497.6155 0.898 0.125 -0.422 210 192 180
-3725.7627 5978.4302 2024.8107 0.280 -0.886 0.370 139 102 73
-3527.1121 6282.6343 1875.9928 0.590 -0.333 0.735 91 60 32
-3462.0845 6266.1992 1835.6587 0.351 -0.757 -0.552 104 72 49
-3464.9697 6295.2754 1835.4006 0.334 -0.637 -0.694 104 72 49
-3445.4326 6285.1401 1823.6578 0.767 0.112 -0.632 103 71 48
-2816.7090 5530.2261 1476.7388 0.899 -0.334 0.284 28 17 11
-2988.7366 6180.9902 1539.5717 0.105 -0.977 0.186 35 28 22
-2778.3098 5853.9243 1428.8364 0.096 -0.483 -0.870 25 18 12
-2814.9343 5951.1958 1445.1952 0.089 -0.011 -0.996 26 19 13
-2032.6925 5952.4995 945.6235 0.173 -0.926 0.336 12 11 16
-2009.9729 5940.1484 932.0088 0.303 -0.941 0.154 11 12 16
-1814.8394 5531.7876 836.9114 -0.063 -0.497 -0.866 8 13 17
-1992.4426 6734.5166 863.4313 -0.166 -0.701 -0.693 10 14 17
-1945.3593 6642.9053 839.9855 0.019 -0.927 -0.376 13 13 15
-1913.2457 6568.1475 824.8807 -0.019 -0.863 -0.505 34 30 31
-1905.2139 6572.1123 819.4658 -0.021 -0.855 -0.519 54 45 46
-1902.7437 6625.2275 814.0516 0.474 0.043 -0.880 55 45 44
-1910.1122 6680.8652 814.7373 0.483 0.049 -0.874 57 47 46
-1928.9590 6775.5923 819.9285 0.378 -0.074 -0.923 59 49 48
-1931.1161 6814.7017 818.4807 -0.099 -0.898 -0.428 59 49 48
-1926.1632 6829.9404 814.2173 -0.120 -0.892 -0.437 60 48 48
-1914.1174 6821.0181 807.1703 -0.054 -0.585 -0.809 69 55 54
-1854.0120 6905.1201 762.7163 0.921 -0.344 -0.183 118 97 94
-1848.3751 6918.2271 758.1703 0.922 -0.345 -0.175 124 103 100
-1828.0016 6878.2598 748.0485 -0.067 -0.952 -0.298 130 109 106
-1796.9778 6799.2280 733.9483 -0.077 -0.919 -0.387 133 112 109
-1806.6227 6867.3691 735.1844 -0.117 -0.969 -0.217 137 116 113
-1530.1709 6406.6523 591.9457 0.445 0.104 -0.890 184 154 144
-1555.9906 6576.2212 596.1827 0.407 0.115 -0.906 189 161 150
-1542.2156 6587.6870 586.5588 0.005 -0.362 -0.932 184 156 145
-1540.3242 6613.8501 583.4612 -0.044 -0.368 -0.929 188 158 148
-3676.7529 2657.1985 2221.9224 0.171 -0.498 -0.850 210 205 201
-3676.3657 2667.5547 2220.9116 0.159 -0.512 -0.844 216 211 207
-4371.5273 4989.1455 2491.9685 0.721 0.478 -0.502 236 219 210
-4359.4541 5013.2788 2482.5027 0.912 0.145 -0.384 210 192 180
-4403.3364 5156.9399 2499.8267 -0.475 -0.817 -0.327 116 97 84
-3558.2104 5994.5732 1900.0898 -0.011 -0.401 -0.916 123 84 53
-3459.3145 6271.3252 1816.7141 0.317 -0.783 -0.535 96 64 41
-3378.0364 6296.1509 1763.1501 0.929 0.351 0.119 87 59 38
-3008.0378 6180.2520 1536.2130 0.155 -0.966 0.209 42 35 29
-2050.2703 5958.3828 943.0016 0.227 -0.860 0.457 16 16 18
-1948.1556 5773.6768 891.6447 0.955 0.290 -0.061 18 19 21
-1898.2053 5806.8608 857.4030 0.964 -0.094 -0.247 9 13 16
-1963.2091 6022.8691 882.8290 0.835 0.231 -0.500 9 13 16
-1999.1825 6182.5376 893.9373 0.786 0.193 -0.587 10 11 16
-1994.3417 6749.8394 848.9750 0.102 -0.833 -0.544 12 13 17
-1929.6056 6600.3262 818.8102 0.032 -0.957 -0.288 33 29 30
-1928.8004 6628.2466 816.2365 0.030 -0.916 -0.399 54 45 46
-1887.3162 6552.1606 795.4501 0.023 -0.936 -0.350 54 44 43
-1883.5961 6570.2734 791.7452 -0.001 -0.815 -0.579 57 47 46
-1937.8217 6782.8579 810.5640 0.522 -0.279 -0.806 59 49 48
-1942.8391 6863.6206 807.7950 -0.121 -0.898 -0.422 60 48 48
-1917.0609 6840.2944 793.1101 -0.064 -0.885 -0.461 61 44 41
-1880.3904 6778.5532 774.3284 -0.337 -0.876 -0.345 62 44 42
-1861.6194 6777.6724 762.4463 0.538 -0.439 -0.719 65 47 45
-1851.4640 6774.3994 756.2243 0.795 -0.053 -0.605 71 53 51
-1849.0022 6798.1001 752.9077 0.765 0.074 -0.640 76 58 56
-1854.3092 6849.4399 752.4952 0.765 0.074 -0.640 84 64 63
-1843.9617 6845.5308 746.1979 0.953 -0.291 0.085 91 72 68
-1834.1665 6843.4712 740.1157 0.949 -0.305 0.081 97 76 73
-1816.0203 6811.3110 730.9404 0.456 -0.888 0.049 103 82 79
-1800.3259 6820.4824 720.2742 0.160 -0.922 -0.351 119 98 95
-1816.4230 6912.2935 723.7416 0.394 -0.036 -0.918 125 104 101
-1766.4623 6999.1880 685.5280 -0.048 -0.992 0.117 165 136 132
-1517.7982 6333.5713 576.4001 0.208 -0.224 -0.952 178 148 138
-1571.4969 6580.2710 592.3651 -0.247 -0.553 -0.796 174 146 135
-1542.6713 6531.1431 577.6453 0.973 0.173 0.156 158 130 119
-1526.2909 6498.0752 569.6609 -0.243 -0.585 -0.773 151 123 112
-1524.0962 6522.4604 566.4637 -0.041 -0.378 -0.925 154 124 114
-390.8278 1906.9916 185.9114 0.736 0.229 -0.637 161 132 121
-2961.0503 2142.8079 1795.1567 0.336 0.074 -0.939 210 205 201
-3688.8022 2671.7610 2216.9719 0.165 -0.517 -0.840 216 211 207
-4173.5649 3056.4043 2495.5115 0.633 -0.555 -0.541 222 215 209
-3952.1897 5759.1982 2151.2476 -0.040 -0.726 -0.687 58 37 19
-3619.0330 5597.4180 1952.0846 -0.381 -0.510 -0.771 130 96 68
-3435.4436 5805.2139 1819.9412 0.064 -0.864 -0.500 125 86 55
-3440.0046 6200.0010 1793.0638 0.467 -0.824 -0.320 92 61 37
-2955.0713 5875.7280 1509.8638 0.042 -0.889 -0.455 21 16 11
-2949.4048 5910.5522 1503.6427 -0.074 -0.925 -0.373 21 17 11
-2958.6675 5951.4053 1506.4384 0.721 -0.607 0.334 26 22 16
-2978.2622 6012.5317 1514.2603 0.943 0.061 0.327 29 25 19
-3008.8088 6095.3799 1527.3922 0.915 0.065 0.397 29 25 20
-2991.6128 6085.5718 1517.2223 0.955 -0.104 0.277 30 24 19
-2874.9302 6019.9150 1448.1471 -0.241 -0.440 -0.865 38 30 23
-2899.8201 6093.7563 1458.3695 0.247 0.155 -0.957 37 29 23
-2839.2668 6018.6470 1425.6171 0.315 0.281 -0.907 22 19 15
-2048.9429 6366.4922 897.9853 0.953 0.253 0.168 11 10 15
-2008.3165 6443.4722 866.4058 0.986 0.095 0.137 11 13 15
-1953.3260 6565.2520 822.3351 0.005 -0.702 -0.712 13 13 16
-1958.3456 6611.6318 822.0222 -0.024 -0.687 -0.726 13 13 16
-1859.6027 6321.2466 781.2752 0.047 -0.357 -0.933 14 13 14
-1851.7363 6324.6807 776.0256 0.340 -0.181 -0.923 34 29 30
-1861.1224 6384.6562 777.4576 0.298 -0.173 -0.939 54 45 46
-1894.4927 6554.4302 785.8259 -0.026 -0.761 -0.648 55 45 44
-1944.5641 6846.6001 795.5598 -0.098 -0.901 -0.422 60 48 48
-1929.2793 6859.0210 784.9261 -0.081 -0.862 -0.500 66 49 47
-1904.5127 6806.5498 773.1705 -0.346 -0.880 -0.325 66 47 45
-1854.0834 6665.1719 751.8381 -0.296 -0.887 -0.354 64 48 43
-1812.8063 6585.0498 731.6930 -0.087 -0.828 -0.554 57 41 38
-1822.0187 6744.2148 725.5349 0.435 -0.299 -0.849 70 51 47
-1808.8191 6729.5742 718.2648 0.214 -0.963 -0.162 78 58 55
-1787.1849 6684.5186 707.9372 0.305 -0.924 0.233 84 64 60
-1771.3137 6659.6572 699.7430 0.179 -0.973 -0.144 86 66 63
-1781.9235 6730.1733 701.1564 0.155 -0.948 -0.278 90 70 66
-1802.0280 7108.4385 685.3862 -0.089 -0.995 -0.040 165 136 131
-1427.3489 5951.8643 534.8980 0.974 0.173 0.148 173 144 132
-1456.6313 6098.4702 542.4200 0.965 0.179 0.190 149 121 108
-1516.1219 6399.7876 557.4399 0.973 0.173 0.156 123 96 83
-3688.1135 2688.4988 2203.7222 0.147 -0.762 -0.631 210 203 195
-4177.9297 3054.6162 2485.2847 0.552 -0.639 -0.535 216 209 201
-3822.8884 5464.3774 2075.2310 0.987 0.159 -0.002 62 38 23
-3922.5215 5684.9688 2121.2532 -0.017 -0.996 0.085 78 56 41
-3911.6077 5690.9502 2113.8911 -0.016 -0.996 0.087 80 61 46
-3421.5417 5770.2520 1797.8771 -0.061 -0.879 -0.473 113 77 48
-3469.0293 6189.0791 1795.6609 -0.254 -0.895 -0.367 101 72 48
-3434.4102 6176.5410 1774.7336 0.463 -0.868 -0.180 81 54 29
-3273.6550 5966.2949 1689.2625 0.434 -0.036 -0.900 86 59 35
-3413.7405 6454.1729 1740.2872 0.924 0.169 0.342 68 46 22
-2666.0178 5171.2788 1366.2140 0.802 -0.325 0.501 33 24 17
-2963.5222 5878.1074 1499.9301 0.049 -0.892 -0.449 22 14 5
-2965.5000 5927.5747 1497.3722 0.727 -0.604 0.326 36 28 19
-2958.0603 5936.2700 1491.9980 0.838 -0.297 0.458 52 44 35
-2978.0916 5998.0566 1499.9083 0.932 0.075 0.356 50 42 33
-2981.9866 6099.7324 1494.5432 0.280 -0.960 0.021 45 34 22
-2926.0039 6083.9849 1460.3533 -0.185 -0.369 -0.911 53 42 28
-2862.0217 5979.6030 1427.9287 -0.134 -0.349 -0.927 46 35 22
-2666.0154 5652.6724 1329.1490 -0.117 -0.447 -0.887 29 20 12
-2032.1782 6555.0625 858.8456 0.789 -0.269 0.553 18 9 6
-2031.1547 6581.4502 856.1667 0.863 -0.209 0.461 18 9 6
-2049.1299 6667.2622 860.9270 0.871 -0.208 0.446 18 8 6
-1894.4142 6355.2100 787.1133 -0.167 -0.801 -0.575 16 11 9
-1774.1917 6338.9927 712.3354 0.181 -0.713 -0.678 58 46 40
-1750.4534 6287.4033 701.2957 0.588 -0.703 -0.401 58 46 40
-1811.6095 6652.5747 711.8544 0.501 -0.332 -0.799 58 46 42
-1808.9279 6674.8652 708.4424 0.104 -0.988 -0.111 58 46 42
-1812.7329 6720.3091 707.3498 0.179 -0.975 -0.132 58 46 43
-1789.3092 6669.0215 696.4859 0.331 -0.917 0.222 59 46 43
-1834.7155 7031.7524 697.2725 -0.112 -0.973 0.203 64 57 49
-1835.5710 7138.7300 689.5772 -0.073 -0.989 -0.127 148 127 123
-1858.5695 1207.4166 1155.3237 0.955 0.164 -0.246 207 204 199
-3681.0259 2616.2932 2193.3962 0.419 -0.090 -0.904 215 211 202
-4187.5654 3044.2336 2479.0649 0.537 -0.678 -0.502 215 208 200
-4185.9785 3055.3391 2477.1924 0.554 -0.652 -0.518 216 209 201
-4366.8271 4975.5176 2440.3176 0.841 0.157 -0.517 243 225 213
-3829.8130 5463.0088 2063.5127 0.987 0.159 -0.004 72 46 31
-3442.1152 5812.9727 1791.6337 -0.193 -0.526 -0.828 115 80 50
-3523.5261 6127.5059 1818.2371 -0.295 -0.891 -0.345 105 74 49
-3511.4907 6130.5728 1810.4098 -0.295 -0.895 -0.334 105 75 49
-2958.6194 5923.4434 1478.1865 0.831 -0.306 0.465 55 46 37
-2980.0398 6034.3750 1482.9727 0.956 -0.102 0.276 33 23 14
-3000.4292 6145.2954 1487.1097 0.194 -0.975 -0.110 49 35 22
-2963.8193 6120.8027 1465.9575 -0.192 -0.375 -0.907 58 44 31
-2944.6570 6106.5864 1454.9957 -0.185 -0.369 -0.911 55 42 26
-2909.7339 6060.6719 1436.5897 -0.174 -0.384 -0.907 47 35 21
-2114.8643 6270.9023 919.0325 0.013 -0.803 0.595 39 30 25
-1936.3989 6381.6274 797.8386 0.950 0.085 0.302 16 7 8
-1927.3381 6381.9043 792.1055 0.749 -0.570 -0.339 16 8 6
-1950.3297 6484.1064 798.5678 0.755 -0.234 -0.612 15 7 5
-1918.1567 6410.8135 784.0466 -0.037 -0.732 -0.680 17 12 9
-1779.7120 6518.2354 688.3389 0.134 -0.899 -0.417 57 46 42
-1861.0441 7034.9331 699.0083 0.079 -0.285 -0.955 57 48 43
-1843.3077 7072.7534 684.8568 -0.284 -0.959 -0.009 110 101 92
-1826.9408 7116.0220 671.1403 -0.030 -0.915 0.403 149 123 120
-1618.5249 6463.4126 591.0435 0.803 -0.458 0.382 162 125 110
-1400.1393 5801.1128 505.4237 0.973 0.148 0.175 134 101 86
-1435.8057 6001.1572 512.1880 0.972 0.176 0.159 121 94 77
-4164.2456 2800.4775 2470.8589 0.914 0.133 -0.384 202 197 191
-3301.3794 2354.7217 1964.4423 0.965 -0.142 0.218 210 206 197
-4189.3564 3016.4893 2469.3232 0.521 -0.685 -0.510 210 203 195
-4175.5605 3019.2905 2460.4304 0.547 -0.675 -0.495 203 196 188
-4170.7729 3028.1431 2456.7131 0.523 -0.651 -0.551 215 208 200
-4356.3535 4845.5830 2427.6501 0.089 -0.439 -0.894 230 225 219
-4388.8501 4990.4761 2436.4548 0.871 0.080 -0.486 243 225 213
-3753.6814 5096.8047 2028.8534 -0.168 -0.721 -0.673 68 40 28
-3775.1963 5643.9160 1998.5215 0.590 -0.391 -0.706 89 62 41
-3688.1831 5707.3779 1938.7643 -0.561 -0.745 -0.360 126 95 66
-3630.0051 5835.1577 1891.9695 -0.460 -0.877 -0.139 136 101 69
-3419.3059 5807.2007 1761.8268 -0.453 -0.467 -0.759 108 73 43
-3622.0181 6184.1870 1858.9772 -0.251 -0.922 -0.296 112 77 47
-3527.6426 6238.1689 1795.3540 -0.158 -0.921 0.355 102 72 48
-3202.6792 5973.3706 1612.4010 0.896 0.051 0.440 75 53 29
-2966.5479 5970.8311 1464.2421 0.920 0.056 0.388 49 40 31
-2977.6213 6015.4868 1467.6206 0.956 -0.102 0.276 39 29 20
-3021.4453 6148.0200 1484.5331 0.199 -0.973 -0.116 35 22 10
-2974.7568 6080.3550 1460.6217 -0.148 -0.351 -0.924 42 28 15
-2966.2322 6087.2607 1454.7122 -0.118 -0.330 -0.936 47 33 22
-2959.4973 6097.6875 1449.6449 -0.094 -0.323 -0.942 56 42 29
-2880.8132 6059.0996 1403.3000 -0.200 -0.492 -0.847 30 20 11
-2130.3711 6296.3149 912.7812 0.316 -0.563 0.764 39 30 25
-1907.1660 6241.4160 776.9405 0.970 0.146 0.193 23 14 13
-1927.4092 6333.2339 782.3004 0.955 0.098 0.281 23 14 15
-1945.7170 6448.8711 784.5352 0.809 -0.108 -0.578 19 11 9
-1910.2330 6394.1421 766.6269 -0.316 -0.279 -0.907 22 17 14
-1876.2593 6401.2949 744.7077 0.158 0.015 -0.987 57 46 42
-1923.6796 7201.8677 710.3378 0.397 0.123 -0.909 58 47 43
-1887.2782 7139.5454 692.4617 0.354 0.035 -0.934 54 52 43
-1872.4547 7120.0991 684.7066 0.167 -0.046 -0.985 58 57 48
-1853.6442 7085.7534 675.6405 -0.286 -0.958 0.031 109 102 92
-1832.7251 7043.2070 665.9070 -0.200 -0.959 0.202 132 121 116
-1711.6587 6727.2637 615.1626 0.346 -0.094 -0.933 149 113 113
-1772.0317 6988.4517 632.1616 0.819 -0.421 0.391 154 118 108
-4213.8423 2979.9998 2474.6104 0.619 0.043 -0.784 201 197 188
-4198.0571 3005.5835 2462.6338 0.437 -0.741 -0.510 221 217 208
-4181.0859 3018.3281 2450.9639 0.335 -0.779 -0.530 203 196 188
-4322.1426 4258.7246 2437.9358 0.848 0.209 -0.488 229 222 216
-4507.9600 4551.0645 2530.4170 0.829 0.332 -0.449 230 225 221
-4583.5688 4658.7236 2568.9709 0.894 0.236 -0.381 230 225 221
-4395.5088 4988.6987 2424.2278 0.871 0.080 -0.486 243 225 213
-3135.9128 4193.2676 1700.3829 0.625 -0.759 -0.181 87 59 47
-3038.0859 4205.8813 1638.0858 0.184 -0.799 -0.572 61 35 22
-3900.4583 5790.2310 2048.6887 -0.426 -0.457 -0.781 79 53 32
-3645.6873 5980.1548 1873.6119 -0.421 -0.891 0.169 117 82 52
-3610.8860 6152.5850 1837.7256 -0.293 -0.867 -0.403 112 77 47
-3345.1418 6050.8203 1679.6140 0.032 -0.403 -0.914 86 60 35
-2500.3340 4795.1113 1253.1539 0.173 -0.300 -0.938 52 35 21
-2946.3044 5895.0132 1442.5663 0.876 -0.102 0.472 67 58 49
-2942.5364 5910.5879 1438.9337 0.876 -0.102 0.472 54 45 36
-2975.2178 5996.7148 1452.3627 0.956 -0.102 0.276 44 34 25
-2972.0759 6204.0171 1433.4537 0.275 -0.340 -0.900 33 21 13
-3018.0935 6345.7456 1450.6910 0.317 0.170 -0.933 29 20 11
-2178.1951 6330.3027 925.9484 0.310 -0.536 0.785 25 22 17
-1937.6652 5783.8496 819.9687 0.289 -0.701 0.652 47 38 33
-1970.2621 6005.7778 822.2467 0.623 0.232 -0.747 69 51 41
-1852.5913 5814.1519 764.2130 0.844 0.200 -0.499 62 43 38
-1897.6714 5975.3452 779.2722 0.778 0.164 -0.606 53 38 33
-1881.5203 5953.0908 770.9760 0.010 -0.999 -0.037 51 39 35
-1831.2667 5853.0547 747.6787 0.781 -0.144 0.607 47 33 30
-1883.8478 6149.1470 756.4114 0.896 0.143 0.420 28 18 17
-1934.0532 6391.5674 768.0425 -0.141 -0.106 -0.984 22 14 12
-1921.6379 6410.1611 758.7477 -0.139 -0.218 -0.966 24 16 14
-1931.1797 6469.9668 759.8360 -0.188 -0.208 -0.960 30 22 20
-1882.5671 7097.6387 678.0967 0.022 -0.911 0.411 52 53 43
-1806.3689 6888.2407 647.4883 0.228 -0.655 0.721 108 103 93
-1760.5255 6819.3535 624.4075 0.468 -0.441 0.766 138 112 109
-1733.2308 6784.0674 610.1973 0.329 -0.035 -0.944 144 109 109
-1438.4907 6058.0889 484.9384 0.967 0.181 0.178 181 142 130
-4157.3062 2787.6523 2442.3391 0.911 0.159 -0.379 192 187 181
-4178.7046 2858.4983 2449.7957 0.935 -0.341 0.095 200 195 189
-4220.5029 2979.7859 2465.7854 0.604 -0.006 -0.797 207 203 194
-4204.3364 3005.1204 2453.5835 0.438 -0.746 -0.502 219 215 206
-4185.3325 3016.5073 2440.7717 0.323 -0.753 -0.573 204 197 189
-4467.4253 4470.5508 2495.7532 0.775 0.319 -0.546 219 214 210
-4498.1987 4516.8262 2511.1089 0.764 0.318 -0.562 243 238 234
-4344.1519 4833.3286 2388.5840 0.177 -0.873 -0.454 241 236 230
-4358.6655 4866.8325 2394.8533 0.140 -0.921 -0.363 200 195 189
-4329.1895 4853.4126 2377.5708 0.465 -0.266 -0.845 167 162 156
-3173.1665 4232.3960 1707.6597 0.465 -0.243 -0.852 86 58 46
-3168.3442 4241.8262 1703.8639 0.154 -0.456 -0.877 86 58 46
-3184.0466 4277.4019 1710.7028 0.484 -0.204 -0.851 86 58 46
-3502.3667 4699.9893 1874.2126 -0.159 -0.983 -0.092 78 50 38
-3343.6541 4734.9131 1772.2288 0.759 0.541 -0.363 104 78 63
-4004.4338 5710.2407 2103.4763 0.674 0.285 -0.682 102 76 61
-3669.6006 5893.6631 1879.1815 -0.392 -0.919 -0.034 139 104 72
-3501.6692 5871.6543 1776.1849 -0.201 -0.536 -0.820 99 64 34
-3416.1924 6044.8628 1708.3997 0.368 -0.766 0.527 93 65 41
-3421.9058 6077.5620 1709.2424 0.516 -0.612 0.600 90 62 38
-3036.0066 6147.3950 1462.5314 0.691 -0.521 -0.501 51 37 25
-3017.3545 6230.9873 1443.9253 -0.224 -0.402 -0.888 38 24 11
-3032.4211 6309.8945 1446.7579 0.128 -0.145 -0.981 38 26 18
-2998.5239 6266.4990 1429.2125 0.299 0.188 -0.936 33 24 15
-3029.7349 6353.9688 1441.4100 0.300 0.182 -0.936 26 17 8
-2251.4304 6459.5293 946.7674 -0.334 -0.703 -0.628 15 14 10
-2147.5056 6280.4966 896.8055 0.101 -0.675 0.731 32 23 18
-2127.2251 6250.5801 886.6373 0.320 -0.562 0.763 39 30 25
-2024.6132 6172.4854 829.0875 0.647 0.244 -0.723 77 51 38
-1905.5646 6007.2607 768.5345 0.604 0.036 -0.796 63 50 48
-1847.6517 5911.0156 740.3996 0.217 -0.976 -0.035 61 47 44
-1905.1593 6252.0938 747.8885 0.964 0.252 0.084 46 38 36
-1939.6644 6389.0698 758.0188 0.964 0.254 0.076 45 37 35
-1958.3064 6477.0254 762.3298 -0.179 -0.206 -0.962 45 37 35
-1951.3306 6513.7349 754.9175 -0.194 -0.227 -0.954 45 37 35
-1981.2308 6639.4272 763.1131 -0.025 0.033 -0.999 51 41 39
-2003.9899 6743.1855 768.6778 -0.066 -0.020 -0.998 59 48 44
-1850.5487 6924.3262 657.8056 0.009 -0.928 0.372 59 53 47
-1866.0441 7013.4614 660.0540 0.028 -0.896 0.444 58 59 48
-1795.8494 6793.0942 634.5908 0.481 -0.441 0.758 67 68 57
-1792.9539 6815.3628 630.9285 0.419 -0.506 0.754 86 81 70
-1783.7019 6814.5200 625.2232 0.419 -0.506 0.754 101 89 85
-1818.8424 6976.7480 633.6468 0.489 -0.437 0.755 108 90 85
-1436.6467 5968.1035 479.0779 0.485 0.002 -0.874 193 148 137
-1504.2664 6297.8369 493.8243 0.877 -0.144 -0.459 194 150 139
-4200.0288 2879.3003 2448.5808 0.969 -0.193 0.152 214 209 203
-4197.6382 2889.4509 2446.2322 0.969 -0.193 0.152 210 205 199
-4230.0142 2981.4409 2458.5703 0.604 -0.006 -0.797 207 203 194
-4296.6846 4079.7273 2406.8503 0.564 -0.800 0.205 223 213 211
-4394.5889 4247.2812 2453.5486 0.992 -0.122 0.021 214 204 202
-4497.0171 4357.7246 2507.9087 0.955 0.039 -0.295 222 215 209
-4358.2598 4839.6646 2380.6729 0.172 -0.872 -0.458 238 233 227
-4369.0532 4869.1919 2384.8831 0.140 -0.921 -0.363 208 203 197
-4340.3667 4856.6724 2368.0962 0.566 -0.497 -0.658 160 155 149
-3694.4312 5197.7935 1937.2367 0.307 -0.054 -0.950 104 78 63
-3512.8596 5921.4414 1762.8494 -0.468 -0.477 -0.744 100 65 35
-3532.2043 6111.8237 1758.7297 0.700 -0.510 0.499 111 81 55
-3520.0461 6137.7803 1748.9619 0.589 -0.525 0.614 105 75 51
-3491.2463 6135.7012 1731.2186 0.587 -0.532 0.610 95 65 41
-3363.3643 6009.8350 1662.3298 0.247 -0.438 -0.864 82 56 31
-3382.7786 6066.1143 1669.6337 0.395 -0.352 -0.849 82 56 31
-3377.8394 6080.6216 1665.3292 0.032 -0.403 -0.914 86 60 35
-3358.6482 6070.4102 1654.2549 0.052 -0.468 -0.882 93 67 42
-3340.9751 6085.7671 1641.9551 0.458 0.108 -0.883 93 67 42
-2493.9355 4798.2070 1224.1801 0.943 0.245 0.224 31 22 15
-2877.9431 5671.2378 1389.0277 0.786 -0.255 0.563 33 24 15
-2891.4006 5718.5649 1393.3849 0.958 -0.112 0.264 45 36 27
-2956.0769 5908.9897 1417.4674 0.934 -0.150 -0.326 54 45 36
-3049.0447 6158.2495 1454.1605 0.705 -0.594 -0.389 56 42 30
-3050.8154 6331.5356 1440.5568 0.147 -0.140 -0.979 39 27 19
-3029.3398 6313.2485 1428.7462 0.299 0.188 -0.936 33 24 15
-2259.5879 6490.9941 934.7109 -0.321 -0.771 -0.550 20 19 15
-2149.4260 6267.5630 885.1275 0.101 -0.675 0.731 32 23 18
-1977.1852 5938.2729 805.9010 0.796 0.281 -0.536 59 44 35
-2027.3391 6108.5527 822.6572 0.807 0.284 -0.519 76 51 38
-2032.2117 6149.2749 822.2332 0.820 0.271 -0.505 81 50 31
-1895.5680 5804.2144 766.4941 0.921 -0.370 0.126 82 51 34
-1888.8264 5809.8306 761.8228 0.923 -0.368 0.115 88 57 41
-1865.3334 5791.3818 748.7707 0.779 0.139 -0.611 86 57 39
-1853.2771 5806.4683 739.9888 0.426 0.108 -0.898 76 58 50
-1856.9015 5842.9658 739.1467 0.431 0.009 -0.902 71 56 55
-1815.2333 5743.2305 721.6840 -0.194 -0.959 -0.207 67 53 50
-1842.4518 6009.4297 716.0293 0.969 0.213 0.123 51 43 41
-1848.6967 6055.9546 715.9667 0.964 0.254 0.076 51 43 41
-1896.7671 6234.2148 730.7492 0.964 0.254 0.076 50 42 40
-1967.3624 6544.0913 748.3777 0.628 0.101 -0.772 50 42 40
-2009.1102 6707.4585 760.4901 -0.206 -0.149 -0.967 53 43 41
-2011.5593 6745.9272 758.7494 -0.196 -0.139 -0.971 58 47 43
-1643.4630 5850.0884 605.7375 0.969 0.229 0.095 56 45 39
-1703.9684 6140.3115 618.7558 0.962 0.166 0.217 55 44 38
-1713.2781 6201.2852 619.3740 0.943 0.086 0.323 57 46 42
-1814.3107 6706.7666 639.3416 0.624 0.200 -0.756 60 53 47
-1807.7306 6747.4819 631.7921 0.030 -0.877 0.480 59 53 47
-1771.0699 6744.6895 609.2183 0.409 -0.498 0.765 87 73 69
-1786.8539 6835.1318 611.3641 0.487 -0.434 0.758 98 79 74
-1522.1821 6251.1807 496.2370 0.865 0.044 -0.499 199 151 142
-1511.2715 885.5417 940.5814 0.798 0.060 -0.599 195 192 183
-4187.2842 2878.4263 2427.9797 0.722 -0.262 -0.641 210 205 199
-4224.6675 2961.4250 2443.9910 0.609 0.002 -0.793 217 213 204
-4239.5415 2983.0984 2451.3423 0.604 -0.006 -0.797 207 203 194
-4366.9829 4167.3789 2428.0242 0.739 -0.643 0.200 201 191 189
-4302.1626 4124.1992 2391.5552 0.791 -0.603 0.105 201 191 189
-3129.1450 3103.3787 1752.2877 0.985 0.127 -0.117 223 214 209
-4371.5923 4845.1528 2372.3035 0.199 -0.864 -0.463 233 228 222
-4360.6787 4851.5996 2364.9780 0.199 -0.864 -0.463 218 213 207
-4354.4092 4862.9731 2360.1064 0.558 -0.489 -0.670 149 144 138
-4399.7798 4948.0181 2380.8948 0.736 0.492 -0.465 240 223 212
-3097.9622 4076.8076 1648.8157 0.044 -0.913 -0.406 95 66 52
-3571.8303 6049.3760 1772.2175 0.984 -0.174 -0.043 107 72 42
-3431.6245 5976.4785 1691.5635 0.791 -0.517 0.328 101 71 47
-3263.6150 6074.1113 1578.9270 0.185 -0.818 -0.545 85 60 39
-2860.9402 5626.1636 1367.9071 0.997 0.068 -0.022 33 24 15
-2879.3965 5682.6704 1374.4696 0.956 -0.121 0.267 45 36 27
-2973.8665 5906.4746 1413.7161 0.342 -0.411 -0.845 54 45 36
-2975.1143 5931.6523 1412.3137 0.394 -0.364 -0.844 54 45 36
-3113.8914 6517.8267 1447.7197 0.286 0.196 -0.938 21 12 3
-2554.5381 5454.1499 1192.7458 0.341 0.311 -0.887 22 15 5
-2199.8950 6362.4980 894.2914 0.162 -0.680 0.715 27 20 14
-2150.7183 6252.9531 873.2602 0.104 -0.675 0.730 32 23 18
-1977.9933 5923.0654 794.6495 0.850 0.259 -0.459 59 44 34
-2008.6375 6036.7598 803.8282 0.841 0.265 -0.471 79 50 34
-2076.9780 6287.4370 824.5467 0.813 0.265 -0.518 84 49 27
-1977.8718 6079.2964 781.0712 0.686 -0.457 0.566 105 70 49
-1862.1774 5866.7803 727.6861 0.323 0.130 -0.937 68 54 52
-1899.8910 6168.9033 724.9636 0.991 0.123 -0.058 58 50 48
-1904.7545 6239.6719 721.8634 0.969 0.240 0.051 57 49 47
-1936.0701 6366.2886 730.3416 0.973 0.206 0.104 57 49 47
-1993.7438 6637.0991 742.7045 0.964 0.247 -0.103 57 47 45
-1593.6458 5559.3320 587.7174 0.967 -0.081 0.240 57 46 42
-1700.7280 6108.7598 606.6424 0.968 0.151 0.201 55 44 38
-1716.9977 6193.3516 609.4214 0.961 0.109 0.256 56 47 42
-1754.7036 6443.1968 611.2125 0.680 0.211 -0.702 59 51 46
-1794.3949 6676.8462 615.6346 0.026 -0.871 0.491 61 53 47
-1818.2507 6794.1162 620.2943 0.250 -0.659 0.710 53 51 42
-1742.3196 6585.1387 591.2642 0.209 -0.714 0.669 61 53 44
-1516.6803 6145.7622 489.2994 0.913 -0.056 -0.405 198 155 144
-1598.1927 6557.0771 504.3031 0.964 0.223 -0.147 212 156 149
-1662.1504 6841.6548 519.3734 0.963 0.223 -0.154 212 156 149
-1248.7618 671.7749 792.9126 0.422 -0.423 -0.802 97 80 62
-3296.7874 2163.1167 1927.7169 0.973 0.031 0.230 198 193 190
-4466.9556 4171.1406 2474.3899 0.886 -0.347 -0.307 220 215 212
-3098.0796 3069.5652 1725.1201 0.814 0.061 -0.578 224 214 206
-4404.9204 4853.6733 2375.9834 0.333 -0.161 -0.929 230 225 219
-4396.1797 4862.5103 2369.8025 0.092 -0.980 -0.176 230 225 219
-4381.9194 4865.4839 2360.7256 0.092 -0.980 -0.176 221 218 212
-4367.8447 4868.6011 2351.7507 0.583 -0.743 -0.330 142 137 131
-3163.4043 4120.2031 1673.0532 -0.177 -0.773 -0.609 107 77 63
-3164.4231 4136.5479 1672.2448 -0.161 -0.757 -0.633 102 72 59
-3155.4753 4140.5830 1666.3584 -0.093 -0.777 -0.622 95 65 52
-3944.4192 5636.3394 2022.4452 -0.043 -0.992 -0.116 96 74 57
-3761.5439 5975.4819 1879.5547 0.783 -0.094 -0.615 123 88 57
-3540.8247 6099.6724 1732.1843 0.657 -0.721 0.220 98 68 42
-3460.6604 6057.4980 1686.3401 0.451 -0.325 -0.831 95 65 41
-3269.4087 6070.8179 1566.9415 0.201 -0.799 -0.566 90 65 45
-2935.8640 5820.5674 1382.7739 0.807 -0.478 0.346 54 45 36
-3089.4607 6207.4766 1443.6776 0.050 -0.997 0.060 65 54 41
-3093.5176 6263.5586 1441.2507 -0.070 -0.992 0.102 55 42 31
-3143.1243 6409.5996 1459.0656 0.765 -0.635 -0.109 37 26 10
-3070.0615 6290.6001 1424.3713 0.802 -0.597 0.032 37 25 12
-2824.2075 6036.5752 1294.7437 0.392 0.293 -0.872 18 14 6
-2190.4473 6318.0034 878.2071 0.087 -0.799 0.594 26 19 13
-2150.1304 6233.2080 860.7457 0.107 -0.674 0.731 32 23 17
-1960.4783 5830.5337 778.9407 0.246 -0.674 0.696 53 45 38
-1967.6636 5876.2012 779.3640 0.951 0.212 -0.223 60 43 33
-1979.5891 5935.7783 781.4937 0.962 0.216 -0.169 81 50 32
-2068.0598 6242.9854 809.1517 0.951 0.269 -0.156 87 49 23
-1981.7693 6072.4956 770.8112 0.701 -0.427 0.571 116 77 53
-1937.9414 5970.1826 752.7209 0.416 -0.617 -0.668 115 79 54
-1859.4490 5764.4600 722.3012 0.280 0.093 -0.956 110 81 61
-1858.8129 5787.8560 719.8493 0.600 0.225 -0.767 102 82 73
-1868.2250 5841.3506 720.9604 0.364 0.144 -0.920 84 69 67
-1910.9712 6021.5610 731.5276 0.362 -0.077 -0.929 61 48 43
-1904.9899 6030.1260 727.0766 -0.038 -0.615 -0.787 62 48 44
-1998.2980 6660.6265 729.2773 0.946 0.277 -0.166 58 47 43
-1679.5916 5772.0503 610.4504 0.370 -0.928 0.041 57 46 42
-1815.0641 6243.5293 652.7089 0.629 -0.742 0.234 57 46 42
-1651.7847 5893.9966 582.5307 0.973 0.209 0.096 54 44 39
-1693.9282 6150.8535 585.9810 0.633 0.139 -0.761 57 47 45
-1719.1416 6267.5112 591.3021 0.632 0.191 -0.751 57 47 43
-1761.3273 6444.5669 601.8004 0.633 0.192 -0.750 59 51 45
-1797.1810 6632.3491 607.4407 0.744 -0.585 0.323 61 51 47
-1727.9586 6418.3130 583.4830 0.979 0.109 -0.172 60 51 46
-1752.8855 6600.4365 582.8665 0.222 -0.714 0.664 54 41 31
-1786.1616 6785.0298 587.1940 0.297 -0.693 0.657 113 90 83
-1491.7240 5998.1416 474.4216 0.914 0.049 0.402 201 160 147
-1557.5763 6406.4424 479.2019 0.956 0.219 -0.193 216 160 153
-1887.4701 1174.0790 1138.1399 0.958 -0.047 -0.282 176 171 165
-4200.7646 2843.4861 2413.9858 0.609 0.133 -0.782 199 194 188
-4257.2275 2985.4958 2436.0581 0.344 -0.150 -0.927 206 201 195
-4254.6484 2995.8132 2433.5449 0.335 -0.145 -0.931 199 194 188
-4223.3755 3904.1748 2332.9282 0.900 -0.414 0.139 211 207 204
-4460.5322 4190.0459 2453.4524 0.944 0.326 0.052 205 203 198
-4417.7866 4183.3965 2427.7102 0.774 -0.597 0.210 178 167 165
-4423.7920 4864.8853 2370.3801 0.455 -0.204 -0.867 229 224 218
-4394.4092 4851.9995 2353.4297 0.052 -0.982 -0.179 219 214 208
-4379.6968 4854.4697 2344.1431 0.052 -0.982 -0.179 250 245 239
-4371.3906 4863.6924 2338.1995 0.572 -0.742 -0.350 139 132 126
-3669.9478 4700.8198 1920.5876 0.838 0.234 -0.493 116 82 70
-3821.4868 4921.8589 1994.1643 0.926 -0.346 -0.153 98 64 52
-3297.4084 4388.2896 1719.0341 -0.121 -0.219 -0.968 113 80 66
-3217.2427 4414.3535 1667.3054 -0.424 -0.754 -0.502 119 85 66
-3219.7441 4450.0830 1665.6470 -0.132 -0.713 -0.689 121 87 68
-3874.9739 5717.4561 1955.8713 0.999 0.052 -0.002 98 65 44
-3849.9026 5896.7520 1924.3667 -0.435 -0.794 -0.424 116 82 58
-3772.4998 5979.7769 1869.2394 0.707 -0.311 -0.635 119 87 59
-3554.1433 6062.7534 1727.2668 0.645 -0.705 0.293 92 62 36
-3544.3445 6092.3237 1718.5811 0.657 -0.721 0.220 94 68 43
-3422.5657 5913.2275 1659.5853 0.777 -0.501 0.381 94 68 43
-3413.1577 5919.8408 1653.1963 0.771 -0.512 0.379 94 67 43
-3457.8469 6016.8926 1672.0404 0.524 -0.294 -0.799 91 64 40
-3464.3486 6096.3242 1668.9330 0.443 -0.301 -0.844 81 55 30
-3460.4897 6112.8257 1665.0776 0.443 -0.301 -0.844 93 67 42
-3462.0359 6138.5938 1663.7225 0.428 -0.314 -0.847 93 67 42
-3285.7463 6086.3042 1559.7836 0.241 -0.775 -0.584 94 71 52
-2931.3457 5798.5493 1367.1875 0.808 -0.541 0.233 50 41 34
-3070.8135 6180.8628 1418.8834 0.371 -0.295 -0.880 58 49 38
-3135.6033 6379.7671 1440.9912 0.747 -0.655 -0.108 38 29 17
-1902.0461 5624.0088 748.6099 0.200 -0.661 0.723 47 40 32
-1940.8176 5757.8696 760.5114 0.389 -0.530 0.753 53 46 37
-1923.6525 5783.5635 747.6339 0.869 0.113 0.482 97 51 24
-1986.7726 5990.3926 768.0033 0.878 0.162 0.450 101 59 32
-1880.1676 5808.1890 718.6352 0.279 0.087 -0.956 126 94 73
-1891.9154 5868.3750 720.4837 0.306 0.116 -0.945 101 79 65
-1895.4673 5904.6787 719.4211 0.351 0.143 -0.925 73 57 49
-1916.4604 6019.7197 722.0537 0.122 -0.207 -0.971 68 53 43
-1879.8976 6290.9219 675.2380 -0.073 -0.754 -0.652 60 51 48
-1858.3677 6250.2993 665.6101 0.373 -0.721 -0.584 61 53 50
-1852.0779 6258.4224 661.0071 0.383 -0.720 -0.579 59 50 47
-1685.4497 5772.6221 601.8439 0.420 -0.904 0.082 57 48 45
-1640.1561 5676.4912 582.5450 0.586 -0.714 0.382 48 39 37
-1644.6689 5717.4121 581.6609 0.996 0.074 0.044 39 33 30
-1660.2687 5958.3315 569.6973 0.957 0.172 0.235 30 24 20
-1765.3259 6622.3462 574.9635 0.290 -0.818 -0.497 78 45 30
-1778.0027 6699.7622 575.8414 0.581 -0.671 -0.460 123 88 74
-1517.6127 906.1067 930.0145 0.762 -0.025 -0.648 189 185 176
-4259.7642 2994.5669 2423.7983 0.415 -0.326 -0.850 199 194 188
-3109.7341 3070.0776 1710.6366 0.720 0.102 -0.686 242 219 208
-4401.9106 4851.2847 2341.9246 0.040 -0.982 -0.187 225 220 214
-4389.1865 4855.8716 2333.6924 0.052 -0.982 -0.179 245 240 234
-4372.9180 4856.6567 2323.6296 0.232 -0.384 -0.894 155 148 142
-3827.3188 4919.7739 1982.8035 0.923 -0.352 -0.154 112 78 66
-3894.6050 5628.6631 1959.5375 0.064 -0.991 0.115 74 45 27
-3566.5454 5803.5098 1742.1315 -0.396 -0.631 -0.667 115 81 54
-3614.4202 5989.1582 1754.6184 -0.257 -0.753 -0.606 97 65 40
-3487.9045 6076.8423 1668.9305 0.428 -0.435 -0.792 85 59 34
-3481.3906 6088.8193 1663.8389 0.430 -0.476 -0.767 79 53 28
-3469.4358 6091.6274 1656.2410 0.822 -0.485 0.299 82 56 31
-3465.3406 6107.6987 1652.2616 0.559 -0.773 0.300 93 67 42
-3295.8887 6090.7119 1549.7419 0.241 -0.775 -0.584 89 67 47
-2712.0208 5130.7749 1278.6272 -0.204 -0.210 -0.956 39 31 22
-2997.8787 5911.0195 1383.0939 0.500 0.360 -0.788 50 41 34
-3048.2285 6029.3525 1403.2340 0.460 0.375 -0.805 50 41 34
-2826.9160 5989.6841 1270.9312 0.356 0.306 -0.883 30 27 22
-2593.9465 6014.4087 1125.6021 0.978 -0.063 0.199 23 19 16
-2612.2859 6103.6250 1128.7363 0.909 0.326 -0.259 25 21 18
-2671.0488 6260.2495 1150.5544 0.898 0.333 -0.288 29 25 22
-2680.2544 6306.1421 1152.0265 0.880 0.205 -0.428 29 25 22
-2366.6748 5827.0127 1003.0991 0.635 0.005 -0.773 20 19 17
-2373.5596 5866.9019 1003.6931 0.621 0.005 -0.784 20 19 17
-2404.3401 6012.4116 1009.3388 0.879 0.338 -0.337 21 17 16
-2005.9830 5824.3730 781.8238 -0.370 -0.857 -0.359 25 19 13
-1889.7686 5573.2041 733.3365 0.157 -0.706 0.691 42 35 27
-2150.1096 6497.8169 808.9783 0.904 0.215 0.371 115 74 48
-1950.4094 5970.9785 734.3360 0.324 -0.847 -0.421 125 85 61
-1933.9219 6080.3535 714.2448 0.213 -0.091 -0.973 63 46 36
-1704.3546 5438.4834 631.7408 0.248 0.101 -0.964 62 45 37
-1736.3049 5559.7661 640.3123 0.318 0.091 -0.944 61 46 39
-1755.0239 5666.6597 642.0690 0.293 0.080 -0.953 58 47 43
-1916.8619 6360.0737 678.2812 0.347 -0.636 -0.690 57 49 46
-1880.2555 6272.1362 663.8121 -0.066 -0.808 -0.586 54 46 43
-1865.6838 6253.8765 656.5267 0.373 -0.721 -0.584 51 43 40
-1858.2358 6258.2935 651.5501 0.392 -0.595 -0.701 47 39 36
-1846.4705 6248.7173 645.1970 0.852 -0.179 -0.492 46 38 35
-1683.2612 5747.0474 590.6722 0.375 -0.927 0.012 46 38 35
-1789.1764 6118.8760 621.8406 0.996 0.093 0.019 46 38 35
-1643.4836 5721.1338 568.6041 0.989 -0.087 -0.120 35 30 27
-1572.5334 5587.9263 537.1676 0.972 0.227 0.064 27 22 19
-1610.2979 5741.7847 546.3418 0.958 0.188 0.219 27 22 19
-1626.9111 5825.0117 548.9617 0.957 0.184 0.225 25 20 16
-1734.3403 6397.2397 562.8008 0.924 0.092 -0.370 16 7 2
-1746.3739 6470.1592 563.5472 0.919 0.084 -0.385 39 15 3
-1523.2958 6134.9482 457.0877 0.846 -0.428 0.317 215 172 155
-3752.7048 2606.0674 2136.4238 0.671 -0.031 -0.740 198 193 187
-4275.1318 2988.0100 2420.8235 0.942 -0.210 -0.262 206 201 195
-4266.6006 2994.4463 2415.0046 0.940 -0.215 -0.266 199 194 188
-4246.2295 3017.1345 2400.4326 0.933 -0.147 -0.327 210 205 201
-4455.7935 4187.5947 2420.2473 0.958 0.270 -0.092 150 144 140
-2281.9070 2280.9382 1266.2313 -0.177 -0.849 0.498 224 194 196
-4411.5977 4852.8662 2331.5430 0.040 -0.982 -0.187 234 229 223
-4398.6865 4857.2754 2323.2310 0.052 -0.982 -0.179 237 232 226
-4381.6992 4857.3252 2312.8281 0.374 -0.255 -0.892 180 173 167
-3685.9187 4668.3218 1904.4336 0.822 0.259 -0.508 114 80 68
-3705.7461 4744.1753 1909.5413 0.835 0.252 -0.490 114 80 68
-3816.6172 4897.4390 1963.2061 0.903 -0.288 -0.318 132 98 86
-3983.5190 5719.4121 1989.2001 -0.220 -0.737 -0.638 81 52 34
-3933.6812 5671.6035 1963.1232 0.039 -0.874 -0.484 80 51 33
-3900.3516 5751.6528 1935.3030 -0.300 -0.788 -0.538 99 64 44
-3883.7505 5749.3755 1925.3519 -0.303 -0.801 -0.517 99 64 44
-3897.7590 5812.1743 1928.1074 0.996 0.038 -0.082 108 73 53
-3711.8711 5863.0410 1809.6057 0.865 -0.094 -0.494 130 99 71
-3775.0828 5981.1855 1837.3511 0.920 0.089 -0.381 130 99 71
-3526.7275 5772.1562 1704.6957 -0.213 -0.673 -0.708 112 78 51
-3525.2102 5812.9805 1699.9838 -0.408 -0.690 -0.597 102 68 41
-3511.7822 6080.6748 1666.9569 0.225 -0.346 -0.911 91 65 40
-3481.4304 6075.6694 1648.8414 0.433 -0.486 -0.759 79 53 28
-3248.5608 5970.6011 1516.0312 0.505 -0.253 -0.826 88 63 46
-3027.4438 5885.2515 1388.5878 0.597 0.391 -0.700 34 25 18
-3202.5244 6816.2227 1409.4874 0.549 -0.335 0.766 18 17 13
-3191.6938 6820.6577 1402.4467 0.570 -0.337 0.749 13 12 8
-2628.9976 6125.5205 1122.4205 0.875 0.196 -0.443 18 14 11
-2687.7283 6281.7803 1143.8910 0.899 0.198 -0.390 22 18 15
-2622.0442 6233.3252 1108.1740 0.947 -0.209 0.243 28 24 21
-2528.9675 6069.4863 1066.3816 0.632 -0.364 0.684 28 24 21
-2437.0173 6001.2466 1016.4198 0.725 0.317 -0.611 20 19 17
-2017.3038 5814.1372 776.8391 -0.390 -0.808 -0.442 27 20 12
-1978.1427 5779.7393 756.0550 -0.395 -0.757 -0.520 32 23 14
-2091.1616 6281.0244 778.7836 0.900 0.207 0.384 101 65 41
-1959.5195 5979.7461 726.1206 0.298 -0.835 -0.462 116 80 58
-1938.7722 5945.0732 716.6337 0.573 -0.571 -0.588 113 83 66
-1986.2582 6164.2783 725.3877 0.652 0.245 -0.717 55 38 28
-2081.6265 6504.1128 752.2733 0.664 0.242 -0.708 57 39 29
-1757.0635 5655.5039 632.2382 0.138 0.019 -0.990 58 47 43
-1956.7095 6437.0776 682.0198 0.645 -0.385 0.660 61 51 49
-1932.1394 6388.3672 671.4936 0.580 -0.410 0.704 57 49 46
-1897.6306 6307.5435 657.8596 0.364 -0.598 0.714 47 39 36
-1861.5349 6220.8223 643.8006 0.179 -0.639 -0.748 38 30 27
-1867.9821 6269.6689 643.2206 0.790 -0.286 -0.542 33 25 22
-1852.5518 6248.3979 635.7464 0.823 -0.235 -0.518 33 25 22
-1702.2863 5790.3164 586.2144 0.331 -0.942 0.059 33 25 22
-1630.4406 5608.3281 559.1000 0.410 -0.875 0.258 31 23 21
-1732.8246 6310.6909 556.6849 0.818 0.121 -0.562 18 11 5
-1738.2527 6359.3452 555.4988 0.834 0.077 -0.547 17 9 7
-1752.3131 6438.6997 556.7519 0.846 0.109 -0.522 19 9 3
-1764.1837 6511.0234 557.3161 0.838 0.119 -0.532 59 34 22
-1830.2247 6873.4126 564.1594 0.938 0.188 -0.291 203 166 148
-1109.0031 4597.4048 333.5935 0.965 -0.218 0.147 219 180 164
-1503.3009 904.1916 913.0160 0.718 0.027 -0.695 198 194 185
-4233.6890 2851.1509 2395.4446 0.839 -0.067 -0.540 199 194 188
-4886.5415 3285.9636 2752.7964 0.860 0.137 -0.492 204 199 193
-3760.2148 2606.9282 2129.5776 0.671 -0.031 -0.740 198 193 187
-4276.4907 2984.3230 2409.0112 0.948 -0.313 0.052 206 201 195
-4273.1021 2994.1052 2406.0217 0.948 -0.313 0.052 199 194 188
-3084.7417 2747.5283 1704.2069 0.037 -0.835 -0.548 221 211 209
-3867.7969 3456.3486 2115.1809 -0.135 -0.828 -0.544 222 212 210
-3883.2998 3482.4866 2122.1768 -0.040 -0.797 -0.602 221 211 209
