ply
format ascii 1.0
element vertex 787
property float x
property float y
property float z
property float nx
property float ny
property float nz
property uchar diffuse_red
property uchar diffuse_green
property uchar diffuse_blue
end_header
-2247.1243 2818.9329 463.9732 0.455 -0.666 -0.591 139 71 32
-2260.7197 2847.3582 460.9943 0.578 -0.621 -0.530 142 74 37
-2269.9575 2864.3999 460.0304 0.611 -0.692 -0.384 143 76 39
-2280.4148 2882.8916 459.3125 0.677 -0.489 -0.550 155 88 50
-2278.2593 2894.1350 452.4361 0.895 -0.359 -0.266 168 98 61
-2277.0757 2899.6682 448.9591 0.895 -0.359 -0.266 172 102 62
-2260.1848 2887.4172 441.8985 0.868 -0.412 -0.277 180 105 62
-2275.1472 2939.2432 429.0351 0.802 -0.433 0.410 195 111 66
-2445.6050 3157.9492 455.9283 0.607 -0.657 -0.447 203 121 71
-2417.1172 3140.1682 442.6757 0.487 -0.690 -0.535 201 120 68
-2671.5576 3462.0027 484.9768 0.677 -0.047 0.735 228 144 96
-2731.2722 3549.6841 489.2355 -0.487 -0.728 0.482 221 143 100
-2417.9465 3325.5981 356.7840 0.019 -0.931 -0.364 66 31 13
-2249.9980 3368.1755 209.8777 0.912 -0.142 0.385 35 37 49
-2260.0547 3408.9304 198.4691 0.974 -0.213 -0.078 54 56 69
-1920.6572 4615.5439 -621.2487 -0.239 -0.666 0.706 255 207 210
-1802.7516 4417.5410 -618.0499 -0.256 -0.931 0.261 235 185 184
-1805.7458 4441.2256 -626.8359 0.816 -0.560 -0.142 220 162 156
-1819.8113 4542.5991 -663.4960 0.929 -0.362 0.071 215 155 147
-1684.6445 4449.6841 -722.3864 0.492 -0.659 0.568 74 56 54
-1674.8330 4648.6953 -822.6640 0.201 -0.619 -0.759 244 215 220
-883.8659 4120.7939 -1174.6586 -0.290 -0.943 -0.164 234 89 98
-407.9052 3872.1514 -1418.6732 0.053 -0.716 -0.697 230 48 73
-402.8900 3872.6794 -1422.7134 0.056 -0.713 -0.699 232 37 67
-397.8521 3872.9641 -1426.6570 0.055 -0.717 -0.695 233 27 61
-2966.8779 2828.4143 994.9088 0.812 0.143 0.566 169 120 75
-2921.6042 2796.0874 975.8705 0.795 0.159 0.585 152 104 63
-2928.2231 2807.5229 975.5066 0.793 0.162 0.587 126 78 44
-2997.6699 2933.4556 968.8974 0.999 0.041 -0.021 168 125 88
-3008.4756 2961.6536 963.8333 -0.340 -0.877 -0.341 146 102 84
-2858.6335 2872.9036 892.2653 0.338 -0.669 -0.662 63 55 48
-2752.3569 2856.7124 819.5730 0.420 -0.535 -0.733 188 113 63
-2745.9421 2856.9817 814.6006 0.477 -0.525 -0.705 195 120 66
-2270.8101 2674.2588 541.3716 -0.025 -0.860 0.511 186 119 64
-2195.9954 2602.7441 518.3987 -0.285 -0.921 0.266 186 119 64
-2185.4556 2603.4900 510.0867 -0.287 -0.919 0.269 189 122 69
-2173.6082 2596.9824 504.1889 0.287 -0.905 0.315 190 123 70
-2154.6824 2583.0205 496.4409 0.253 -0.915 0.313 189 122 69
-2149.2148 2583.1082 492.2690 0.253 -0.915 0.313 190 123 70
-2247.2224 2704.3958 509.4152 0.140 -0.334 0.932 190 123 70
-2132.7798 2642.8948 451.8081 -0.016 -0.983 0.184 138 68 33
-2130.1299 2646.0967 448.3043 0.325 -0.939 0.109 138 69 36
-2243.9814 2795.9829 464.0044 0.429 -0.675 -0.600 138 67 35
-2303.1382 2894.9036 462.2927 0.461 -0.768 -0.445 146 70 36
-2291.3367 2888.5442 456.3602 0.628 -0.698 -0.345 159 86 47
-2287.6387 2891.2297 452.3068 0.623 -0.704 -0.341 170 95 57
-2280.0947 2889.5952 447.3743 0.641 -0.689 -0.340 177 101 64
-2255.4536 2868.6648 438.5773 0.877 -0.321 -0.358 184 107 67
-2254.6650 2874.5796 435.2070 0.877 -0.321 -0.358 194 112 67
-2735.7183 3537.7158 487.5537 -0.474 -0.738 0.481 228 144 105
-2481.4243 3287.3552 412.8863 -0.619 -0.654 0.434 88 39 15
-1924.8717 4609.9360 -627.9701 -0.239 -0.666 0.706 255 207 210
-1909.7007 4593.3169 -631.6353 -0.245 -0.668 0.702 250 201 204
-1897.9117 4584.1543 -636.2433 -0.245 -0.668 0.702 246 197 200
-1810.0880 4436.5449 -633.3488 0.816 -0.560 -0.142 224 166 160
-1811.4939 4508.2476 -665.9214 -0.131 -0.712 0.690 219 159 151
-1679.5654 4439.7764 -733.4688 0.490 -0.664 0.565 77 57 56
-1686.1616 4661.4424 -832.4662 0.196 -0.620 -0.760 225 199 204
-971.2798 4422.0029 -1260.2109 0.618 -0.315 0.720 226 134 125
-1046.0022 5087.2939 -1515.8403 0.406 -0.476 -0.780 240 31 63
-528.7957 4048.7849 -1419.4172 -0.123 -0.992 -0.006 251 74 110
-532.4901 4115.0474 -1447.7091 0.534 -0.762 0.367 254 83 117
-421.5042 3867.9504 -1415.6443 0.205 -0.520 -0.829 226 71 87
-409.3368 3895.4453 -1437.7338 0.034 -0.740 -0.672 228 34 63
-2943.0908 2779.2542 991.0573 0.909 0.022 0.415 177 113 70
-2954.0010 2794.1238 992.2766 0.880 0.040 0.473 176 115 71
-2965.2737 2815.2046 990.8402 0.841 0.053 0.539 155 104 57
-2911.5430 2781.6912 966.1055 0.795 0.159 0.585 117 70 30
-2910.0427 2786.2205 962.8375 0.795 0.159 0.585 103 54 22
-2926.0867 2811.4756 963.0324 0.959 0.076 0.274 71 22 1
-2997.3984 2926.9355 962.3869 0.998 -0.006 -0.063 152 114 76
-2839.2810 2819.4639 893.7714 1.000 0.013 0.015 72 51 35
-2934.3374 2921.4548 917.3927 0.370 -0.887 0.276 61 56 39
-2929.8896 2923.7556 912.9517 0.359 -0.893 0.273 59 54 42
-2915.5820 2923.5464 902.2555 0.641 -0.563 0.522 56 48 44
-2760.6777 2858.1697 816.2128 0.734 -0.428 -0.527 189 113 63
-2796.9817 2897.7004 824.9615 0.691 -0.362 -0.626 195 120 66
-2406.4260 2727.5100 610.5513 0.325 -0.397 0.858 172 100 46
-2197.6003 2575.5581 524.6531 0.551 -0.324 0.769 186 119 64
-2184.1333 2578.9883 512.8748 0.626 -0.467 0.624 186 119 64
-2244.5938 2647.2766 526.2877 -0.121 -0.751 0.649 186 119 64
-2183.5291 2601.6096 501.7511 -0.059 -0.973 0.222 192 125 72
-2178.6848 2602.4153 497.7162 0.054 -0.997 0.060 192 125 72
-2246.4961 2679.3108 512.6160 0.299 -0.614 0.731 188 121 68
-2234.6384 2679.0144 503.8092 0.512 -0.500 0.699 179 112 59
-2164.9773 2641.4460 468.9675 0.620 -0.710 -0.334 150 81 43
-2162.6995 2645.0459 465.5513 0.620 -0.710 -0.334 138 68 31
-2160.4177 2648.6519 462.1292 0.620 -0.710 -0.334 137 67 32
-2158.6814 2652.8562 458.8364 0.110 -0.994 0.005 138 68 33
-2137.6235 2642.2522 447.9492 -0.016 -0.983 0.184 137 67 38
-2127.0415 2636.8376 442.5186 -0.003 -0.980 0.198 137 68 40
-2264.5684 2799.2122 469.7071 0.378 -0.758 0.531 137 68 39
-2258.4893 2799.0764 465.1847 0.378 -0.758 0.531 138 68 40
-2310.3928 2896.3882 458.4542 0.535 -0.749 -0.390 150 70 36
-2300.5203 2892.2136 452.9742 0.628 -0.681 -0.377 163 84 48
-2295.2000 2893.0994 448.5422 0.655 -0.666 -0.357 174 94 56
-2261.4255 2868.8398 434.5003 0.766 -0.557 -0.321 188 105 66
-2255.4495 2868.9021 429.9620 0.763 -0.547 -0.345 198 110 65
-2307.1921 2962.3694 424.9233 0.712 -0.457 0.534 206 112 60
-2453.1624 3159.6375 442.0267 0.344 -0.598 0.724 205 126 61
-2190.8965 3187.4724 231.0233 -0.015 -0.948 0.318 18 16 17
-2349.5525 3599.9324 156.2161 -0.619 -0.655 -0.433 65 60 67
-1869.1536 4454.3154 -609.1573 0.213 -0.881 0.423 255 207 210
-1888.4332 4530.8550 -630.7062 -0.252 -0.681 0.688 250 201 204
-1808.3118 4417.9751 -637.9241 0.821 -0.536 0.197 231 173 168
-1726.1963 4449.3657 -714.6829 0.421 -0.823 -0.381 101 69 66
-1708.8264 4425.1606 -716.3735 0.517 -0.608 -0.602 79 51 51
-1696.7401 4431.0850 -728.2863 0.454 -0.800 -0.392 75 54 53
-1677.7946 4420.2222 -737.4579 0.502 -0.773 -0.388 63 42 41
-1675.8531 4433.2212 -745.0527 0.420 -0.618 0.665 76 56 55
-1658.6809 4426.5088 -754.8434 -0.093 -0.987 -0.131 106 86 85
-1681.2432 4500.7363 -772.8254 0.143 -0.692 -0.707 150 130 129
-1690.5988 4695.4678 -857.5997 -0.329 -0.940 0.085 233 202 208
-1733.7122 4848.1372 -897.0683 -0.491 -0.862 -0.128 246 205 213
-1169.1002 5048.6733 -1417.6327 0.042 -0.746 0.665 227 152 147
-584.3781 3048.2476 -915.4213 0.999 0.008 -0.049 255 117 138
-531.7297 4039.4990 -1422.6069 -0.094 -0.996 0.009 252 74 110
-527.8926 4090.5544 -1449.5792 0.531 -0.779 0.334 250 95 126
-499.4922 4125.3423 -1487.4126 0.335 -0.373 -0.865 243 125 147
-417.2662 3885.5842 -1436.3839 0.216 -0.740 -0.637 223 43 68
-2949.3159 2784.3174 984.3977 0.880 0.040 0.473 170 109 65
-2962.1045 2800.7683 986.2348 0.543 -0.258 0.799 166 110 64
-2946.7212 2793.7251 977.9822 0.858 0.002 0.514 143 92 47
-2897.7197 2769.9404 952.3348 0.803 0.166 0.572 80 31 2
-2997.0471 2908.0461 961.7051 0.956 -0.118 0.269 158 118 81
-2995.4849 2912.8467 958.2520 0.956 -0.118 0.269 138 105 65
-2994.7449 2918.3718 955.0748 0.955 -0.126 0.268 117 86 49
-2937.9514 2918.3616 912.2847 0.370 -0.887 0.276 59 57 45
-2813.7202 2906.7690 824.1699 0.763 -0.259 -0.592 195 120 65
-2397.1692 2712.3301 602.4721 0.367 -0.344 0.864 171 100 47
-2165.8274 2548.8203 505.6701 0.767 -0.634 -0.097 186 119 66
-2183.5979 2572.7905 507.6963 0.626 -0.467 0.624 186 119 66
-2188.4949 2601.0503 497.9886 -0.059 -0.973 0.222 175 109 57
-2183.5955 2601.8057 493.9386 0.058 -0.997 0.050 175 108 57
-2245.0576 2671.8831 507.0284 0.300 -0.612 0.732 167 100 49
-2233.8586 2672.2627 498.4098 0.512 -0.500 0.699 150 83 32
-2153.2529 2647.1736 449.5663 0.221 -0.952 0.211 137 67 37
-2135.6362 2640.2727 439.5634 0.130 -0.960 0.248 136 67 42
-2146.5396 2658.1985 439.2807 0.280 -0.957 -0.069 137 68 42
-2302.9614 2874.7842 454.4661 0.576 -0.792 -0.203 151 68 37
-2299.8274 2878.0737 450.5450 0.576 -0.792 -0.203 150 68 38
-2295.2007 2879.7104 446.2827 0.617 -0.765 -0.184 164 83 48
-2291.0374 2881.8635 442.1247 0.618 -0.760 -0.203 176 93 57
-2276.4385 2872.3447 435.6371 0.217 -0.975 0.046 184 99 65
-2272.9944 2875.2776 431.6513 0.273 -0.911 -0.308 190 104 64
-2281.7444 2898.7991 427.0933 0.978 -0.207 -0.031 208 111 54
-2296.1738 2942.9932 417.0140 0.564 -0.588 0.581 207 113 56
-2754.4712 3560.4915 469.5988 -0.487 -0.714 0.503 230 183 162
-2726.1331 3535.9673 459.8721 -0.474 -0.686 0.552 215 177 159
-2434.1277 3330.0967 337.4419 0.362 -0.888 -0.284 59 26 15
-2180.2385 3182.2798 216.2101 -0.004 -0.953 0.302 31 30 34
-2272.3059 3400.1570 182.2906 0.979 -0.185 -0.081 54 56 69
-1834.0221 4478.6670 -659.2800 0.876 -0.477 0.068 235 178 172
-1833.0690 4493.5762 -667.0665 0.874 -0.483 0.057 235 178 172
-1828.8085 4501.0112 -673.8019 0.871 -0.486 0.063 235 178 172
-1701.2307 4374.6909 -710.0466 0.797 -0.520 0.308 118 88 84
-1682.8766 4417.5117 -744.1781 0.507 -0.773 -0.381 66 44 43
-1665.5398 4428.2124 -762.3148 -0.085 -0.987 -0.139 72 50 49
-1708.3823 4744.6177 -880.0378 -0.584 -0.806 -0.095 245 205 213
-1160.2258 4900.1836 -1366.8380 0.027 -0.677 0.735 246 169 167
-1132.7810 4848.1143 -1362.8326 0.033 -0.650 0.759 235 158 153
-1149.4274 4944.4985 -1395.9844 0.277 -0.458 0.845 228 151 147
-1155.9652 5000.8994 -1417.7972 0.307 -0.901 -0.306 226 150 146
-519.6337 4039.2585 -1441.3788 -0.392 -0.884 -0.256 252 118 143
-498.0984 4081.6851 -1477.7202 0.213 -0.431 -0.877 247 131 152
-452.5093 3931.7502 -1440.9895 0.322 -0.365 0.874 235 113 134
-421.8790 3891.4307 -1444.9548 0.448 -0.742 -0.499 225 42 68
-2951.2283 2785.7898 976.1580 0.546 -0.258 0.797 147 94 55
-2940.2080 2782.3801 969.4896 0.534 -0.269 0.802 114 63 27
-2984.3225 2866.6863 962.5077 0.787 -0.601 -0.140 159 100 79
-3091.5481 3053.6978 954.0709 0.967 -0.229 0.112 61 45 31
-3187.0403 3144.6377 982.5917 0.987 -0.015 0.159 57 37 24
-2423.3713 2732.4058 604.3611 -0.268 -0.662 0.700 170 101 52
-2170.4839 2542.3550 504.6284 0.751 -0.615 -0.240 173 113 68
-2271.1877 2657.0291 525.7596 0.469 -0.607 0.642 171 111 67
-2193.8374 2600.8713 494.3143 -0.057 -0.973 0.224 146 86 44
-2188.5283 2601.2092 490.1579 0.071 -0.994 0.082 147 87 45
-2244.8047 2665.7148 501.7654 0.300 -0.612 0.732 139 80 38
-2240.0537 2666.7893 497.6778 0.525 -0.516 0.677 127 67 25
-2232.4634 2664.8870 492.8724 0.525 -0.515 0.678 127 68 26
-2183.3835 2637.2810 469.0943 0.329 -0.653 0.682 128 66 33
-2187.0945 2647.2266 467.1469 0.478 -0.776 -0.411 129 66 34
-2298.1646 2876.4507 441.4845 0.612 -0.766 -0.198 153 78 41
-2295.1426 2879.8721 437.5797 0.612 -0.766 -0.198 167 86 51
-2278.6150 2875.0122 427.4581 0.273 -0.911 -0.308 192 105 67
-2261.8894 2863.0559 420.5696 0.916 -0.327 -0.233 208 110 58
-2294.2593 2913.1597 421.0500 0.976 -0.217 -0.018 214 111 48
-2295.7195 2935.7141 411.3996 0.585 -0.577 0.569 206 116 64
-2439.5554 3114.2258 434.5648 0.822 -0.110 0.558 207 126 72
-2763.0325 3562.0750 464.5530 -0.498 -0.717 0.487 231 194 179
-2433.5110 3304.6614 339.2544 0.197 -0.935 -0.296 83 39 18
-2176.7515 3178.2092 206.2967 -0.029 -0.937 0.348 21 20 23
-1806.6445 4435.5938 -671.4981 0.079 -0.930 0.358 233 190 187
-1755.4971 4524.6997 -752.4571 0.922 -0.357 -0.151 117 87 86
-1692.8197 4426.6138 -752.8773 0.622 -0.695 -0.360 114 89 92
-1682.0356 4435.7412 -765.3428 0.025 -0.995 0.101 108 82 85
-1674.6324 4435.3774 -770.7409 0.025 -0.995 0.101 120 92 96
-1670.0708 4442.0210 -777.3401 0.152 -0.942 -0.298 133 105 109
-1664.2904 4445.6729 -783.4306 0.158 -0.941 -0.299 145 117 121
-1700.1115 4571.8174 -816.5938 0.884 -0.217 -0.414 206 174 179
-1704.9327 4602.7295 -827.6985 0.889 -0.207 -0.408 222 191 196
-965.4256 4358.7495 -1267.9348 0.379 -0.535 0.755 235 100 106
-692.6724 3546.7661 -1086.2042 -0.201 -0.685 -0.701 255 111 141
-526.7537 4060.2190 -1455.7786 0.313 -0.291 0.904 250 110 134
-513.6320 4084.3828 -1477.1698 0.891 0.047 0.452 254 149 164
-486.6045 4086.7095 -1498.6183 0.829 0.151 0.538 234 113 138
-458.0584 3944.0281 -1452.0986 0.377 -0.317 0.870 239 113 133
-2935.5942 2766.9175 964.4586 0.548 -0.267 0.793 111 58 25
-2927.1692 2765.6433 958.7369 0.580 -0.237 0.780 77 29 0
-2909.0195 2756.2407 949.6008 0.954 -0.027 0.298 77 29 1
-2907.9048 2761.0320 946.4675 0.954 -0.027 0.298 77 30 2
-2903.9202 2763.4316 942.3231 0.953 -0.020 0.303 82 35 8
-2928.3096 2789.6765 948.0795 0.864 -0.113 0.491 117 70 43
-2942.1152 2807.1230 950.0968 0.996 -0.053 0.068 127 80 54
-2995.5310 2876.1182 957.1870 0.954 0.093 0.287 137 86 68
-2961.8093 2853.4243 942.7150 0.985 -0.164 0.059 127 82 62
-2993.3025 2886.3337 950.6176 0.996 -0.005 -0.090 111 77 53
-2883.4705 2810.1333 904.5783 0.982 -0.174 0.074 74 65 36
-3084.6226 3002.3000 963.6915 0.983 -0.180 -0.040 59 55 62
-2985.8384 3005.2712 888.0236 0.754 -0.206 0.624 154 85 40
-2860.4631 2917.8574 835.6747 -0.120 -0.983 -0.142 189 110 56
-2870.1125 2932.9158 835.7124 -0.167 -0.985 0.052 196 117 62
-2268.5264 2648.4639 519.8549 0.476 -0.578 0.662 147 89 50
-2198.3423 2599.8137 490.4146 -0.050 -0.974 0.220 130 74 36
-2193.4084 2600.5479 486.3547 0.071 -0.994 0.082 129 74 36
-2180.9001 2628.8181 463.4091 0.399 -0.644 0.653 125 66 32
-2192.7529 2653.3821 460.5486 0.525 -0.584 -0.619 126 66 34
-2301.6543 2873.7751 436.8044 0.378 -0.815 -0.440 148 76 38
-2295.7913 2874.0393 432.2714 0.498 -0.793 -0.352 162 84 48
-2272.8816 2855.3232 424.0200 -0.263 -0.946 -0.191 177 96 61
-2288.1091 2892.7080 417.5531 0.981 -0.189 -0.048 215 112 47
-2442.8196 3110.7307 429.3739 0.803 -0.123 0.583 210 134 88
-2454.9036 3132.0593 428.2373 0.966 -0.095 0.242 226 154 110
-2774.3694 3566.8743 460.0178 -0.498 -0.717 0.487 228 195 182
-2561.2285 3359.0276 399.4064 -0.619 -0.673 0.405 64 37 25
-2422.4893 3683.6521 139.6018 -0.598 -0.777 -0.197 55 54 72
-2378.5959 3652.5256 121.5255 -0.602 -0.677 -0.424 68 68 74
-1868.2081 4492.4556 -664.4913 0.864 -0.182 0.470 239 197 199
-1830.1365 4423.8887 -660.2542 -0.000 -0.998 0.062 236 196 195
-1776.9205 4524.8208 -748.6081 -0.200 -0.878 0.435 182 151 148
-1744.0951 4535.7666 -778.5233 0.530 -0.769 -0.358 162 136 139
-1734.5375 4738.5669 -882.8701 0.914 -0.175 -0.367 249 214 220
-1017.4485 4527.6899 -1320.7880 0.412 -0.910 -0.049 248 121 125
-974.5364 4375.4648 -1280.1072 0.388 -0.498 0.775 233 93 101
-526.7487 4029.6899 -1450.9922 0.536 0.081 0.840 249 105 130
-517.3941 4040.5383 -1463.2205 0.886 -0.006 0.465 254 143 160
-514.9612 4062.6931 -1475.6636 0.891 0.050 0.452 255 152 166
-463.7964 3957.5405 -1463.7385 0.812 0.024 0.584 243 112 134
-456.9641 3944.7808 -1462.7601 0.468 -0.264 0.843 241 85 105
-448.6328 3919.3767 -1456.8503 -0.073 -0.619 0.782 240 65 85
-2943.5637 2796.5530 947.2308 0.752 -0.056 0.657 140 95 72
-2962.8406 2818.5823 951.0903 0.709 0.116 0.696 138 96 71
-2960.9543 2822.8831 947.6033 0.602 0.009 0.799 138 95 71
-2970.3430 2836.7139 947.9891 0.604 0.024 0.797 133 90 68
-2992.4688 2867.3882 949.8237 0.954 0.093 0.287 100 61 44
-2886.2859 2891.0896 858.7065 0.366 -0.021 0.930 134 72 41
-2978.6790 2992.3572 879.2851 0.814 -0.263 0.518 173 97 48
-2878.2131 2927.5771 835.0739 -0.181 -0.974 -0.133 192 114 61
-2914.6433 2973.3037 840.3959 -0.263 -0.821 0.507 194 117 63
-2396.2397 2699.6389 583.0795 0.463 -0.564 0.684 157 91 50
-2257.3975 2637.1831 508.9430 -0.013 -0.836 0.549 124 68 31
-2203.4465 2599.3665 486.6601 -0.059 -0.973 0.222 122 68 32
-2311.6021 2871.4778 436.7884 0.404 -0.790 -0.461 134 70 29
-2299.6868 2871.8162 427.6815 0.430 -0.792 -0.433 161 85 48
-2276.9741 2853.3733 419.5157 -0.461 -0.887 0.017 177 96 60
-2265.4595 2847.2864 413.8043 -0.461 -0.887 0.017 193 106 67
-2257.1960 2844.7859 408.8059 -0.355 -0.935 0.001 208 111 58
-2284.7617 2882.3567 411.4020 0.970 -0.229 -0.082 213 112 50
-2457.6997 3120.4480 426.5414 0.763 -0.226 0.605 215 143 104
-2460.2100 3130.8435 423.4189 0.972 -0.097 0.215 229 162 126
-2785.7925 3571.7302 455.4640 -0.517 -0.712 0.476 223 195 184
-2756.5764 3555.2559 441.4686 -0.610 -0.698 0.376 216 188 177
-2545.5017 3340.7617 386.3386 -0.599 -0.672 0.435 72 44 33
-1846.5109 4380.1128 -638.9052 -0.043 -0.825 0.563 254 214 215
-1837.3665 4376.2261 -643.8970 -0.043 -0.825 0.563 250 210 211
-1749.4580 4326.0029 -685.6934 -0.318 -0.922 0.221 240 200 198
-1831.8190 4585.2749 -748.7435 -0.371 -0.605 0.705 221 188 183
-1782.4227 4522.5952 -755.6330 -0.200 -0.878 0.435 221 187 185
-1765.9286 4518.9824 -766.2736 0.922 -0.354 -0.158 214 181 180
-1764.0647 4532.3984 -774.1341 0.964 -0.225 -0.139 211 182 184
-1764.5571 4551.5723 -782.9989 0.882 -0.258 -0.394 211 182 184
-1135.3123 4652.2598 -1303.8101 0.637 -0.530 0.560 249 169 168
-1038.5640 4305.1616 -1209.2603 0.438 -0.535 0.722 250 168 168
-1190.5713 5191.0903 -1521.8444 0.535 -0.508 0.675 248 130 132
-534.3520 4015.2234 -1448.0868 0.650 0.077 0.756 242 78 106
-504.6645 4035.4783 -1480.1257 0.892 0.064 0.448 235 138 153
-459.6115 3933.4968 -1464.8265 0.468 -0.264 0.843 244 84 106
-451.6006 3910.8499 -1459.9324 -0.049 -0.679 0.733 244 64 86
-278.1347 3389.4995 -1339.0442 0.461 -0.425 0.779 246 106 109
-2947.5769 2793.9812 942.4568 0.765 -0.047 0.642 141 101 81
-2963.1150 2812.8291 944.9800 0.720 0.124 0.683 130 91 69
-2984.7617 2854.7544 940.9095 0.954 0.090 0.285 83 58 42
-2999.2371 2873.0271 942.9145 0.974 -0.215 0.066 75 51 37
-3226.0645 3165.2454 971.4797 0.234 -0.120 0.965 94 47 21
-2965.9036 2980.8882 865.7070 0.356 -0.671 0.650 179 102 51
-2968.1699 2989.3499 863.3093 0.804 -0.310 0.508 184 109 57
-2884.6003 2926.9976 830.8493 0.709 -0.421 0.565 193 117 67
-2392.7224 2690.2656 576.7289 0.450 -0.571 0.687 151 86 45
-2259.0793 2633.1072 504.2173 0.107 -0.786 0.609 121 67 31
-2208.4485 2598.8032 482.8702 -0.059 -0.973 0.222 116 63 29
-2195.9905 2591.7915 476.9258 0.303 -0.952 -0.047 116 63 29
-2311.7073 2865.0764 431.3648 0.470 -0.788 -0.397 132 71 29
-2299.5659 2865.1548 422.2253 0.453 -0.773 -0.443 160 84 48
-2282.5635 2853.0762 415.3272 -0.281 -0.960 0.022 177 96 60
-2274.9163 2851.3101 410.4497 -0.209 -0.954 -0.214 193 106 67
-2250.9133 2831.3184 402.1349 -0.379 -0.913 -0.152 206 112 60
-2463.9563 3120.3167 421.9257 0.943 -0.120 0.312 215 149 111
-2459.6731 3122.9717 417.4295 0.972 -0.097 0.215 212 150 115
-2251.5896 3269.3838 190.5588 -0.583 -0.753 0.304 28 27 32
-2421.3196 3693.5032 112.4636 -0.595 -0.672 -0.440 52 56 61
-1874.4187 4460.3877 -668.7903 0.851 -0.183 0.491 243 203 204
-1869.4847 4466.1494 -675.2784 0.856 -0.177 0.486 238 198 199
-1862.7256 4467.8657 -681.1764 0.864 -0.174 0.473 247 207 206
-1767.9266 4304.6724 -673.2336 0.415 -0.867 -0.277 247 207 205
-1770.0072 4325.7168 -681.8624 0.367 -0.866 -0.340 249 209 207
-1766.9360 4335.1846 -688.7482 0.370 -0.845 -0.387 249 209 207
-1759.4457 4334.6064 -694.0832 -0.047 -0.978 -0.205 249 209 207
-1851.1022 4632.7720 -769.7266 -0.305 -0.655 0.691 226 192 190
-1725.3199 4390.0630 -746.5138 0.559 -0.809 0.183 235 201 199
-1724.5439 4405.4556 -754.5475 0.562 -0.824 0.072 236 203 202
-1718.7126 4408.9038 -760.5883 0.562 -0.824 0.072 231 202 204
-1774.4247 4651.7295 -836.3849 0.952 -0.067 -0.297 231 202 206
-1711.2524 4608.0547 -862.5969 0.881 -0.194 -0.430 249 214 220
-1348.1990 4593.4341 -1127.6772 -0.108 -0.950 0.293 255 209 212
-535.1036 3990.9854 -1445.5382 0.670 0.076 0.739 243 77 105
-456.5987 3918.7705 -1469.4268 -0.163 -0.803 0.574 244 64 86
-448.7994 3897.6221 -1465.0347 0.026 -0.843 -0.538 236 49 72
-301.4513 3284.4075 -1278.6135 0.693 -0.225 -0.685 208 13 35
-270.5344 3313.8728 -1316.0552 0.144 -0.589 0.795 239 115 113
-2964.4819 2750.4395 967.2695 0.346 -0.093 0.934 128 88 61
-2930.5115 2768.0684 933.2578 0.692 -0.003 0.721 126 92 76
-2941.3015 2782.8242 934.1550 0.711 0.071 0.700 112 77 60
-2955.5996 2818.1560 927.6652 0.952 -0.076 0.298 77 61 48
-2998.3853 2866.1782 936.3273 0.970 -0.232 0.070 65 50 41
-3285.5178 3196.7065 990.4413 0.301 -0.050 0.952 85 40 17
-2939.8823 2932.2839 860.3577 0.257 -0.607 0.752 169 91 46
-2914.7261 2922.4968 846.2870 0.257 -0.624 0.738 182 103 52
-2957.7429 2967.1533 856.7601 0.321 -0.683 0.656 188 109 56
-2887.1753 2910.4358 831.5303 0.683 -0.473 0.557 189 113 60
-2914.2615 2947.3218 833.8580 0.596 -0.467 0.654 195 116 63
-2648.8926 2923.6509 646.7050 0.588 -0.133 0.798 170 99 49
-2390.1624 2681.8684 570.6664 0.452 -0.583 0.675 147 82 40
-2389.3752 2687.0308 567.5648 0.457 -0.559 0.692 143 78 36
-2311.7468 2651.1638 526.9018 0.983 -0.051 0.174 121 65 28
-2302.7471 2862.1497 417.4875 0.143 -0.989 -0.027 153 76 40
-2287.7256 2852.2942 411.0376 -0.282 -0.959 0.026 169 87 52
-2281.1865 2851.7695 406.3974 0.483 -0.587 -0.650 184 98 60
-2422.7546 3309.8071 289.4798 0.208 -0.856 -0.473 26 9 9
-2267.3418 3325.1763 165.6480 0.821 -0.571 -0.033 37 39 48
-1867.6467 4431.0366 -671.7589 0.855 -0.158 0.494 249 209 210
-1776.9185 4310.8735 -681.2064 0.404 -0.853 -0.331 251 211 209
-1780.7836 4335.9258 -690.5045 0.366 -0.844 -0.391 251 211 209
-1770.6060 4329.3018 -694.9005 0.386 -0.839 -0.384 251 211 209
-1765.6260 4334.4458 -701.1321 0.386 -0.839 -0.384 251 211 209
-1744.3541 4302.3384 -701.4326 -0.287 -0.957 -0.044 251 212 209
-1841.8026 4631.5908 -788.7076 -0.189 -0.806 0.560 247 213 211
-1703.4993 4323.9312 -742.5275 0.573 -0.816 -0.081 247 213 211
-1711.4360 4359.6260 -753.9564 0.516 -0.849 -0.113 246 214 212
-1705.9691 4363.7578 -760.0600 0.516 -0.849 -0.113 245 216 218
-1680.0728 4388.1333 -791.3102 0.798 -0.331 0.503 246 217 221
-1344.1580 4584.3872 -1138.3054 -0.038 -0.707 -0.706 255 211 214
-1338.4094 4588.6157 -1144.6667 -0.047 -0.715 -0.698 255 209 213
-1316.8959 4587.5195 -1160.2397 -0.308 -0.916 -0.258 255 208 211
-1306.1763 4575.4771 -1162.4047 -0.257 -0.903 0.346 253 208 210
-1292.2579 4552.7485 -1161.7640 -0.295 -0.917 0.268 250 204 206
-1274.5223 4517.1118 -1157.6992 -0.254 -0.920 0.297 251 204 206
-826.2921 5223.2100 -1836.8977 0.926 -0.019 -0.378 255 63 110
-587.9068 4327.6250 -1579.5306 0.859 0.217 0.463 245 77 106
-487.1700 3882.6631 -1438.4073 0.277 -0.853 -0.443 231 123 142
-469.2914 3945.9548 -1482.5935 -0.058 -0.656 0.752 238 78 100
-2939.5405 2792.8430 918.9301 0.771 -0.070 0.633 80 59 50
-3016.5188 2881.4172 933.1582 0.973 -0.204 0.108 50 39 35
-3067.6118 2949.4353 938.0875 0.883 -0.176 0.436 49 31 27
-3086.2578 2971.6497 941.1624 0.818 0.075 0.571 43 26 18
-3210.2739 3117.5386 962.5236 0.301 -0.050 0.952 95 49 23
-3187.2375 3144.5046 932.1087 0.413 -0.109 0.904 178 96 46
-2964.7996 2960.6453 855.7322 0.306 -0.698 0.648 191 109 55
-2880.0559 2897.7993 823.1124 0.707 -0.467 0.531 192 115 61
-2665.2966 2933.2400 645.2020 -0.471 -0.686 0.554 168 96 45
-2389.9302 2675.7869 565.2512 0.452 -0.583 0.675 146 81 39
-2383.1550 2680.9585 557.6558 0.455 -0.582 0.674 134 70 26
-2402.6006 2712.1775 556.9236 0.438 -0.327 0.838 129 64 22
-2293.1914 2851.8359 406.8025 -0.326 -0.939 0.109 166 84 50
-2278.3169 2842.1172 400.4350 -0.239 -0.970 -0.031 179 94 58
-2311.3242 2912.7927 390.5421 0.940 -0.248 -0.235 223 151 113
-2779.1697 3538.7488 434.1470 -0.535 -0.716 0.449 219 194 188
-2425.4084 3305.1340 283.9201 0.201 -0.842 -0.501 28 11 11
-2214.3591 3221.6846 166.9411 -0.376 -0.920 0.110 20 20 22
-2270.6016 3321.2949 160.2667 0.913 -0.396 -0.102 36 37 47
-2439.0063 3709.3960 96.3341 -0.446 -0.768 0.459 58 59 61
-1660.4625 4241.3521 -745.9940 0.213 -0.879 -0.426 246 216 218
-1655.2174 4245.5151 -751.9520 0.213 -0.879 -0.426 245 216 218
-1449.0975 4539.6455 -1049.9463 -0.578 -0.801 0.159 255 212 219
-1363.8829 4605.7275 -1145.9857 -0.235 -0.901 -0.364 245 199 202
-1341.6963 4603.0166 -1161.2485 -0.037 -0.713 -0.700 246 196 199
-1333.5931 4599.7598 -1165.7140 -0.294 -0.918 -0.267 246 196 199
-1200.5564 5124.8037 -1522.0204 0.525 -0.850 0.052 225 132 127
-3223.0454 3108.5188 966.3734 0.304 -0.047 0.952 93 53 24
-2969.2583 2908.0833 875.4188 0.301 -0.050 0.952 135 81 47
-2980.3821 2968.0447 854.2426 0.946 0.010 0.325 195 112 56
-2962.1445 2958.2361 845.4470 0.334 -0.677 0.656 194 113 59
-2328.4243 2870.5688 415.3426 0.346 -0.802 -0.487 138 68 30
-2301.2405 2854.2034 403.0906 -0.326 -0.939 0.109 166 84 50
-2309.3245 2897.0256 388.0718 0.997 -0.034 -0.063 214 144 105
-2326.0559 2922.5747 388.0033 0.829 -0.309 -0.466 217 150 115
-2719.7439 3496.1846 399.9376 -0.424 -0.577 0.698 199 170 162
-2404.6978 3280.0967 270.9359 0.461 -0.756 -0.465 18 9 6
-2222.6646 3224.6545 162.2691 -0.403 -0.839 0.366 20 20 22
-2275.3398 3319.3640 155.0347 0.910 -0.404 -0.095 32 34 43
-2264.4343 3357.7219 128.0311 0.781 -0.505 0.367 56 60 72
-1371.5566 4611.2124 -1155.0265 -0.253 -0.903 -0.346 242 197 200
-1351.1195 4614.2837 -1171.7975 -0.048 -0.717 -0.695 244 194 197
-477.0817 3943.1089 -1494.4453 0.489 -0.323 0.810 233 73 95
-469.4208 3965.8225 -1511.3339 0.196 -0.682 -0.705 225 39 62
-3151.7334 3033.9690 939.9156 0.304 -0.047 0.952 98 55 33
-2482.2876 2736.2268 587.8307 0.682 -0.457 0.571 172 95 43
-2335.7285 2872.0190 411.4252 -0.292 -0.956 0.023 135 69 30
-2309.3232 2856.5813 399.3633 -0.326 -0.939 0.109 163 85 50
-2340.0547 2924.5371 388.6961 0.878 -0.176 -0.445 217 149 116
-2331.4434 2921.8857 383.5847 0.827 -0.313 -0.467 197 131 101
-2772.7537 3488.8545 432.4837 0.123 -0.987 0.101 213 195 194
-2759.6963 3482.4810 425.8961 0.136 -0.984 0.118 212 197 198
-2771.5537 3504.6416 423.7866 0.955 -0.204 0.214 212 196 197
-2769.1543 3527.8640 410.5203 0.235 -0.274 0.933 221 194 180
-2751.5945 3516.2290 403.1754 0.190 -0.265 0.945 220 193 182
-2720.5037 3488.7830 393.5540 -0.417 -0.574 0.704 205 176 168
-2278.4421 3306.6089 153.9235 0.573 -0.778 -0.259 32 32 37
-2272.4387 3351.2148 127.4016 0.623 -0.466 0.628 55 58 70
-2267.7607 3353.8472 122.6122 0.808 -0.457 0.373 56 59 72
-575.1957 2208.0352 -573.3262 -0.334 -0.909 0.248 243 189 190
-1151.4650 4581.0210 -1316.3435 -0.332 -0.942 -0.046 241 163 162
-1149.8187 4600.5259 -1327.2108 -0.100 -0.984 0.150 241 162 162
-1136.5640 4576.4951 -1325.2190 0.838 -0.544 -0.040 243 162 162
-1077.4609 4695.4976 -1428.1074 -0.207 -0.791 -0.575 243 120 123
-708.7305 3731.3240 -1226.5759 -0.150 -0.967 -0.206 254 91 134
-704.7315 3737.4172 -1232.5696 -0.146 -0.967 -0.209 247 85 127
-758.2800 4645.4897 -1641.4192 0.942 -0.011 -0.336 254 72 112
-2809.9390 2602.3254 889.9016 0.507 -0.152 0.848 61 45 36
-3122.1345 2939.3452 955.0024 0.436 0.052 0.899 33 31 28
-3108.6255 3035.4807 897.1869 0.433 -0.021 0.901 183 104 54
-2930.1689 2904.7502 829.2179 0.890 -0.056 0.453 197 115 58
-2598.0720 2854.9717 606.6108 -0.431 -0.703 0.565 158 88 43
-2515.4910 2793.1572 575.8131 -0.017 -0.770 0.638 140 73 31
-2335.1177 2919.2822 378.8260 0.827 -0.313 -0.467 212 154 135
-2774.2180 3465.3320 434.6074 0.335 -0.929 -0.154 214 185 176
-2762.9705 3461.0383 428.3635 0.337 -0.938 -0.079 224 196 188
-2735.9854 3438.8013 419.3120 0.333 -0.943 -0.005 222 197 189
-2744.0540 3456.4290 416.5647 0.363 -0.931 0.034 220 197 190
-2764.0347 3487.7703 415.8771 0.930 -0.184 0.317 220 194 187
-2732.7095 3477.4734 397.6622 0.058 -0.599 0.798 221 193 183
-2744.5781 3499.7859 395.4180 0.215 -0.260 0.941 222 193 185
-2706.0283 3463.7310 384.6175 -0.209 -0.533 0.820 224 195 187
-2253.3296 3265.7056 145.8306 0.314 -0.883 -0.348 26 25 28
-2287.8521 3328.1672 140.5144 0.839 -0.544 -0.024 27 27 36
-2271.8052 3342.0845 121.6501 0.620 -0.461 0.635 47 48 58
-2266.5083 3343.8728 116.8168 0.828 -0.420 0.371 52 53 64
-2254.3889 3336.5400 111.4332 0.724 -0.501 -0.474 57 58 69
-600.7988 2163.5442 -537.4277 -0.117 -0.801 0.587 255 210 216
-597.5873 2163.0784 -539.5880 -0.042 -0.803 0.595 255 210 216
-593.1497 2158.7566 -540.7463 -0.062 -0.808 0.586 255 209 215
-589.2899 2156.1973 -542.3497 0.231 -0.970 0.079 255 208 214
-586.7000 2157.6189 -544.9847 0.205 -0.968 0.146 255 206 210
-1192.0001 4558.0645 -1286.5775 0.133 -0.952 0.275 240 169 176
-1188.0111 4568.4370 -1294.7008 0.203 -0.711 -0.674 240 167 173
-1156.9081 4555.0991 -1311.2399 -0.291 -0.924 -0.248 244 167 170
-1157.2323 4581.6011 -1324.1628 -0.332 -0.942 -0.039 244 168 173
-1088.6211 4662.0044 -1415.2019 0.093 -0.996 0.012 233 125 122
-1093.5443 4709.7568 -1435.2557 -0.130 -0.837 -0.531 234 124 121
-1071.5266 4704.9824 -1449.2821 -0.206 -0.792 -0.575 231 111 112
-719.1243 3735.8774 -1230.3451 -0.014 -0.870 -0.492 254 82 133
-328.2373 3345.3511 -1327.4735 0.709 -0.219 -0.670 232 22 46
-2793.9717 2605.1863 868.1406 0.289 -0.587 0.756 62 51 45
-3062.0498 3001.2632 869.7849 0.398 -0.067 0.915 192 112 59
-2481.8191 2723.8396 576.7254 0.663 -0.481 0.574 170 94 39
-2338.7927 2916.6780 374.0660 0.827 -0.313 -0.467 225 170 155
-2791.9387 3460.3113 439.6912 0.966 -0.081 0.246 201 172 160
-2800.4368 3486.7939 432.7898 0.421 -0.384 0.821 199 170 162
-2733.6770 3470.3711 391.3344 0.215 -0.300 0.929 221 192 184
-2729.9561 3474.6357 386.4374 0.226 -0.296 0.928 221 192 184
-2707.4810 3457.2175 378.4172 -0.216 -0.535 0.816 225 196 188
-2283.0625 3322.4092 130.0457 0.871 -0.489 0.040 27 27 35
-2281.8362 3338.3057 121.1969 0.618 -0.459 0.639 36 36 46
-2271.9800 3334.0576 115.9870 0.620 -0.461 0.635 46 46 56
-2261.7708 3329.3030 110.7672 0.777 -0.520 0.354 52 52 62
-2257.7659 3332.7798 106.0526 0.750 -0.646 -0.146 58 58 67
-1196.4105 4553.6592 -1292.9170 0.130 -0.956 0.264 243 170 179
-1195.4929 4574.9839 -1304.2463 0.205 -0.714 -0.669 236 163 170
-1081.9117 4696.0942 -1449.1931 -0.282 -0.945 0.167 227 112 112
-1070.5316 4706.3193 -1462.7627 -0.230 -0.963 0.141 229 112 112
-1065.0773 4712.4639 -1469.8872 -0.227 -0.962 0.151 233 102 107
-470.9940 3335.9438 -1224.5052 0.062 -0.657 0.751 253 55 94
-525.5719 3899.5305 -1465.2922 0.624 -0.741 0.247 255 153 168
-482.0190 3887.6570 -1491.7583 0.885 0.213 0.413 237 44 75
-366.5125 3815.3210 -1541.5554 0.961 0.090 0.261 253 84 95
-2351.4641 2930.9414 367.5223 0.991 0.016 0.136 229 186 170
-2746.5935 3459.9658 395.5637 0.248 -0.522 0.816 221 192 184
-2744.7986 3466.4109 390.9963 0.532 -0.275 0.801 221 192 184
-2713.6084 3447.6135 377.2605 0.224 -0.293 0.929 221 192 184
-2259.3892 3274.6467 126.6570 0.926 -0.327 -0.190 27 27 35
-2284.0217 3324.2024 120.0873 0.621 -0.454 0.639 27 27 35
-2281.4878 3329.6125 115.4904 0.783 -0.518 0.344 36 36 44
-2272.9988 3327.1721 110.4092 0.779 -0.522 0.348 45 45 53
-2265.7598 3326.3625 105.4381 0.785 -0.512 0.349 52 52 60
-1220.6932 4570.5898 -1295.1991 0.191 -0.951 0.241 248 177 185
-1206.4371 4569.1484 -1305.0653 0.133 -0.948 0.289 249 176 185
-1155.3910 4688.4541 -1402.8503 0.715 -0.292 0.635 228 140 138
-1148.2826 4688.0742 -1407.9398 0.700 -0.296 0.650 227 136 135
-729.2294 3576.0134 -1161.1848 0.796 -0.469 0.381 255 79 141
-550.8991 3899.9192 -1456.1859 0.774 -0.512 -0.371 250 71 101
-544.6869 3929.4309 -1475.6094 0.579 -0.812 -0.073 245 95 117
-527.5763 3885.0227 -1466.0353 0.552 -0.781 0.292 255 151 166
-2785.8264 2571.8997 861.9657 0.861 -0.501 0.080 62 52 42
-2794.3496 2584.0203 862.1757 0.839 -0.544 0.007 65 52 43
-2914.5464 2692.0273 896.8699 0.631 0.065 0.773 60 51 42
-2593.9988 2844.8506 582.0044 -0.370 -0.707 0.603 147 80 38
-2557.9846 2822.4106 566.6052 -0.354 -0.706 0.613 137 70 28
-2299.0378 2767.7688 402.0683 0.770 -0.549 -0.324 133 67 32
-2444.1499 2928.6667 428.5707 -0.101 -0.572 0.814 133 67 33
-2477.1301 2970.6982 431.8388 0.300 -0.827 0.476 135 69 37
-2333.5173 2837.0757 392.6927 -0.241 -0.960 -0.141 134 71 40
-2758.5645 3382.2319 433.0652 0.810 -0.531 0.250 216 185 164
-2774.5229 3408.1333 431.8408 0.578 -0.720 -0.384 208 181 161
-2800.0181 3453.1479 428.0517 0.584 -0.728 -0.359 185 157 146
-2745.7737 3459.3503 384.6835 0.554 -0.270 0.788 222 193 185
-2686.1467 3416.3438 362.1400 0.196 -0.330 0.923 209 180 172
-2676.5852 3413.7292 356.3654 -0.263 -0.546 0.795 200 171 163
-2266.1682 3292.6274 112.9817 0.812 -0.574 -0.108 27 27 35
-2271.0129 3307.6414 109.0036 0.819 -0.535 -0.206 36 36 44
-2264.5898 3307.8811 104.1178 0.819 -0.536 -0.202 46 46 54
-2265.4885 3317.7891 99.7876 0.826 -0.527 -0.202 52 52 60
-2272.1287 3335.3552 95.8542 0.777 -0.582 -0.242 58 58 67
-2272.6992 3344.9431 91.4420 0.558 -0.735 -0.386 59 61 75
-461.7726 3677.2571 -1419.5535 0.912 0.213 0.351 239 37 71
-463.4591 3726.7563 -1443.2665 0.898 0.211 0.385 246 27 60
-319.7058 3333.7749 -1351.7137 0.724 -0.492 -0.483 247 97 101
-2789.0854 2574.3796 854.7438 0.644 -0.745 -0.176 66 53 45
-2794.0349 2583.6245 853.7245 0.736 -0.663 -0.139 61 51 42
-2869.7400 2650.1248 876.1038 0.648 -0.470 0.600 56 49 37
-2598.7031 2836.8450 580.6638 -0.421 -0.739 0.526 155 88 46
-2603.9563 2848.2322 578.7840 -0.362 -0.705 0.610 153 86 44
-2360.0271 2852.4739 395.9192 -0.216 -0.962 -0.168 128 64 36
-2252.8313 2782.6235 351.9082 0.999 -0.050 0.019 221 167 154
-2780.1304 3398.1863 430.5483 0.585 -0.731 -0.352 212 187 163
-2782.5605 3409.0876 426.8233 0.586 -0.725 -0.362 208 187 165
-2825.8752 3465.4614 430.3389 0.552 -0.736 -0.393 198 175 159
-2776.8269 3444.2209 404.7676 0.633 -0.421 0.649 145 117 106
-2673.5483 3385.5073 358.0138 -0.068 -0.661 0.748 219 190 182
-2677.9292 3398.8513 354.4956 0.205 -0.373 0.905 214 185 177
-2271.9004 3300.6633 103.4579 0.133 -0.886 -0.444 32 32 40
-2433.6138 3656.6028 42.8489 0.425 -0.904 0.036 57 51 61
-1212.3741 4550.0542 -1314.7671 0.184 -0.837 -0.515 253 180 189
-1206.9767 4555.3506 -1321.4504 0.184 -0.837 -0.515 249 176 183
-1215.6987 4610.7915 -1343.0898 0.031 -0.760 -0.649 248 173 180
-1209.4818 4613.5225 -1349.0801 0.024 -0.763 -0.646 249 172 178
-1192.3505 4602.0293 -1355.9462 -0.148 -0.841 -0.520 247 170 176
-1162.3575 4645.2783 -1400.0879 0.823 -0.543 0.165 237 148 146
-1231.8771 5229.5049 -1644.7100 -0.149 -0.969 0.198 229 118 116
-622.0959 4348.1543 -1649.7378 0.772 0.253 0.583 241 76 101
-342.9029 3318.4160 -1334.6368 0.698 -0.224 -0.680 227 22 45
-2797.3579 2580.8940 849.1489 0.736 -0.663 -0.139 53 43 34
-2904.8870 2706.1182 864.9165 0.436 0.078 0.897 58 16 8
-2852.0156 2718.6052 819.4376 0.615 -0.287 0.734 170 83 32
-2845.3406 2718.6741 814.4640 0.615 -0.290 0.733 175 93 43
-2831.4612 2718.3401 804.3650 0.645 -0.291 0.707 174 92 38
-2825.9536 2719.3706 799.7652 0.645 -0.291 0.707 178 96 42
-2820.0200 2720.0364 795.0361 0.630 -0.293 0.719 186 105 56
-2420.4937 2653.1299 533.5217 0.589 -0.406 0.699 157 88 42
-2372.8789 2859.7510 393.0392 -0.209 -0.960 -0.185 148 84 56
-2755.4160 3354.9517 423.8084 0.841 -0.526 0.129 211 188 164
-2781.3076 3391.5667 424.3130 0.890 -0.400 0.220 207 191 163
-2807.0298 3428.1797 424.6932 0.602 -0.733 -0.317 207 190 166
-2833.0232 3465.2781 425.0266 0.515 -0.758 -0.400 194 172 155
-2803.7126 3441.1128 415.6506 0.513 -0.773 -0.373 168 141 130
-2801.8767 3447.4170 411.0811 0.518 -0.753 -0.406 149 120 112
-2774.5935 3433.6433 397.9114 0.714 -0.682 0.156 139 111 100
-2670.3716 3382.1882 347.0125 0.210 -0.414 0.886 215 186 178
-2417.7654 3241.3838 231.8436 0.382 -0.921 -0.073 29 14 4
-2275.8210 3297.6697 98.1511 0.123 -0.823 -0.555 29 29 37
-2277.7603 3352.7922 71.5063 0.522 -0.815 -0.252 55 58 75
-2290.7542 3379.0317 67.7534 0.083 -0.963 0.257 61 64 81
-2441.9866 3658.7932 37.1336 0.467 -0.884 0.037 56 50 60
-2428.9568 3660.8445 26.4484 -0.681 -0.663 0.312 67 64 73
-508.4563 3776.6396 -1453.4554 0.791 0.139 0.596 233 139 150
-492.8173 3702.8677 -1427.4465 0.912 0.165 0.375 224 118 133
-374.7409 3702.8289 -1514.7877 0.973 -0.014 0.232 251 86 96
-2801.5359 2573.6035 847.5389 0.696 -0.709 -0.114 48 37 30
-2816.4880 2590.8550 849.7551 0.615 -0.757 -0.219 40 31 21
-2865.3425 2635.4641 863.0155 0.619 -0.022 0.785 32 27 11
-2874.4785 2648.2341 863.2284 0.612 0.080 0.787 22 20 1
-2901.6016 2681.1040 866.4417 0.470 0.057 0.881 28 19 0
-2900.2158 2685.4995 863.1675 0.436 0.043 0.899 41 17 0
-2577.5222 2810.2554 560.8655 -0.381 -0.734 0.562 156 89 47
-2359.8416 2839.4053 385.1012 -0.178 -0.980 -0.093 182 121 90
-2386.7249 2888.1331 380.0188 0.445 -0.527 -0.724 197 134 103
-2738.4189 3328.5178 414.4279 0.940 -0.291 0.176 208 189 165
-2792.7603 3396.2603 419.8997 0.808 -0.537 0.242 204 193 164
-2818.9810 3433.3550 420.2832 0.598 -0.747 -0.292 205 191 166
-2837.7773 3462.4316 419.2860 0.552 -0.736 -0.393 193 173 155
-2804.1802 3433.5854 409.2291 0.433 -0.736 -0.521 169 142 130
-2777.6848 3429.0513 391.9734 0.714 -0.682 0.156 142 115 104
-2657.2019 3359.1863 338.7173 0.367 -0.497 0.786 214 185 177
-2280.4224 3295.5623 92.8921 0.110 -0.864 -0.491 26 26 34
-2286.8801 3356.5789 66.4265 -0.041 -0.996 0.074 48 51 68
-2295.6680 3377.1768 62.3747 0.083 -0.963 0.257 54 57 74
-2450.3499 3660.9385 31.3967 0.524 -0.851 -0.025 57 49 60
-2259.3362 4026.5745 -296.9264 0.111 -0.978 -0.178 240 209 214
-2252.9143 4028.3325 -302.5713 0.111 -0.978 -0.178 240 209 214
-2246.4951 4030.0906 -308.2144 0.111 -0.978 -0.178 242 212 214
-2241.5994 4034.3696 -314.0225 0.052 -0.973 0.225 242 212 214
-2197.9395 3986.4546 -321.7523 0.078 -0.954 0.288 242 212 214
-1260.9780 5263.1680 -1667.6672 0.501 -0.663 0.556 232 123 120
-530.0357 3791.6953 -1454.4373 0.780 0.108 0.616 254 139 157
-522.6872 3776.8374 -1452.2605 0.702 0.112 0.704 248 148 162
-503.2692 3748.4294 -1452.0648 0.885 0.101 0.454 224 118 133
-464.6060 3546.0425 -1377.0215 0.221 -0.169 0.960 218 64 97
-2818.1885 2581.5308 847.3256 0.697 -0.708 0.117 36 24 17
-2829.4436 2595.8086 848.2849 0.659 -0.710 -0.247 28 18 9
-2684.2244 2561.8853 758.5803 0.657 -0.184 0.731 187 91 30
-2342.1230 2725.3789 422.0273 0.971 -0.099 0.219 128 67 29
-2317.0046 2711.9194 410.4171 0.513 -0.641 0.571 131 67 32
-2325.2527 2745.3081 399.3254 0.519 -0.847 -0.113 135 68 31
-2392.3494 2841.1143 399.5450 0.751 -0.052 0.659 143 78 43
-2375.5417 2849.6748 382.7384 0.315 -0.374 0.872 210 151 120
-2420.6055 2917.8606 380.9103 0.089 -0.745 -0.661 207 146 116
-2472.6694 2980.5764 387.0620 0.224 -0.495 -0.840 218 157 129
-2837.0928 3436.9661 421.1643 -0.019 -0.693 0.720 204 192 165
-2851.9788 3461.6265 419.4613 0.323 -0.878 0.352 205 190 166
-2844.7776 3462.0571 413.9258 0.323 -0.878 0.352 193 173 154
-2780.7739 3424.4624 386.0394 0.714 -0.682 0.156 145 118 106
-2266.3955 3269.2361 86.3400 0.036 -0.867 -0.497 22 22 30
-2300.5864 3375.3201 56.9907 0.083 -0.963 0.257 50 53 69
-2282.3503 3360.0220 51.4049 0.212 -0.761 -0.613 53 56 73
-2276.6909 3361.4058 46.5168 0.204 -0.759 -0.619 54 57 73
-2454.8564 3657.8118 25.4885 0.530 -0.848 0.003 57 50 61
-2507.0554 3940.9988 -81.6898 0.991 -0.004 0.131 230 202 201
-2425.0837 3866.1458 -103.6661 0.310 -0.906 -0.288 231 201 202
-2179.5081 3944.7156 -325.3004 -0.002 -0.851 0.525 242 212 215
-2171.1091 3942.8625 -330.5445 0.022 -0.863 0.505 237 207 210
-2160.2393 3936.8433 -335.4685 0.025 -0.878 0.479 237 207 210
-2810.6292 2601.7588 822.8292 0.598 -0.001 0.801 97 61 41
-2708.1726 2550.0063 774.0847 0.634 -0.177 0.752 153 80 36
-2361.3794 2726.6294 427.2062 0.988 -0.152 0.014 134 64 21
-2346.3557 2717.4941 420.8582 0.981 -0.105 0.161 133 65 23
-2329.6279 2712.6965 411.0116 0.469 -0.738 0.485 139 71 29
-2318.3513 2707.2754 405.5048 0.493 -0.719 0.490 141 71 28
-2327.8269 2723.1809 404.2637 0.267 -0.940 -0.214 141 71 29
-2287.8823 2694.2664 389.7774 0.201 -0.977 -0.075 142 67 23
-2321.2644 2735.0410 393.2957 0.568 -0.814 0.122 147 72 28
-2352.0391 2779.6670 392.9011 0.789 0.002 0.614 155 91 54
-2351.0981 2785.0671 389.4155 0.791 -0.000 0.612 142 80 47
-2428.4648 2899.3147 387.3589 0.830 -0.379 -0.408 196 148 123
-2799.4148 3412.3081 395.4848 0.142 -0.942 0.305 168 137 124
-2803.0117 3432.8330 387.5234 0.630 -0.776 -0.015 145 113 101
-2781.6858 3417.4592 379.7567 0.714 -0.686 0.142 144 113 101
-2690.0872 3372.5017 335.5004 -0.060 -0.755 0.653 182 150 143
-2670.7456 3358.7874 328.3379 -0.088 -0.661 0.745 212 180 173
-2266.9622 3279.0461 72.0110 0.105 -0.869 -0.483 26 26 34
-2281.2720 3306.3625 68.4328 0.108 -0.913 -0.393 27 27 35
-2306.8938 3366.3757 56.2852 0.113 -0.990 0.089 31 33 46
-2306.5437 3374.8296 51.6562 0.138 -0.988 -0.070 32 34 47
-2439.9294 3780.8091 -59.9537 0.958 -0.012 0.285 230 200 198
-2421.3428 3764.9355 -65.4435 0.912 0.003 0.410 230 200 198
-2466.8340 3872.8301 -87.7051 0.979 -0.107 0.172 236 206 205
-2465.4429 3881.7554 -93.3449 0.979 -0.107 0.174 233 204 205
-2475.5361 3929.5720 -110.6296 0.990 -0.046 0.132 232 203 206
-2463.8582 3923.6882 -116.1934 0.894 -0.398 0.208 233 204 207
-2460.0422 3929.2839 -121.8984 0.894 -0.398 0.208 234 205 208
-2450.6516 3926.6982 -127.4817 0.392 -0.636 0.664 233 204 207
-2297.2043 4017.1057 -287.3035 -0.205 -0.946 -0.250 240 204 210
-2193.0649 3993.0220 -351.5939 0.027 -0.664 0.747 237 203 209
-1236.5857 3441.8816 -771.4844 0.820 -0.179 0.544 255 215 220
-1232.5410 3445.5574 -776.3654 0.820 -0.179 0.544 254 214 220
-1228.1532 3448.3718 -781.0541 0.817 -0.186 0.546 254 216 221
-1218.3798 3465.6553 -797.1924 0.738 -0.219 0.638 249 217 223
-1190.5981 3479.2693 -824.7042 0.302 -0.679 -0.669 246 210 212
-1162.8265 4563.0708 -1405.5299 0.325 -0.600 0.731 239 146 144
-527.2755 3720.6968 -1438.3451 0.771 0.109 0.627 252 116 134
-495.9392 3644.3777 -1421.9779 0.155 -0.275 0.949 232 112 125
-374.7197 3644.7676 -1511.5087 0.621 -0.283 0.731 235 107 104
-2335.9424 2713.1235 407.1086 0.529 -0.833 0.163 148 77 33
-2344.5508 2734.2954 402.4432 0.262 -0.826 -0.499 148 76 32
-2340.3406 2736.1851 398.3631 0.259 -0.838 -0.480 148 73 28
-2327.1289 2735.0083 389.2515 0.595 -0.796 0.114 157 81 36
-2360.6802 2808.1270 375.9521 0.892 -0.128 0.433 191 143 120
-2807.2874 3364.1931 415.7051 0.595 -0.635 -0.493 206 175 155
-2820.9426 3428.0186 392.5920 0.619 -0.785 -0.023 167 135 122
-2807.7683 3430.0625 381.8347 0.628 -0.778 -0.003 143 111 98
-2789.1340 3417.7200 374.5339 0.715 -0.664 0.220 144 112 99
-2692.4077 3367.1985 329.5998 -0.066 -0.759 0.647 163 130 123
-2445.3164 3799.8044 -77.0163 0.953 -0.047 0.299 233 203 201
-2467.0422 3873.9524 -99.5535 0.965 -0.093 0.245 229 200 202
-2454.0972 3921.4392 -133.7533 0.404 -0.631 0.662 228 199 203
-2329.1042 3835.7607 -181.2231 0.221 -0.921 0.321 235 202 205
-2194.9863 3948.4709 -338.4871 0.001 -0.863 0.505 209 174 181
-2179.9822 3935.7229 -342.9054 0.057 -0.863 0.503 226 191 198
-2169.7917 3930.8857 -347.8918 0.012 -0.880 0.474 230 195 202
-2170.1631 3943.6418 -354.2461 -0.118 -0.890 0.441 238 203 210
-1237.7682 3460.9438 -789.6276 0.632 -0.357 0.688 254 215 220
-1216.4427 3462.7732 -806.2721 0.783 -0.410 0.467 251 215 220
-1196.7001 3483.1169 -831.3717 0.302 -0.679 -0.669 246 210 212
-1171.9840 3446.3442 -830.4548 0.695 -0.017 0.719 246 210 212
-1414.9926 5820.3730 -1885.1132 0.295 -0.828 0.477 237 117 111
-584.9777 3964.6265 -1531.7417 -0.129 -0.401 0.907 249 68 93
-532.3499 3727.9807 -1447.5160 0.298 -0.294 0.908 251 108 127
-2803.1746 2548.2834 828.2247 0.223 -0.898 -0.380 47 28 17
-2739.8689 2549.4775 781.0746 0.144 -0.985 -0.098 127 69 53
-2734.8655 2550.6340 776.7936 0.144 -0.985 -0.098 136 76 52
-2730.1501 2552.0227 772.6032 0.135 -0.987 -0.091 149 86 52
-2712.5391 2542.8860 764.4304 0.127 -0.962 0.242 150 87 47
-2705.7686 2542.5654 759.6217 0.127 -0.962 0.242 151 87 49
-2698.8032 2542.0762 754.7582 0.128 -0.953 0.273 154 88 50
-2692.7954 2542.3630 750.1928 0.105 -0.932 0.348 167 102 60
-2670.9231 2539.9990 735.3521 0.122 -0.749 0.652 168 103 63
-2664.9771 2540.3035 730.8232 0.199 -0.836 0.511 180 113 72
-2660.4355 2541.7695 726.7200 0.190 -0.842 0.505 180 113 72
-2662.4883 2548.7319 724.5933 0.284 -0.798 0.532 180 113 72
-2459.5845 2702.7871 495.0328 0.805 -0.354 0.476 136 68 24
-2435.1423 2685.1035 486.3023 0.840 -0.334 0.427 124 60 18
-2292.6348 2687.1890 380.4775 0.221 -0.969 -0.108 165 87 39
-2319.1450 2720.6667 382.4815 0.618 -0.716 -0.323 170 94 48
-2352.7102 2793.4565 369.1445 0.154 -0.840 -0.520 176 130 107
-2435.7036 2893.8479 377.7233 0.830 -0.379 -0.408 193 151 131
-2624.7383 3137.0071 389.6935 0.457 -0.515 -0.726 210 173 154
-2685.0483 3209.1802 396.3347 0.722 -0.577 -0.382 208 174 155
-2882.8694 3437.9797 422.2600 0.865 -0.501 0.005 206 175 155
-2949.4802 3518.3184 429.2683 0.478 -0.730 -0.489 203 172 151
-2817.1716 3424.1301 381.2067 0.693 -0.520 0.500 154 122 111
-2821.0095 3436.6443 377.4934 0.665 -0.641 0.384 143 111 98
-2753.0542 3402.6582 345.2949 0.455 -0.493 0.741 129 96 87
-2444.1145 3132.2661 259.4197 -0.515 -0.632 0.579 93 47 31
-2344.9336 3463.4861 13.5872 0.678 -0.463 -0.571 54 54 66
-2470.2849 3690.7808 -12.9633 -0.703 -0.595 0.389 76 72 81
-2364.1230 3624.3564 -56.3046 0.938 -0.347 0.029 229 203 202
-2443.1177 3745.0283 -61.2539 -0.258 -0.945 -0.203 230 202 199
-2484.8083 3878.4585 -100.2812 0.466 -0.570 0.677 212 182 180
-2468.1711 3865.4973 -105.7412 0.965 -0.094 0.246 183 154 156
-2455.8889 3913.7693 -139.9722 0.404 -0.631 0.662 147 118 122
-2379.2378 3923.7319 -201.5088 -0.221 -0.964 0.147 236 205 210
-2244.1562 3840.8984 -257.5369 0.027 -0.941 -0.337 242 207 211
-2232.7092 3963.2249 -329.8201 0.352 -0.729 -0.587 177 141 149
-2217.7568 3950.8418 -334.3438 -0.012 -0.907 0.422 178 143 150
-2204.2913 3952.8787 -345.3038 -0.060 -0.872 0.485 183 148 155
-2190.5740 3942.3320 -349.8785 0.143 -0.827 0.543 225 190 197
-2174.3977 3927.6177 -354.0846 0.010 -0.873 0.487 231 196 203
-2175.2898 3941.2104 -360.5260 -0.118 -0.890 0.441 238 203 210
-1217.9845 3454.6721 -810.0604 0.814 -0.499 0.297 251 215 220
-1204.3832 3476.5486 -831.4789 0.432 -0.676 -0.597 244 208 210
-1357.2472 5702.0972 -1881.1555 -0.174 -0.854 0.491 255 71 102
-1351.8142 5714.8130 -1891.7877 -0.152 -0.868 0.473 254 64 102
-546.5828 3665.2021 -1413.4298 0.420 -0.785 -0.455 251 59 88
-572.2062 3857.5742 -1495.0411 -0.254 -0.514 0.819 252 67 93
-520.3865 3689.7900 -1445.5210 0.707 -0.457 0.539 255 144 157
-513.9745 3680.4260 -1445.3442 0.761 -0.377 0.527 252 133 145
-2735.0115 2535.0300 776.7579 0.635 -0.759 0.147 112 60 41
-2731.4114 2537.2998 772.9247 0.635 -0.759 0.147 121 65 49
-2727.1060 2539.0007 768.8721 0.637 -0.742 0.207 127 69 48
-2733.8901 2549.7085 768.2333 0.133 -0.986 -0.099 130 71 40
-2707.9087 2538.9790 754.7934 0.118 -0.965 0.234 129 71 37
-2703.1545 2540.3015 750.6103 0.128 -0.953 0.273 131 73 38
-2696.2361 2539.8477 745.7705 0.128 -0.953 0.273 145 84 48
-2690.0793 2540.0095 741.1666 0.124 -0.946 0.300 144 85 50
-2666.5127 2541.4658 723.1057 0.236 -0.775 0.586 159 97 60
-2528.5786 2611.3572 585.1966 0.252 -0.442 0.861 177 111 55
-2480.4897 2584.4531 564.0173 0.589 -0.244 0.770 176 109 52
-2483.1438 2660.5442 526.0416 0.661 -0.405 0.631 174 101 48
-2462.4185 2646.8335 518.0237 0.453 -0.670 0.588 174 101 46
-2466.3127 2656.2900 515.9203 0.285 -0.626 0.725 174 101 48
-2465.5352 2661.3638 512.6876 0.469 -0.632 0.616 166 94 43
-2409.2798 2660.1123 472.0549 0.871 -0.261 0.416 123 61 20
-2421.5566 2677.9106 471.7272 0.775 -0.324 0.542 123 61 20
-2358.6748 2651.8628 439.2411 -0.080 -0.831 -0.551 130 65 23
-2319.8257 2672.6350 399.8286 0.958 -0.072 0.279 152 79 34
-2322.5078 2681.3813 397.2080 0.961 -0.074 0.267 156 83 38
-2321.1848 2686.0938 393.7645 0.961 -0.074 0.267 160 87 42
-2290.4194 2678.9412 374.9368 0.241 -0.920 -0.309 177 97 49
-2358.8625 2787.2034 368.3683 0.974 -0.182 0.133 184 135 111
-2364.1992 2799.1985 365.9916 0.161 -0.832 -0.531 178 133 110
-2626.5505 3131.7476 384.0653 0.483 -0.546 -0.684 209 173 153
-2939.4077 3499.2441 420.8720 0.487 -0.724 -0.489 199 168 147
-2879.2090 3442.4980 406.4619 0.387 -0.807 -0.447 195 164 144
-2822.6685 3422.1643 375.6321 0.703 -0.513 0.493 154 122 111
-2747.5950 3347.8635 359.5154 0.823 -0.363 0.437 143 111 98
-2877.7241 3499.4546 375.4881 0.707 -0.552 0.443 143 111 98
-2802.7917 3425.0947 359.5060 -0.232 -0.841 0.488 138 106 93
-2761.7896 3404.4177 340.2607 0.476 -0.384 0.791 125 92 83
-2744.8813 3393.8049 333.4189 0.400 -0.415 0.817 124 91 84
-2348.9802 3460.2324 7.9895 0.701 -0.444 -0.558 54 54 66
