ply
format ascii 1.0
element vertex 785
property float x
property float y
property float z
property float nx
property float ny
property float nz
property uchar diffuse_red
property uchar diffuse_green
property uchar diffuse_blue
end_header
-2526.0305 6083.5469 429.2091 -0.118 -0.978 0.170 48 30 18
-2243.6555 6136.7295 205.1100 -0.359 -0.697 -0.621 47 28 21
-2235.8035 6145.8364 197.1660 -0.363 -0.700 -0.615 47 28 21
-2225.1333 6146.6738 188.9609 -0.358 -0.706 -0.611 47 28 21
-1919.3744 5415.8545 123.2927 -0.116 -0.539 -0.835 65 36 30
-3089.6736 2957.2092 1543.5425 0.883 -0.452 -0.128 80 22 6
-3330.5740 3283.3650 1650.2800 0.457 -0.171 0.873 136 34 21
-3349.1404 3314.0544 1657.2477 0.869 -0.031 0.494 146 39 25
-3563.3931 3625.8743 1747.2490 0.862 -0.322 -0.391 209 201 188
-3688.9470 4559.3315 1629.7958 0.347 -0.528 -0.775 206 168 155
-3706.2981 4598.0400 1634.0341 0.393 -0.782 -0.484 205 168 152
-3532.7935 5854.4028 1219.0773 0.126 -0.920 -0.370 77 40 21
-3517.8320 5850.9287 1208.6436 0.052 -0.928 -0.369 70 33 14
-3441.1768 5783.6836 1166.3958 0.298 -0.878 -0.375 110 74 56
-2898.4460 6247.3477 654.2234 0.987 -0.143 0.074 81 55 42
-1692.3782 6123.5415 -222.2792 0.069 -0.934 -0.352 221 95 85
-1600.1241 5838.0122 -226.7400 0.274 -0.646 -0.713 244 72 85
-1566.5585 5742.4170 -230.2427 0.511 -0.307 -0.803 252 78 93
-3564.0957 3378.3831 1791.3411 0.659 -0.435 0.614 35 26 19
-3280.6189 3190.7932 1622.0482 0.621 -0.332 -0.710 139 56 46
-3327.6169 3304.8342 1631.1287 0.223 -0.700 -0.679 159 57 54
-3335.0449 3323.7358 1632.3629 0.035 -0.790 -0.613 182 97 94
-3701.7107 4548.6914 1626.4625 0.368 -0.665 -0.650 207 174 159
-3327.2002 4416.6758 1376.2914 0.610 -0.133 0.781 193 143 116
-3486.6309 5916.0840 1152.4077 0.455 -0.512 0.729 162 133 119
-1616.3496 5871.8672 -237.7314 0.208 -0.657 -0.724 238 77 86
-3327.9719 3297.3586 1621.0610 0.333 -0.759 -0.560 154 52 49
-3333.7644 3314.4492 1621.4398 0.118 -0.740 -0.662 154 70 68
-4236.7134 4399.3892 2045.5028 -0.261 -0.949 -0.175 215 203 191
-3702.4531 5226.7827 1454.9740 0.046 -0.952 0.303 142 106 80
-3672.1638 5374.1074 1398.2845 -0.150 -0.728 -0.669 169 130 99
-3716.5615 5669.1094 1363.2800 0.237 -0.147 0.960 194 150 121
-3021.8481 5723.5298 831.4970 -0.020 -0.646 -0.763 37 22 11
-2968.4202 5663.4287 805.4583 -0.008 -0.737 -0.676 48 34 23
-2905.5105 6220.4224 629.7001 0.991 0.037 0.129 103 77 64
-1967.4912 5434.1992 110.3824 -0.217 -0.960 -0.177 63 42 35
-1721.3156 6173.5288 -244.4870 0.054 -0.933 -0.355 143 62 47
-3553.1777 3351.5354 1764.3925 0.649 -0.390 0.653 35 26 19
-3333.8374 3295.8066 1613.7599 0.343 -0.762 -0.549 153 52 49
-3335.2200 3308.1333 1611.9149 0.029 -0.849 -0.528 151 67 65
-4653.0996 4943.1001 2213.5862 -0.288 -0.932 -0.221 191 172 157
-4333.7871 5151.3188 1926.7780 -0.270 -0.845 0.462 198 167 147
-3720.8855 4534.8818 1613.3745 -0.363 -0.920 -0.148 216 185 168
-3709.1021 4550.8594 1600.8552 0.359 -0.640 0.680 209 172 156
-3746.3921 5433.9395 1422.6078 0.236 -0.729 -0.643 163 124 93
-3242.9927 5511.9404 1028.8499 0.040 -0.791 -0.610 177 148 134
-1905.1849 5199.6758 103.6582 0.811 -0.233 -0.536 59 39 32
-1667.9479 5974.9263 -254.2354 -0.060 -0.939 -0.339 167 73 65
-1438.0638 5392.1270 -289.7417 0.734 -0.457 0.502 252 98 110
-1099.2383 4289.7671 -285.2828 0.293 -0.952 -0.090 254 100 112
-3346.9326 3280.4001 1615.1036 0.878 -0.015 0.478 158 52 39
-3364.4395 3309.8079 1621.2140 0.376 -0.756 -0.536 157 51 43
-4366.6963 5008.4062 1967.4838 0.585 -0.033 0.810 196 168 147
-3903.8027 4584.6787 1722.5740 -0.005 -0.955 0.298 198 167 147
-3772.6255 4481.6152 1649.1620 -0.343 -0.927 0.151 207 178 162
-3667.8105 4378.9565 1595.2871 -0.338 -0.937 0.094 207 178 164
-2931.1326 5598.9150 759.2935 0.136 -0.990 -0.034 48 34 23
-2898.0325 5555.0796 744.9692 0.149 -0.832 -0.534 44 30 19
-2903.3000 5589.2671 740.8388 0.024 -0.998 -0.053 37 23 12
-2880.0012 5565.0620 729.1895 0.163 -0.986 -0.025 32 19 7
-2862.0203 5551.5742 718.9760 0.441 -0.897 -0.010 24 14 5
-2842.5117 5534.7715 708.4058 0.331 -0.941 0.069 23 14 5
-2818.1641 5531.2236 691.1094 0.330 -0.943 0.042 23 14 5
-2941.9565 6287.7168 605.0977 0.820 -0.113 -0.562 116 88 74
-2594.6648 6384.1299 323.7524 0.759 -0.650 0.035 59 41 27
-2586.3547 6393.3687 315.3874 0.759 -0.650 0.035 58 40 27
-2537.7908 6327.3970 294.7615 0.787 -0.370 0.493 49 32 24
-1723.4082 6158.3945 -271.9118 -0.147 -0.989 -0.019 161 83 75
-1497.8090 6394.0132 -495.4225 -0.251 -0.819 -0.516 255 89 103
-3290.4456 3171.0374 1587.1000 0.274 -0.454 0.848 111 29 19
-3371.1650 3309.1208 1614.2734 0.401 -0.761 -0.510 157 52 43
-3357.2825 3305.1809 1604.8900 0.411 -0.743 -0.527 153 52 49
-3354.7590 3313.3354 1601.0751 0.478 -0.860 -0.176 152 68 63
-4503.4619 4660.5879 2134.6702 0.290 -0.568 -0.770 184 172 160
-3515.2993 4427.0103 1455.6157 0.984 0.149 0.099 165 126 96
-2953.4553 5626.0840 752.8350 0.157 -0.982 -0.109 48 34 24
-2906.4329 5577.6411 729.3974 0.096 -0.995 -0.035 36 23 12
-2878.3420 5543.6880 716.5880 0.158 -0.761 -0.629 31 18 8
-2864.3611 5538.3999 707.4520 0.224 -0.776 -0.590 23 14 5
-2432.1838 6054.3623 263.4913 0.398 -0.796 0.456 50 32 23
-1530.8873 5985.1333 -390.0655 -0.003 -0.893 -0.451 244 97 105
-1091.5258 5235.7559 -538.5007 0.863 -0.499 -0.082 216 127 116
-4765.8994 4968.7031 2238.8838 -0.289 -0.929 -0.231 188 179 168
-3877.1987 4544.2329 1681.2717 -0.026 -0.924 0.381 204 177 165
-3583.7266 4460.4873 1483.5924 0.119 -0.815 0.567 160 124 91
-3023.4041 5361.7090 851.5133 0.702 -0.584 -0.408 171 133 117
-2919.6326 6086.5586 600.5541 0.690 -0.182 -0.700 113 71 63
-2822.3115 6083.5127 529.0660 -0.211 -0.935 0.285 138 90 70
-2433.8076 6035.5796 252.2720 0.459 -0.746 0.483 61 40 28
-2390.0757 5978.4336 233.5340 0.083 -0.321 -0.943 52 32 18
-1526.4792 5974.5146 -406.3750 -0.022 -0.950 -0.311 230 86 87
-3170.8413 2992.1929 1518.4374 -0.382 -0.823 0.421 102 55 38
-3243.2446 3147.8723 1534.3651 0.859 0.046 0.511 146 59 45
-3750.8132 4466.0884 1591.0803 -0.266 -0.876 -0.403 215 185 175
-3662.2971 4429.1035 1534.4697 0.085 -0.756 -0.649 194 156 132
-3552.9753 4303.0376 1484.0225 0.381 -0.745 -0.548 190 148 123
-3506.7522 5847.2183 1075.7894 -0.538 -0.721 -0.438 187 148 131
-3151.2209 5630.5044 864.9174 0.633 -0.599 -0.490 140 98 82
-3012.4912 5708.7744 743.1967 -0.091 -0.622 -0.778 42 33 24
-2836.0815 6066.8013 525.8093 -0.431 -0.810 0.397 143 95 72
-2227.5266 5835.8286 130.9636 0.339 -0.474 -0.813 55 36 26
-1917.2742 5149.7563 67.3080 0.139 -0.978 0.153 164 134 126
-3744.3308 4461.8867 1572.1630 0.208 -0.104 -0.972 205 175 165
-3867.8247 4650.1567 1617.4637 -0.020 -0.290 -0.957 194 163 151
-3908.5581 4718.2529 1630.9403 -0.023 -0.251 -0.968 195 160 139
-3557.1643 4312.3442 1470.3158 0.301 -0.728 0.616 185 144 116
-3592.0620 4448.6797 1462.7991 0.080 -0.761 0.644 172 136 102
-3437.4226 4822.3428 1257.1299 0.704 -0.011 0.710 200 165 145
-3585.9912 5509.9224 1198.9386 0.882 -0.039 0.470 215 182 163
-3303.0964 5537.0444 983.1299 -0.392 -0.813 -0.430 193 154 137
-3051.5515 5792.8740 734.6052 -0.084 -0.631 -0.772 38 29 20
-2776.4663 5990.9346 482.7928 -0.415 -0.886 0.205 150 100 77
-2760.5774 5981.3184 473.3944 -0.415 -0.886 0.205 150 100 77
-2425.7637 5968.7769 228.8894 0.680 -0.647 0.345 88 61 50
-2422.7126 5989.8608 221.4804 -0.188 -0.600 -0.778 88 62 49
-2220.1011 5821.4263 112.8300 -0.490 -0.735 -0.469 67 39 30
-1920.1418 5163.8452 51.7472 0.024 -0.990 0.138 221 190 186
-1909.7588 5160.6025 44.8623 0.800 -0.576 -0.166 240 209 208
-1906.5813 5178.4028 38.1623 0.713 -0.700 -0.030 245 215 215
-1379.9386 6243.0693 -611.4600 0.121 -0.955 -0.272 223 144 137
-3225.1108 3113.9863 1506.2050 0.751 -0.154 0.642 209 143 133
-3743.1304 4418.9731 1566.7340 -0.235 -0.906 -0.351 215 185 175
-3953.7261 4879.7075 1608.5537 0.092 -0.738 -0.669 175 132 106
-3596.9600 4428.4258 1456.5135 0.446 -0.693 0.566 176 137 105
-3319.1204 5549.0156 975.0884 -0.392 -0.813 -0.430 193 154 137
-2373.0542 5333.9922 329.8183 0.652 -0.631 -0.420 133 85 63
-2391.2571 5427.8491 320.1078 0.960 -0.120 -0.254 132 86 63
-2124.0317 5133.4189 195.4769 0.228 -0.397 -0.889 97 71 58
-2435.1890 5999.8716 211.4670 0.127 -0.424 -0.897 95 72 58
-2133.3943 5556.2490 98.1128 -0.497 -0.703 -0.508 67 39 30
-1865.2920 5010.2803 34.8669 0.480 -0.604 -0.636 240 209 208
-1198.5240 5842.9976 -662.6360 0.263 -0.695 0.670 217 141 128
-1023.4684 4943.8027 -570.0941 0.968 0.020 -0.249 217 141 128
-3025.5310 2723.3452 1444.8965 0.716 -0.413 -0.563 48 41 33
-3282.6919 3115.7478 1536.7323 -0.162 -0.694 0.702 145 81 69
-3262.3091 3135.3472 1516.8379 0.635 -0.207 0.744 137 79 71
-3253.6353 3136.5173 1510.1560 0.632 -0.213 0.745 170 113 106
-3199.5769 3141.0535 1469.1979 0.062 -0.445 0.893 212 187 168
-3096.6196 3304.6206 1352.6420 0.681 -0.402 -0.612 189 161 140
-4000.7178 4911.7651 1618.8827 -0.222 -0.957 0.187 176 134 109
-3364.5979 5837.8267 919.7781 0.457 -0.104 -0.883 192 150 134
-3294.4624 5824.1924 871.4957 -0.057 -0.536 0.842 178 137 119
-2446.5571 5977.8809 208.5305 0.760 -0.647 0.063 100 77 63
-1500.9330 6706.2300 -669.4182 -0.439 -0.887 -0.140 227 157 147
-3008.6355 2691.5969 1430.1110 0.923 -0.269 0.276 42 35 27
-3002.1746 2838.2681 1388.5413 0.261 -0.341 0.903 190 136 121
-3828.5591 4428.2593 1597.1945 0.611 -0.791 -0.021 214 187 176
-4015.2751 4918.2407 1611.5212 -0.225 -0.957 0.182 181 139 114
-2970.3201 5417.5938 717.6428 0.683 -0.729 0.041 102 67 48
-2974.4934 5492.8477 701.8217 0.659 -0.750 0.051 34 24 14
-2968.3943 5503.5054 694.6608 0.648 -0.761 0.034 26 17 8
-3066.7063 5720.5488 712.4828 -0.041 -0.911 -0.412 35 26 17
-2364.8157 6001.9839 125.6193 0.871 -0.323 0.370 31 14 4
-2357.6387 6012.3271 117.7445 0.871 -0.323 0.370 31 14 4
-2161.1802 5589.3833 79.4246 -0.497 -0.703 -0.508 79 51 43
-2116.2432 5520.4727 63.6731 -0.515 -0.738 -0.435 119 89 81
-536.6387 4613.0811 -870.2964 0.238 -0.935 -0.264 238 67 81
-3005.2388 2682.0100 1419.8130 0.922 -0.274 0.274 43 34 27
-2981.3281 2667.1931 1406.0111 0.985 -0.113 0.129 50 40 33
-2982.6221 2677.1453 1404.4409 0.994 -0.110 0.026 58 45 35
-3191.5388 3330.5305 1392.3613 0.491 -0.849 0.197 181 150 129
-3179.8145 3328.3394 1384.3087 0.336 -0.924 0.180 196 164 141
-3087.2043 3277.6501 1329.1552 0.398 -0.583 -0.708 174 146 125
-3179.4888 3511.3765 1337.7197 0.084 -0.744 -0.663 190 162 140
-3759.3621 4421.2139 1533.0361 0.462 -0.133 -0.877 202 172 162
-3846.1714 4560.7886 1561.4229 0.624 -0.583 -0.521 191 161 151
-3819.9993 4589.9219 1534.8311 -0.043 -0.575 -0.817 186 145 120
-3546.9851 4374.6948 1388.9000 0.259 -0.745 0.615 197 161 125
-2995.3401 5449.0386 711.8579 0.723 -0.691 0.022 138 105 86
-3002.1375 5529.6479 696.4356 0.673 -0.683 -0.284 28 18 8
-2990.2112 5529.0107 687.8413 0.676 -0.736 -0.033 20 11 2
-2798.3613 5727.4814 496.7370 0.302 -0.881 0.364 162 114 104
-2175.3904 5606.6079 69.9932 -0.488 -0.736 -0.469 62 34 26
-1774.0665 5076.5117 -90.4027 -0.147 -0.987 0.065 250 238 238
-1637.1484 5149.1411 -209.3125 0.062 -0.992 -0.112 247 243 244
-3424.1282 2960.1013 1645.5526 0.908 -0.401 -0.122 39 36 31
-3000.1260 2705.6653 1399.8224 0.741 -0.560 -0.371 182 66 65
-3147.5903 3176.6663 1387.5801 0.673 -0.463 0.577 195 140 99
-3118.9856 3155.7205 1371.9680 0.888 -0.460 -0.006 193 139 97
-3181.6572 3446.8083 1343.5427 0.877 -0.473 -0.087 195 166 141
-2997.3516 3446.3848 1208.5863 0.999 -0.054 -0.001 205 173 163
-4171.9644 5061.1064 1656.9268 -0.546 -0.837 0.036 188 149 123
-4025.4341 4923.3955 1584.7206 -0.373 -0.911 0.177 191 151 126
-3019.4878 5325.6113 744.7958 0.181 -0.843 -0.506 193 153 136
-1687.8611 3901.4873 132.7067 -0.543 -0.831 -0.119 126 76 59
-2181.2139 5600.6206 60.2385 -0.470 -0.708 -0.528 84 55 46
-1891.9717 5219.3633 -54.3416 0.942 -0.281 0.184 242 227 226
-1237.9548 5627.6680 -637.9177 0.346 -0.893 0.286 232 160 149
-1358.8707 6857.1865 -863.3641 0.339 -0.249 0.907 230 152 138
-3003.2017 2667.5850 1401.6407 0.919 -0.281 0.276 55 1 6
-3004.0715 2703.2676 1393.0841 0.764 -0.549 -0.339 219 60 59
-2837.7563 2631.7839 1289.8392 -0.405 -0.837 -0.368 194 172 169
-3132.8169 3184.3340 1363.3239 0.789 -0.611 0.068 160 120 88
-2938.8486 3376.6042 1171.8987 0.899 -0.404 -0.170 194 153 144
-3019.2517 3488.7515 1201.8217 0.801 -0.587 0.118 185 148 140
-3017.9604 3499.1243 1198.2048 0.897 -0.435 -0.075 189 154 147
-4204.4551 5124.7656 1647.3191 -0.527 -0.849 -0.027 195 165 144
-4022.3557 4923.8242 1565.8809 0.207 -0.663 -0.719 198 165 138
-2421.6663 3350.6621 800.2578 0.040 -0.924 0.379 217 180 159
-2911.6787 5908.4570 499.7339 -0.094 -0.985 0.145 168 120 105
-2457.5344 5591.6787 249.1351 0.585 -0.800 -0.133 130 68 42
-2461.0840 5626.3652 242.7952 0.483 -0.847 -0.221 139 77 51
-2461.4753 5680.0391 229.2534 0.273 -0.299 -0.914 150 89 64
-2343.1362 5543.6821 177.8169 -0.599 -0.636 -0.488 142 84 62
-1957.1992 5171.1084 -8.5128 -0.017 -0.715 0.699 221 186 181
-1943.7682 5159.3677 -15.3129 0.017 -0.739 0.673 251 220 216
-1924.1594 5129.6880 -22.0105 0.016 -0.726 0.687 229 194 191
-1029.2468 4626.7095 -547.0650 -0.239 -0.838 0.490 225 164 156
-779.4360 4369.7642 -663.6067 -0.208 -0.814 0.542 215 141 123
-3008.7510 2658.1948 1397.9751 0.876 -0.482 0.004 55 17 18
-3002.3210 2695.2529 1383.6511 0.820 -0.573 0.006 232 58 64
-2780.1704 2600.7925 1245.9821 0.040 -0.551 -0.834 187 197 191
-2786.9941 2616.4341 1246.9004 -0.142 -0.677 -0.722 183 201 188
-2949.1345 3415.8911 1157.5677 0.953 -0.294 -0.069 184 146 134
-2482.0671 3394.6223 822.0444 -0.162 -0.975 0.154 214 176 155
-2425.4937 3334.8198 796.2736 -0.096 -0.634 -0.767 217 179 158
-2418.5774 3336.7483 790.7222 -0.131 -0.619 -0.775 215 177 156
-1945.9099 5118.2739 -17.3190 0.052 -0.747 0.663 170 134 129
-1929.2296 5097.0801 -23.9918 0.165 -0.709 0.686 228 193 189
-2993.1069 2653.9944 1377.5336 0.618 -0.469 -0.631 114 43 51
-3001.5833 2688.2627 1374.7324 0.889 -0.452 0.070 211 47 58
-2784.2161 2581.7808 1244.2003 -0.205 -0.911 -0.358 106 119 128
-2951.2095 3421.6052 1145.8547 0.911 -0.322 -0.256 182 140 112
-2442.9585 3351.7698 793.7013 -0.227 -0.678 -0.699 221 183 162
-2910.2422 5156.3799 661.4229 -0.214 -0.522 0.825 201 162 145
-2805.5374 5546.7583 482.8130 0.097 -0.366 -0.926 153 125 111
-2883.0078 5808.1572 470.7838 -0.231 -0.940 0.251 157 110 94
-2184.3887 5627.7129 8.8588 -0.377 -0.785 -0.492 211 171 159
-1898.3076 5228.2744 -94.9924 -0.296 -0.321 -0.899 217 197 198
-3367.5234 2908.1479 1572.6836 0.347 -0.920 -0.182 17 17 9
-3327.9053 2880.0195 1551.2915 -0.235 -0.963 -0.128 19 19 11
-3004.7034 2685.0852 1367.6506 0.884 -0.457 0.096 158 38 47
-2786.2363 2603.2700 1230.3207 -0.042 -0.590 -0.806 43 112 142
-3144.3093 3216.3606 1328.8412 -0.213 -0.628 -0.749 49 38 26
-2905.5415 3103.1611 1185.0343 0.670 -0.656 0.347 45 20 5
-2863.8010 3064.8779 1164.7812 0.880 -0.472 0.051 42 18 3
-2980.0959 3244.1755 1202.0164 0.773 -0.123 0.622 32 7 1
-2953.1216 3415.3650 1137.1567 0.867 -0.414 -0.275 173 122 85
-2903.7407 5833.1509 462.3671 -0.092 -0.984 0.151 200 153 137
-1922.5859 5278.4878 -104.9223 -0.296 -0.321 -0.899 235 216 216
-3443.1094 2953.7053 1604.2882 0.922 -0.315 -0.225 18 18 10
-3394.3010 2917.3853 1578.5183 0.878 -0.455 -0.146 18 18 10
-3027.6987 2658.0947 1381.3582 -0.395 -0.899 -0.190 39 18 13
-2779.1548 2564.4443 1225.8057 0.018 -0.748 -0.664 23 78 85
-2774.7163 2568.3318 1221.5464 0.018 -0.748 -0.664 44 107 124
-2796.7161 2633.7366 1220.0975 -0.291 -0.734 -0.613 32 128 177
-2800.5046 2663.8528 1214.8252 0.150 -0.447 -0.882 26 131 188
-3094.9019 3164.3499 1295.2812 0.894 -0.447 0.033 63 50 41
-3022.7263 3094.3760 1261.5074 0.864 -0.408 -0.294 65 52 43
-2870.3892 3044.4402 1164.1777 0.331 -0.883 0.333 25 6 0
-2926.0808 3384.5420 1114.0093 0.580 -0.499 -0.644 181 120 72
-2953.6924 3430.9548 1121.6962 0.847 -0.522 -0.102 180 118 71
-2927.2483 3529.4221 1076.2565 0.560 -0.789 0.253 213 163 122
-3371.1096 4238.9478 1209.5684 -0.385 -0.864 0.325 232 216 203
-2433.0193 3318.5713 773.5020 0.162 -0.987 -0.018 209 171 150
-3048.7529 5341.5688 681.6838 0.180 -0.975 0.132 208 169 152
-3033.1702 5333.8882 672.4133 0.182 -0.976 0.117 208 169 152
-3013.6770 5318.7749 662.2832 0.179 -0.969 0.172 208 169 152
-2816.9341 5629.6533 436.5713 0.381 -0.851 0.361 201 154 138
-2611.2622 5237.9219 391.5728 0.732 -0.651 0.200 200 153 137
-2297.0051 5719.8633 34.9399 0.829 0.231 -0.510 145 105 84
-1910.7598 5249.3892 -120.2197 -0.569 -0.442 -0.693 254 237 237
-1711.5426 5348.8032 -291.3876 0.227 -0.124 -0.966 238 215 221
-2992.2402 2669.0830 1342.5513 -0.127 -0.874 0.469 33 4 4
-2538.6157 2306.0405 1111.2286 0.880 -0.365 -0.305 9 60 72
-2829.6704 2635.5686 1233.7024 0.999 -0.032 -0.038 30 127 176
-3158.0605 3216.1370 1315.8047 0.881 -0.443 -0.168 61 52 42
-2999.1687 3153.9177 1217.3329 0.926 -0.255 0.279 36 17 14
-2873.4070 3040.4641 1156.6415 0.331 -0.883 0.333 19 7 6
-2887.7400 3067.3206 1159.8174 0.296 -0.926 0.234 25 13 9
-2870.1545 3057.2136 1149.7841 0.409 -0.838 0.362 26 13 5
-2910.5425 3486.4963 1063.7445 0.626 -0.686 0.371 217 161 116
-2398.4407 3258.1150 753.8558 -0.049 -0.936 -0.349 180 142 121
-2398.7112 3270.5283 750.7173 0.247 -0.969 0.018 167 129 108
-2544.8337 5167.5718 347.0438 0.914 0.141 -0.379 203 149 132
-2254.6125 5585.6777 24.3376 0.810 0.237 -0.537 149 103 80
-2215.8254 5619.7236 -12.9261 0.974 0.113 0.198 202 162 150
-1877.9946 5158.1030 -133.8253 -0.177 -0.981 0.086 255 237 235
-346.3699 2909.6667 -640.1514 0.433 -0.636 0.639 253 24 70
-3418.4102 2917.3599 1573.5728 0.943 -0.191 0.274 18 18 10
-3001.9722 2663.7900 1340.9043 0.872 -0.478 0.107 13 3 6
-3204.5881 3175.0481 1349.0587 0.872 -0.355 0.337 29 60 77
-3025.9985 3166.2878 1222.2006 0.804 -0.074 -0.590 31 10 7
-2985.9019 3152.1165 1197.0239 0.763 -0.341 0.549 15 6 17
-2868.7671 3048.1011 1140.4332 0.084 -0.951 0.299 23 15 8
-2870.2041 3112.1277 1124.1329 0.776 -0.630 -0.037 25 24 16
-2839.3567 3096.5625 1106.0269 0.485 -0.810 0.330 8 16 5
-2903.2024 3468.0801 1051.6100 0.671 -0.663 0.332 205 144 95
-2892.2476 3477.9785 1041.0022 0.658 -0.720 0.222 212 151 100
-2393.4866 3253.7810 740.8085 -0.226 -0.934 -0.278 148 110 89
-2370.0901 3230.8806 730.0805 0.275 -0.960 -0.050 139 101 78
-2342.3657 3201.3188 718.0248 0.234 -0.847 -0.477 133 94 70
-2322.6355 3183.5337 708.5642 0.699 -0.584 0.413 144 97 74
-2258.2129 3431.0801 594.9048 0.755 -0.653 -0.061 204 168 152
-2482.4451 5583.1963 174.3141 -0.495 -0.869 0.011 174 111 86
-2244.6028 5565.1084 7.1061 0.767 0.234 -0.598 166 118 93
-1778.5389 5588.9321 -336.5979 0.216 -0.119 -0.969 242 225 226
-3402.4229 2895.9136 1556.6572 0.964 -0.167 0.207 20 19 8
-2998.7339 2654.4709 1330.9901 0.918 -0.388 0.079 19 12 20
-2863.8308 2737.7197 1210.8204 0.388 -0.106 -0.916 48 115 157
-2858.7625 2741.4004 1206.1547 0.102 -0.535 -0.839 40 112 153
-2996.3777 3135.4138 1197.9807 0.917 -0.274 0.290 33 18 23
-2930.6714 3112.2729 1156.8387 0.218 -0.967 0.134 20 15 10
-2872.7449 3055.4922 1130.5006 0.573 -0.787 -0.229 21 15 9
-2854.2117 3096.0334 1106.0454 0.622 -0.736 0.266 16 21 12
-2847.0840 3098.0684 1100.3413 0.399 -0.878 0.264 8 16 4
-2833.0354 3102.3577 1089.0231 0.459 -0.822 0.337 4 11 4
-2903.7561 3459.9360 1042.4784 0.548 -0.809 0.214 190 124 69
-2887.3003 3462.6382 1029.8545 0.649 -0.676 0.348 193 126 72
-2872.3755 3455.2324 1021.0962 0.611 -0.744 0.271 192 126 73
-2402.0354 3245.5964 738.6028 -0.304 -0.937 -0.172 95 61 40
-2397.4460 3250.7268 733.8871 -0.212 -0.939 -0.269 93 59 37
-2371.6494 3224.3196 722.4639 0.252 -0.967 -0.041 87 53 30
-2354.9487 3211.2834 713.9600 0.219 -0.831 -0.511 85 49 25
-2807.6272 6007.0752 277.6212 0.657 -0.142 -0.740 188 126 104
-2796.0344 6007.4185 269.1540 0.655 -0.129 -0.744 188 126 104
-3330.2539 2778.0005 1525.9261 -0.385 -0.909 0.160 29 17 1
-3308.7429 2767.1470 1513.4039 -0.354 -0.926 0.133 22 11 0
-3064.5557 2668.9604 1364.3695 0.645 -0.308 -0.699 52 42 32
-3071.4724 2684.2051 1365.1609 0.643 -0.282 -0.712 50 44 32
-2835.6265 3097.7537 1081.3031 0.459 -0.822 0.337 6 8 4
-2819.9988 3100.1018 1069.3895 0.540 -0.782 0.312 9 13 6
-2887.2205 3406.1572 1033.6245 0.558 -0.538 0.631 201 119 53
-2872.9338 3435.1501 1015.3447 0.842 -0.536 0.050 201 119 54
-2744.4768 3420.9612 926.6334 0.158 -0.569 0.807 236 194 164
-2352.7241 3210.9490 701.9817 0.305 -0.823 -0.480 63 29 9
-2375.9851 5055.6108 211.0734 0.525 -0.836 -0.160 193 135 116
-2625.8486 5701.4526 213.4773 -0.045 -0.854 0.519 185 124 100
-2208.3638 5507.6738 -34.1948 0.904 0.174 -0.391 202 160 148
-2119.8572 5350.0210 -54.6186 -0.179 -0.507 0.843 207 165 153
-1912.0126 5249.0825 -176.6930 0.259 -0.903 -0.343 255 235 237
-3743.3474 3108.5891 1720.7216 -0.214 -0.728 0.651 34 25 10
-3237.9636 2819.4336 1437.2217 -0.434 -0.889 -0.149 63 42 37
-2485.2837 3254.2500 774.9121 0.395 -0.905 0.154 212 179 159
-2452.5686 3219.1042 761.1174 0.346 -0.933 -0.102 204 176 159
-2448.8101 3225.3860 756.6700 0.393 -0.917 -0.070 196 173 160
-2435.7520 3229.9746 745.9993 0.582 -0.806 -0.110 174 154 134
-2428.9734 3231.8945 740.5884 0.609 -0.786 -0.101 93 73 48
-2377.3291 3215.0627 708.0904 0.308 -0.949 0.063 43 21 0
-2380.1587 3507.3840 629.0343 0.972 -0.227 0.064 215 177 168
-2353.9202 3491.6702 614.5103 0.125 -0.969 -0.212 206 169 162
-2871.5098 5035.7598 558.6650 -0.169 -0.474 0.864 210 172 161
-2030.1631 5163.7905 -82.3512 0.855 0.029 0.518 222 181 170
-1901.4492 5062.6494 -146.9265 0.828 -0.474 0.300 223 192 195
-954.8864 6116.7134 -1120.5541 0.075 -0.223 -0.972 220 123 107
-3401.2817 2839.0171 1538.3126 -0.285 -0.833 0.474 124 104 79
-3196.9023 2747.4641 1417.0914 -0.544 -0.837 -0.061 66 42 32
-2864.3086 2657.1653 1203.4146 -0.410 -0.904 -0.117 120 127 154
-2934.7251 2819.9141 1208.4949 0.435 -0.132 -0.891 58 117 147
-2957.7368 2872.3196 1210.3730 0.779 -0.607 -0.157 89 150 172
-3169.2908 3253.9260 1255.6490 0.448 -0.615 0.649 26 17 8
-3166.8938 3262.0322 1251.6608 0.439 -0.724 0.532 17 13 8
-2684.5923 3357.8735 878.3938 0.194 -0.580 0.791 196 118 66
-2694.8408 3419.9727 868.3931 0.427 -0.578 0.695 189 132 93
-2453.7219 3212.0835 753.3071 0.400 -0.912 -0.090 214 180 157
-2321.9233 3182.5593 666.8824 0.462 -0.805 -0.373 64 28 12
-2312.5854 3180.2754 660.8130 0.242 -0.836 -0.492 59 23 7
-2290.6560 4870.9233 172.3533 0.453 -0.348 -0.821 201 139 117
-2291.9976 5604.9985 -31.9308 0.651 0.171 -0.740 203 157 133
-2961.3699 2859.9478 1205.9651 0.785 -0.599 -0.159 74 138 163
-2983.8218 2921.8408 1204.6234 0.291 -0.834 -0.469 84 65 45
-3077.1213 3143.6831 1209.0112 0.910 -0.390 0.144 33 21 10
-3166.5754 3253.8403 1242.1134 0.473 -0.701 0.533 19 14 7
-2788.1143 3028.8245 1034.1431 0.693 -0.683 0.231 35 35 33
-2855.4993 3161.9851 1044.9384 0.725 -0.468 -0.506 28 13 7
-2786.6223 3379.1218 934.3623 0.474 -0.556 0.683 202 115 48
-2455.9573 3265.3018 729.3306 -0.345 -0.792 0.504 63 33 12
-2438.9749 3252.4595 720.7720 -0.345 -0.792 0.504 58 28 7
-2543.7278 3678.9768 675.6968 0.977 -0.168 -0.132 210 182 169
-2346.6492 4981.5806 167.3173 0.738 -0.521 -0.429 206 144 122
-1423.3728 3117.8176 30.4692 0.383 -0.553 -0.740 171 116 86
-1298.9934 5683.7749 -781.7831 0.172 -0.107 -0.979 240 189 185
-623.0193 4388.8462 -901.5944 -0.233 -0.972 -0.041 212 91 74
-3336.6394 2794.0391 1482.8075 0.883 -0.046 -0.467 72 41 24
-3183.6775 2731.2683 1391.1514 -0.352 -0.892 -0.284 82 51 46
-3162.1125 2719.6694 1379.0103 -0.383 -0.872 -0.305 56 29 25
-2880.5930 2661.2590 1194.1013 -0.413 -0.907 -0.079 156 144 164
-2985.9141 2917.1304 1196.8217 0.601 -0.700 -0.386 103 78 54
-2982.1572 2922.7124 1192.5474 0.601 -0.700 -0.386 103 60 30
-3161.6528 3240.5554 1230.7590 0.521 -0.657 0.545 21 13 5
-2865.4612 3166.1184 1039.8998 0.726 -0.497 -0.476 19 5 1
-2677.7107 3319.2786 862.0236 0.692 -0.505 0.516 215 116 49
-2635.5676 3368.2837 817.9433 0.991 -0.078 0.106 203 124 67
-2601.6416 3344.9253 800.2943 0.903 -0.245 0.354 204 124 64
-2568.0637 3309.7502 786.2501 0.796 -0.367 0.481 203 124 68
-2463.0186 3254.8552 726.6537 -0.470 -0.859 -0.204 78 40 19
-2379.1226 3226.6929 674.6030 0.398 -0.910 -0.116 55 19 5
-2496.5251 3554.8821 665.4337 0.679 -0.639 -0.361 214 181 166
-2497.1880 3569.1682 661.8511 0.822 -0.562 -0.092 214 180 168
-2357.0100 4987.9170 158.6205 0.881 -0.419 -0.218 199 137 115
-2135.1604 5308.8491 -91.3062 -0.192 -0.542 0.818 203 161 149
-2034.7703 5167.4160 -122.9956 0.812 -0.584 -0.002 223 185 184
-1755.8660 5304.1948 -361.4629 0.840 -0.012 -0.543 250 235 242
-1435.1335 6346.1270 -886.9155 0.165 -0.120 -0.979 240 189 185
-4458.9517 3349.1929 2114.9443 0.841 -0.240 0.485 201 198 181
-3306.1636 2751.1414 1462.4958 0.972 0.026 -0.234 77 38 19
-2868.6802 2660.2341 1175.9570 0.134 -0.507 -0.852 187 181 194
-2857.5684 2657.5566 1168.7847 0.186 -0.499 -0.847 215 206 219
-2857.7725 2666.4705 1166.3796 0.207 -0.503 -0.839 198 189 200
-2975.1143 2851.5334 1197.2532 0.259 -0.876 -0.408 112 164 179
-2991.3486 2906.4370 1193.1398 0.598 -0.696 -0.398 132 129 113
-2987.6455 2912.0481 1188.8884 0.598 -0.696 -0.398 126 98 69
-2987.5977 2921.5813 1186.1261 0.601 -0.700 -0.386 133 86 51
-2765.5295 2987.1711 1008.7027 0.861 -0.398 0.317 16 17 12
-2558.6421 3275.9995 778.2407 0.940 -0.311 0.143 212 122 53
-2461.3931 3243.7319 717.9965 -0.390 -0.895 -0.215 74 27 8
-2574.4602 3678.8970 674.2442 0.850 0.123 0.512 214 181 166
-2572.8894 3703.9119 665.9635 0.849 0.120 0.514 207 191 175
-2383.7417 4986.7319 163.7238 0.487 -0.532 -0.693 206 151 131
-2735.8418 5905.9766 152.2159 0.524 -0.385 -0.760 204 142 119
-2138.0408 5296.1855 -100.3704 -0.192 -0.542 0.818 203 161 149
-2040.6375 5215.1255 -146.7617 0.545 -0.609 0.577 233 195 194
-2903.4470 2545.0261 1224.0674 0.352 -0.928 -0.124 10 10 8
-2873.8733 2667.9739 1167.5247 0.223 -0.465 -0.857 195 194 200
-2876.6885 2679.5886 1166.1829 -0.235 -0.941 -0.245 199 199 203
-2982.0571 2852.0706 1191.5874 0.387 -0.588 0.710 121 167 181
-2967.6545 2846.2900 1182.9835 0.358 -0.442 0.822 136 182 195
-2967.5044 2864.8506 1177.5242 0.215 -0.899 -0.382 148 166 160
-2992.4551 2919.8252 1179.4648 0.589 -0.706 -0.393 151 101 63
-2897.0020 3209.9011 1027.7488 0.749 -0.659 0.070 152 104 69
-2573.8357 3681.3455 661.3450 0.842 0.122 0.525 212 182 167
-2784.0854 5969.2539 151.5411 0.582 -0.549 -0.600 210 150 126
-2037.4258 5134.4858 -140.2092 0.814 -0.581 0.006 223 185 184
-2052.5247 5201.2798 -148.7023 0.537 -0.655 0.531 230 192 191
-2043.9564 5203.8267 -155.5470 0.545 -0.609 0.577 233 195 194
-3518.2175 2813.6411 1573.9343 0.647 -0.644 -0.409 127 91 64
-3259.1409 2704.6633 1421.1818 0.175 -0.856 0.486 81 30 19
-2885.2158 2673.2771 1164.1344 0.215 -0.474 -0.854 176 179 182
-2984.8142 2838.9277 1186.9011 0.493 -0.532 0.688 182 211 223
-3068.8286 3125.0833 1163.5629 -0.129 -0.949 -0.286 16 16 11
-2946.7224 3250.7307 1040.1390 0.447 -0.509 0.735 126 86 62
-2933.4558 3245.7900 1032.1311 0.936 -0.348 -0.057 150 95 59
-2423.9250 5087.1069 134.4510 -0.277 -0.664 0.695 212 154 134
-2316.0149 4976.3076 89.8308 -0.134 -0.600 0.789 209 150 130
-2498.4792 5545.4976 54.3365 -0.379 -0.785 0.491 202 142 118
-2181.3914 5046.0991 -26.2744 -0.285 -0.881 0.378 185 133 107
-1861.2346 5393.3271 -355.0535 0.775 -0.369 -0.513 255 243 248
-3564.0474 2847.3308 1585.5549 0.637 -0.591 -0.494 112 77 55
-3282.4634 2719.7458 1422.8348 0.898 0.033 -0.438 112 52 40
-2801.6626 2507.3335 1143.4009 0.993 -0.063 -0.096 61 75 79
-2880.2878 2679.4180 1148.8904 -0.178 -0.966 -0.189 180 166 172
-2994.1682 2832.7065 1184.9312 0.095 -0.555 0.827 210 222 227
-2948.9570 3245.3679 1032.0089 0.450 -0.521 0.726 168 98 50
-2424.3862 3153.3193 686.2415 0.820 -0.528 0.221 200 129 82
-2872.2690 5091.4209 437.1228 0.687 -0.699 -0.198 215 177 165
-2658.2271 5849.6753 63.0784 -0.357 -0.772 0.526 201 151 136
-1858.4175 5361.4780 -362.2835 0.746 -0.248 -0.618 253 238 241
-1601.0037 5076.5957 -461.7844 0.370 -0.038 -0.928 242 186 189
-958.0031 5740.2026 -1112.9019 0.361 -0.925 0.122 218 135 122
-950.1306 5743.3052 -1119.4034 0.383 -0.911 0.152 213 125 111
-942.1444 5745.6011 -1125.7499 0.383 -0.911 0.152 207 119 104
-429.2165 2639.1646 -580.8373 0.767 -0.046 -0.640 226 79 85
-3519.3452 2802.1467 1555.9695 0.436 -0.751 -0.496 111 77 57
-3289.7769 2703.0725 1422.3777 0.170 -0.985 -0.005 122 65 46
-3265.3870 2698.1477 1406.5327 0.447 -0.770 0.456 113 52 39
-2955.1194 2619.0405 1209.8201 0.844 -0.360 0.399 19 33 35
-2195.0396 4706.9346 55.0142 0.344 -0.913 -0.221 204 156 142
-1891.6211 5132.5566 -285.6942 0.455 -0.613 -0.646 251 222 224
-964.4981 5738.2124 -1121.8306 -0.043 -0.993 0.107 221 138 126
-956.9889 5743.7720 -1128.7958 -0.047 -0.990 0.132 218 130 117
-949.7659 5751.2935 -1136.1365 -0.150 -0.987 0.059 212 124 110
-927.6684 5656.9336 -1123.9797 -0.089 -0.881 0.464 207 119 105
-3294.2825 2692.5195 1418.1729 0.154 -0.877 0.455 127 72 52
-3288.8503 2696.1680 1413.2437 0.167 -0.952 0.257 123 66 47
-3263.9993 2690.8206 1397.2405 0.440 -0.769 0.463 114 52 36
-3209.4678 2658.3289 1368.2910 0.173 -0.841 0.512 115 46 33
-3206.4480 2732.7161 1344.0527 0.228 -0.495 -0.839 78 26 15
-2904.1277 2665.0044 1150.1587 -0.054 -0.727 0.684 192 181 177
-3108.5479 3146.4016 1151.8434 0.914 -0.065 -0.399 14 18 4
-2855.4221 3045.3013 1002.6937 0.393 -0.860 -0.325 112 89 66
-2855.8381 3066.3413 996.7372 0.461 -0.821 -0.336 132 101 72
-2395.0278 3072.6260 668.6642 0.531 -0.095 0.842 196 115 50
-2547.4758 5757.3369 -21.0483 -0.441 -0.805 0.398 204 163 145
-956.6322 5751.7749 -1145.5477 -0.150 -0.987 0.059 219 131 117
-935.1161 5662.1641 -1134.1554 -0.025 -0.884 0.467 213 125 111
-4286.5957 3091.9124 1989.2920 0.149 -0.751 -0.644 203 200 185
-3184.7285 2580.3003 1363.8412 0.547 -0.546 0.635 133 76 57
-3292.4197 2693.3181 1406.1102 0.212 -0.855 0.473 125 66 48
-3266.3750 2686.9126 1389.6245 0.502 -0.726 0.469 115 53 34
-3151.5850 2641.4731 1322.1143 -0.203 -0.511 -0.835 110 42 23
-3229.2627 2765.3445 1339.9279 0.065 -0.874 0.481 74 32 10
-2791.6279 2479.9844 1116.1031 0.988 -0.014 -0.156 46 60 62
-2918.3584 2664.4531 1150.4413 0.717 -0.265 0.644 195 185 180
-2924.8601 3171.3452 1003.3306 0.705 -0.674 -0.222 155 97 65
-2352.2876 3004.4241 648.7134 0.816 0.060 0.575 193 109 45
-2437.5464 3215.5530 645.7691 0.863 -0.381 -0.331 163 116 93
-2446.6021 3423.2686 590.0018 -0.039 -0.356 0.934 171 115 82
-2447.9871 5574.8169 -52.9431 -0.556 -0.649 0.519 207 166 148
-2428.0022 5551.8960 -60.2044 -0.556 -0.649 0.519 207 166 148
-941.1776 5657.9238 -1142.5121 -0.025 -0.884 0.467 217 129 115
-568.6573 4313.6606 -1003.4148 -0.068 -0.256 -0.964 255 14 62
-3455.1230 2685.6421 1512.6746 -0.058 -0.598 0.799 131 111 100
-3308.7676 2693.3896 1407.1168 0.133 -0.562 0.817 133 74 56
-3179.1130 2669.2773 1322.9425 0.079 -0.478 -0.875 118 47 25
-3223.8364 2719.1475 1339.4509 0.136 -0.366 -0.921 114 42 20
-2919.0349 2658.9197 1142.6360 0.767 -0.294 0.571 216 200 191
-2842.3999 3066.4414 965.7326 0.811 -0.585 0.020 113 66 43
-2855.7654 3166.6621 944.9460 0.832 -0.243 0.499 145 84 50
-2474.6675 5619.4736 -63.2751 -0.548 -0.645 0.533 212 171 153
-2303.7102 5278.4609 -81.0449 0.933 -0.359 0.002 212 169 152
-2211.0776 5074.7671 -84.9705 0.872 -0.451 0.192 212 169 152
-210.2699 1397.8411 -387.6415 0.120 -0.248 -0.961 242 96 122
-4335.4390 3116.6514 1990.8317 -0.263 -0.910 0.319 186 183 168
-3797.5918 2924.9751 1670.4003 -0.063 -0.619 0.783 120 109 99
-3223.4238 2644.6206 1351.3265 0.463 -0.767 0.445 124 59 30
-3227.8594 2657.0237 1350.6830 0.556 -0.731 0.395 127 58 26
-3403.7468 2833.8606 1420.8081 -0.380 -0.852 0.359 125 58 28
-2850.9824 3153.0410 934.7553 0.830 -0.248 0.499 107 56 30
-2863.5581 3178.9551 935.7396 0.881 -0.237 0.409 152 93 60
-2246.8496 3447.6282 420.0079 0.537 -0.161 -0.828 27 19 17
-2681.3455 5432.5181 123.1787 -0.617 -0.733 0.286 218 169 155
-2430.9009 5021.7119 71.6108 0.098 -0.493 0.864 219 171 159
-2088.3770 4799.7402 -102.1179 -0.329 -0.766 0.552 217 174 157
-4348.4341 3110.5510 1989.0532 -0.579 -0.773 -0.258 176 173 158
-3276.3977 2660.9673 1373.2549 0.189 -0.691 0.698 128 71 52
-3249.4558 2645.2993 1359.1150 0.427 -0.805 0.412 120 63 45
-3247.2310 2660.0884 1353.0288 0.803 -0.534 0.264 124 60 26
-3249.6860 2679.2070 1348.9071 0.604 -0.759 0.243 125 59 25
-3286.5103 2721.1216 1361.9637 0.577 -0.515 0.634 127 61 27
-3152.0386 2657.6074 1286.8983 0.239 -0.756 -0.610 128 56 26
-3053.0161 2582.3137 1240.3445 0.245 -0.961 0.125 108 50 14
-2821.4224 2633.5366 1061.9441 0.263 -0.945 0.193 146 83 54
-2811.3494 2631.7615 1055.4088 0.295 -0.950 -0.104 138 82 57
-2796.0837 2633.1899 1044.2454 0.869 -0.468 0.160 205 183 159
-2916.8240 2794.9053 1079.6296 0.550 -0.681 -0.483 205 183 160
-2532.0955 3162.7605 696.7905 0.956 -0.104 0.273 203 119 55
-2479.9258 3124.6755 671.7795 0.138 -0.921 0.365 203 119 55
-2397.5913 3420.8447 523.3488 0.587 -0.341 -0.735 191 95 45
-2346.6196 3469.5183 472.6466 0.079 -0.250 -0.965 27 9 3
-2259.9756 3472.9026 410.7290 -0.380 -0.853 -0.359 18 10 8
-2490.2109 5616.8662 -83.1715 -0.189 -0.694 0.695 224 183 165
-2749.1628 1700.2148 1288.9886 0.768 -0.389 0.509 194 181 165
-3610.6787 2747.7246 1570.5923 0.189 -0.733 -0.653 117 110 100
-3509.4072 2688.5420 1517.7920 0.211 -0.792 -0.573 129 112 102
-3434.6680 2658.8972 1474.5028 0.030 -0.795 -0.606 128 111 99
-3459.3882 2756.5183 1461.7729 0.143 -0.587 0.797 136 108 91
-3293.4658 2712.7097 1358.8931 0.716 -0.552 0.427 128 63 25
-3287.2607 2724.2930 1350.9734 0.543 -0.645 0.537 134 70 33
-3290.2366 2735.6421 1349.5649 0.683 -0.611 0.399 135 70 31
-3171.3997 2712.3328 1273.3954 0.729 -0.073 -0.681 97 52 30
-2855.3184 2619.1304 1080.4119 0.900 -0.330 0.285 118 88 49
-2871.5708 2714.0583 1062.5725 0.815 -0.479 0.325 218 190 172
-2928.5903 2809.8267 1073.0673 0.688 -0.646 -0.331 210 185 162
-2929.9121 3012.6775 1011.5152 0.050 -0.977 0.209 130 72 47
-2793.4270 3027.1665 911.3257 0.508 -0.833 -0.219 154 131 123
-2819.5312 3099.7104 907.2907 0.986 -0.162 0.032 80 36 17
-2836.0940 3130.1594 909.5287 0.951 -0.184 0.250 95 40 14
-2861.5200 3171.4819 914.6343 0.923 -0.211 0.323 133 68 33
-2260.5667 3463.8022 403.1065 0.883 -0.468 -0.038 12 5 4
-2451.0979 4945.5000 80.3686 -0.316 -0.853 0.415 231 182 169
-2203.9209 5169.3623 -161.9451 0.127 -0.831 0.542 230 191 179
-374.3054 2036.8746 -480.3613 0.544 -0.161 -0.823 229 94 92
-4419.8608 3123.5884 2009.4725 -0.372 -0.766 -0.523 173 167 155
-4254.2910 3090.3281 1903.8792 0.745 -0.396 0.537 175 170 161
-4277.5161 3118.1086 1911.5212 0.856 -0.375 0.356 172 167 158
-3377.5964 2564.2302 1453.3201 0.428 -0.720 0.546 119 110 100
-3409.2773 2631.5220 1454.6261 0.667 -0.207 0.715 119 108 96
-3388.4663 2671.8931 1427.5347 0.580 -0.790 -0.197 121 106 96
-3279.8123 2652.1018 1357.6082 0.197 -0.935 0.294 114 62 47
-3273.6951 2655.0396 1352.4144 0.339 -0.900 0.273 117 58 47
-3273.4026 2663.1765 1349.6858 0.059 -0.927 -0.371 122 60 40
-3301.9534 2714.2690 1353.8252 0.739 -0.589 0.328 145 79 44
-3213.2144 2754.0769 1279.3541 0.635 -0.219 -0.741 116 65 44
-2879.1045 2715.4797 1057.4266 0.801 -0.492 0.341 224 198 185
-2827.3159 2670.4893 1035.1263 0.890 -0.289 -0.352 225 196 179
-2914.6858 2779.4890 1062.4813 0.546 -0.702 -0.458 213 174 149
-2958.3823 2834.4727 1076.0170 0.192 -0.919 -0.345 224 181 156
-2820.3611 3093.0325 899.1917 0.986 -0.162 0.032 95 35 7
-2835.4683 3121.6555 900.8893 0.951 -0.184 0.250 117 47 12
-2860.8262 3162.7861 905.8835 0.926 -0.224 0.305 138 58 15
-2873.9036 3200.1455 903.4505 0.896 -0.252 0.367 198 103 44
-2371.0054 3274.6577 528.2748 0.177 -0.825 -0.536 125 71 51
-2334.8472 3255.9683 508.7588 -0.009 -0.993 -0.115 203 112 55
-2270.3860 5267.3701 -160.2718 -0.110 -0.791 0.602 232 192 185
-2037.2750 4989.1553 -237.1676 0.755 -0.373 0.539 238 198 194
-3362.1711 2537.7844 1440.4946 0.555 -0.178 0.812 93 86 77
-3296.2642 2703.0688 1342.8129 0.765 -0.547 0.341 156 90 56
-3193.1565 2729.0298 1262.6556 0.917 -0.372 -0.146 124 69 46
-2856.6748 2557.9907 1080.9595 0.876 -0.132 -0.463 111 93 81
-2874.2405 2704.0576 1047.6084 0.639 -0.743 0.201 235 209 198
-2829.0283 3106.2183 890.3965 0.944 -0.178 0.277 168 92 52
-2835.6453 3135.2949 885.9378 0.764 -0.210 0.610 191 102 48
-2304.7690 5592.2817 -252.4853 -0.252 -0.715 -0.652 238 197 193
-1866.0721 4896.1265 -341.5803 -0.286 -0.731 0.620 244 202 203
-1787.1909 5308.7627 -525.5911 0.523 0.030 -0.852 251 203 203
-1821.0800 5447.7212 -545.3156 0.512 0.033 -0.858 245 197 197
-4238.0630 3064.4224 1875.5258 0.705 -0.579 0.409 174 171 162
-3314.9260 2646.1914 1363.2200 -0.017 -0.924 0.382 74 36 14
-3301.2090 2642.4778 1354.8208 -0.017 -0.924 0.382 87 42 22
-3290.5505 2641.4187 1347.7201 0.183 -0.939 0.291 114 61 42
-3275.7891 2653.3923 1333.6584 0.113 -0.934 -0.340 151 85 62
-3076.9258 2605.8206 1209.9215 0.435 -0.881 0.189 143 80 46
-2826.9041 2506.3889 1066.8152 0.499 -0.690 -0.525 58 50 43
-2830.1543 2525.8821 1062.9508 0.755 -0.407 -0.514 102 84 72
-2898.0176 2740.0747 1042.9117 0.814 -0.040 -0.579 194 157 136
-2834.1697 3052.7861 900.0210 0.353 -0.739 0.573 155 92 50
-2774.8298 3013.3284 871.0446 0.043 -0.931 0.363 183 113 68
-2818.7480 3107.2063 872.1479 0.806 -0.082 0.586 196 109 54
-2299.1284 2927.6516 566.2085 0.598 -0.054 0.800 192 127 75
-2338.4478 3219.5952 501.8055 0.913 -0.347 0.216 187 113 67
-2235.6479 3445.0835 359.1821 0.214 -0.974 0.075 19 15 14
-1790.3225 2706.0078 281.0498 0.674 -0.358 -0.646 27 21 21
-3434.1572 2594.2815 1452.2700 -0.596 -0.589 -0.545 34 28 17
-3421.6282 2600.0708 1441.7142 -0.585 -0.590 -0.556 35 27 14
-3426.9707 2645.5435 1431.0319 -0.490 -0.819 -0.297 36 24 10
-3417.1694 2645.5061 1424.2205 0.443 -0.809 -0.387 35 18 4
-3406.2178 2644.4683 1416.9249 0.662 -0.128 -0.739 39 16 3
-3404.2727 2651.0989 1413.4708 0.665 -0.128 -0.736 40 16 3
-3399.4141 2655.2517 1408.7732 0.351 -0.472 0.809 40 16 2
-3396.9004 2661.4241 1405.0684 0.385 -0.348 0.855 41 17 2
-3304.6445 2656.2773 1342.4734 0.400 -0.457 0.794 137 72 50
-3330.1045 2695.6621 1347.7240 0.793 -0.423 0.438 163 93 69
-3356.3726 2727.5481 1355.9122 -0.346 -0.937 0.049 168 99 67
-3240.2200 2699.9397 1283.7950 0.330 -0.598 0.730 157 83 44
-3038.1196 2638.6606 1162.5082 0.698 -0.095 -0.710 22 22 20
-2274.4707 2906.1816 546.1576 0.637 -0.027 0.770 187 128 87
-2396.4084 3310.0308 503.1427 -0.035 -0.787 -0.616 200 115 58
-1783.5405 2707.7483 267.2366 0.362 -0.803 -0.473 39 33 33
-927.0746 5534.7251 -1224.3376 -0.264 -0.716 0.646 220 116 100
-4249.5283 3097.9592 1847.7931 -0.363 -0.932 -0.027 56 53 42
-3335.4309 2694.3652 1341.3218 0.768 -0.394 0.505 163 89 62
-3294.9614 2692.2698 1313.8693 0.771 -0.537 0.341 164 98 64
-3290.1111 2696.4214 1309.1750 0.833 -0.302 0.464 165 99 65
-2797.7959 2514.7825 1025.0059 -0.432 -0.791 -0.433 104 70 44
-2745.7046 3014.6035 829.4243 0.805 -0.564 0.183 185 101 51
-2765.7385 3048.9763 832.3842 0.993 -0.098 -0.070 191 107 57
-2451.4177 3446.5947 487.1801 0.932 -0.167 -0.322 202 112 53
-2230.7715 3430.1089 339.1186 0.456 -0.873 0.173 19 13 13
-989.0300 5477.2944 -1176.5365 -0.099 -0.806 -0.583 228 140 127
-329.7639 2044.0958 -539.8400 -0.060 -0.522 0.851 255 127 140
-4274.4004 3101.4004 1851.3569 0.101 -0.777 0.621 28 23 15
-4223.2988 3080.1091 1822.7502 0.430 -0.852 0.299 24 24 19
-3397.4556 2658.4556 1385.3523 0.164 -0.587 0.793 105 71 43
-3377.9441 2734.5142 1347.4009 -0.420 -0.902 -0.101 143 73 41
-3293.7427 2676.7021 1307.5629 0.608 -0.562 0.561 140 74 39
-3127.8989 2686.1892 1189.4941 0.103 -0.745 0.659 31 34 18
-2812.6484 2523.6687 1023.0270 -0.427 -0.793 -0.435 92 59 34
-2804.2014 2523.4587 1017.2360 -0.308 -0.753 -0.582 48 22 7
-2809.2534 2586.6709 1000.4449 -0.300 -0.894 0.334 190 172 160
-2860.5947 2921.5879 928.5257 0.390 -0.898 0.202 184 94 42
-2765.0894 3030.3611 827.3643 0.931 -0.338 0.140 205 124 76
-2771.3994 3048.2222 826.0063 0.994 -0.102 0.024 214 135 89
-2306.0139 3156.2031 468.5647 0.840 -0.257 -0.478 197 109 53
-2435.3040 3387.3943 484.0096 0.078 -0.962 -0.263 204 118 60
-2416.6057 3421.6848 460.0320 0.861 -0.213 -0.462 243 152 111
-2222.0449 3379.4282 338.6589 0.958 -0.044 -0.284 22 18 17
-2232.7344 3449.9360 323.4357 0.604 -0.757 -0.249 31 25 25
-2263.8679 3655.7117 278.9627 0.984 0.094 -0.148 224 184 179
-992.1769 5407.3408 -1165.4073 -0.101 -0.962 -0.256 230 147 135
-988.1044 5431.3149 -1175.9290 0.004 -0.948 -0.319 228 140 127
-971.5214 5377.9756 -1170.3053 -0.277 -0.923 -0.267 223 134 120
-952.5800 5616.8423 -1260.1324 -0.239 -0.800 0.550 219 112 97
-4251.0649 3085.9280 1827.5880 0.492 -0.722 0.486 12 14 11
-3367.7148 2627.1079 1364.3826 -0.271 -0.889 0.369 106 68 38
-3341.9648 2613.2327 1351.0416 -0.263 -0.889 0.375 113 76 44
-3188.7158 2702.7109 1216.0311 0.931 0.122 -0.344 100 53 30
-3104.6394 2666.6851 1169.4728 -0.109 -0.751 0.652 26 27 13
-3092.1470 2663.3835 1161.8920 -0.183 -0.728 0.661 25 23 12
-2855.1812 2518.8787 1044.5577 0.619 -0.497 -0.608 76 63 55
-2825.4937 2530.5220 1020.2428 -0.424 -0.796 -0.432 77 46 23
-2815.2588 2528.5688 1013.7889 -0.424 -0.796 -0.432 43 18 5
-2914.8191 2758.5537 1008.3727 0.231 -0.830 0.508 179 121 86
-2918.9661 2780.9478 1004.0051 0.617 -0.132 0.776 191 111 58
-2845.1096 2897.2786 915.2755 0.439 -0.888 0.136 176 90 38
-2766.6089 3024.6824 819.7517 0.675 -0.322 0.664 221 141 93
-2771.9207 3041.3003 818.0575 0.994 -0.102 0.024 205 130 84
-2440.6606 3386.1802 477.2635 -0.144 -0.905 -0.401 211 125 68
-2455.4636 3433.7556 472.1332 0.933 -0.174 -0.316 213 123 66
-2454.2966 3444.6580 467.8013 -0.123 -0.332 -0.935 210 124 71
-2458.0249 3463.1208 464.4145 -0.113 -0.324 -0.939 231 139 99
-2224.3928 3373.5527 331.6310 0.958 -0.044 -0.284 22 18 17
-952.4721 5626.1646 -1276.9823 -0.285 -0.805 0.520 219 113 97
-4227.2705 3051.3418 1809.8555 0.771 -0.376 0.514 56 64 64
-4254.8047 3091.7036 1815.7468 0.542 -0.170 0.823 35 49 53
-4245.1025 3093.5269 1808.4497 0.539 -0.170 0.825 22 41 47
-4176.0347 3057.7656 1772.3630 0.548 -0.189 0.815 14 35 43
-4172.6357 3092.7595 1758.6274 0.593 -0.159 0.789 8 23 28
-3170.6384 2705.5034 1192.2975 0.268 -0.833 0.484 46 20 0
-3132.2849 2678.1091 1174.7108 0.086 -0.800 0.593 41 22 2
-2821.8672 2529.2412 1008.6653 -0.330 -0.812 -0.482 31 9 1
-2894.9563 2627.0459 1027.3414 -0.309 -0.625 -0.717 134 115 103
-2907.7590 2744.7532 997.8857 0.423 -0.753 0.503 185 127 92
-2862.9553 2724.8542 973.4031 0.799 -0.255 0.545 190 112 58
-2863.9001 2892.0105 919.6631 0.081 -0.985 0.155 175 96 45
-2847.8745 2893.3833 908.1434 0.434 -0.894 0.115 160 82 35
-2639.5737 2827.1917 785.7540 0.988 -0.142 -0.063 226 126 61
-2772.4404 3034.4006 810.1340 0.994 -0.102 0.024 181 106 57
-2410.7366 2758.3279 650.0443 0.938 -0.343 -0.049 163 70 11
-2361.4272 3209.8623 469.0439 0.914 -0.126 -0.385 187 104 54
-2431.5417 3350.7991 471.6295 0.941 -0.259 -0.216 210 119 62
-2481.8772 3515.9194 452.6791 -0.052 -0.233 -0.971 124 48 23
-2505.0754 3578.0500 448.4910 -0.089 -0.294 -0.952 41 1 0
-2223.4478 3362.2520 324.1175 0.931 -0.005 -0.364 22 18 17
-2122.7981 3321.8035 267.7342 0.969 -0.221 0.113 55 46 37
-1023.8044 5375.8745 -1160.0256 0.728 -0.303 -0.615 226 147 140
-4209.0244 3067.9084 1779.4109 0.522 -0.181 0.834 89 120 139
-4146.1484 3027.5710 1749.2609 0.547 -0.190 0.815 77 107 125
-4143.8818 3044.3811 1742.1912 0.567 -0.179 0.804 55 86 104
-4146.5884 3055.8882 1740.2883 0.614 -0.150 0.775 47 79 99
-3295.4458 2569.9377 1312.4683 -0.305 -0.899 0.314 80 38 11
-3169.5159 2698.3223 1183.5638 0.275 -0.961 0.001 97 37 4
-3138.8679 2678.1978 1169.0192 0.061 -0.858 0.510 97 39 5
-2906.3984 2640.8918 1020.9135 -0.404 -0.707 -0.580 149 133 120
-2921.7986 2734.9836 1000.7128 0.759 -0.562 -0.330 175 130 105
-2856.6917 2886.6497 906.1294 0.077 -0.986 0.148 90 40 7
-2851.6868 2890.6609 901.3640 0.434 -0.894 0.115 89 38 12
-2775.9185 3010.6680 809.7983 0.690 -0.615 -0.382 199 107 45
-2771.6401 3015.7502 805.1830 0.710 -0.597 -0.374 198 107 46
-2768.4429 3022.1333 800.8870 0.995 -0.089 -0.042 197 108 47
-2794.6455 3063.7380 805.3296 0.978 0.024 -0.206 197 107 47
-2423.4229 2757.7380 649.5468 0.440 -0.199 0.876 167 75 18
-2412.7288 2753.8162 643.4561 0.938 -0.343 -0.049 155 65 8
-2434.4929 3346.0483 464.4685 0.941 -0.259 -0.216 213 118 63
-2443.7195 3372.2231 462.2577 0.856 -0.377 0.354 219 127 76
-2441.7200 3394.0540 453.7274 -0.099 -0.340 -0.935 206 124 79
-2505.3184 3555.3230 444.7622 -0.000 -0.977 0.211 59 18 7
-1017.4050 5963.0322 -1370.0933 -0.129 -0.800 -0.586 213 108 91
-329.0648 1954.6938 -531.8049 0.117 -0.384 0.916 255 125 137
-4107.3311 2622.2778 1843.9095 0.101 -0.945 0.310 170 167 150
-3533.1553 2708.0571 1420.3812 -0.070 -0.668 0.741 77 45 26
-3302.8855 2570.6191 1307.1898 -0.305 -0.899 0.314 77 35 11
-3196.4602 2666.1040 1202.4449 -0.228 -0.956 -0.185 152 75 32
-3176.3752 2656.1143 1191.9131 0.385 -0.744 -0.546 151 77 35
-3171.4419 2694.0066 1176.0226 0.268 -0.963 -0.034 127 59 21
-3137.9229 2671.2390 1160.4564 0.075 -0.859 0.506 127 59 21
-2960.5349 2562.1301 1074.3260 0.949 -0.295 -0.113 77 51 43
-2930.9800 2659.3079 1021.9380 -0.406 -0.702 -0.585 121 105 92
-2927.7935 2734.7361 994.8729 0.348 -0.783 0.515 178 133 107
-2873.8809 2714.5481 964.4180 0.274 -0.767 0.580 177 111 68
-2936.9604 2910.3228 943.2853 0.872 -0.207 -0.445 184 108 68
-2839.3865 2860.6111 892.5105 0.176 -0.978 0.110 71 40 15
-2855.4968 2887.9402 894.5889 0.434 -0.894 0.115 69 38 19
-2636.0750 2809.1799 769.5164 0.972 -0.204 -0.116 199 107 44
-2784.6846 3003.5000 807.7395 0.710 -0.593 -0.380 199 107 44
-2445.4487 3341.0479 462.9179 0.847 0.015 -0.531 216 117 60
-2452.6091 3363.9966 460.2799 0.890 -0.030 -0.455 218 123 69
-2268.3821 3634.5996 244.2356 0.967 0.090 -0.237 215 180 182
-858.4546 4752.1743 -1094.8203 -0.265 -0.541 -0.798 222 117 104
-4285.4087 2740.8621 1915.5657 -0.122 -0.791 0.599 158 153 134
-4009.7112 2925.0144 1665.0209 0.441 -0.418 0.795 126 160 185
-4031.6145 2960.4893 1668.2955 0.712 -0.530 0.462 117 149 169
-3525.0076 2695.3025 1408.2384 -0.035 -0.659 0.751 75 45 27
-3478.0952 2664.3147 1386.2913 -0.007 -0.653 0.758 81 45 23
-3344.2170 2592.1226 1318.2688 -0.263 -0.889 0.374 73 36 14
-3344.1184 2608.3184 1312.8254 -0.196 -0.936 -0.293 79 35 9
-3324.8306 2616.2756 1296.9324 -0.455 -0.889 0.045 65 25 3
-3177.0181 2693.0979 1169.8770 0.275 -0.961 0.017 140 68 28
-3173.5291 2698.4104 1165.7166 0.247 -0.962 -0.116 137 67 27
-2948.0808 2661.5767 1023.0431 -0.203 -0.592 -0.780 113 96 86
-2887.3174 2713.2471 964.1447 0.393 -0.757 0.522 175 117 79
-2942.0591 2899.3894 939.9741 0.881 -0.192 -0.433 147 77 39
-3000.5303 2981.9404 952.7486 0.732 -0.252 -0.633 88 42 17
-2423.9758 2763.4802 629.1238 0.737 -0.482 -0.474 144 60 7
-2403.4841 2747.1853 620.4530 0.800 -0.436 -0.413 156 73 21
-2204.6165 2716.5645 493.9802 0.820 -0.572 0.012 195 120 62
-2392.4141 3241.2322 448.8695 0.999 0.006 0.049 216 117 61
-2461.0520 3367.4109 454.1490 0.888 -0.001 -0.459 221 130 79
-2473.6406 3423.5649 444.1603 -0.100 -0.342 -0.934 160 85 52
-3345.6079 2620.1855 1299.5706 -0.415 -0.891 0.182 66 31 13
-3439.8877 2726.7402 1328.6281 0.458 -0.698 0.551 55 34 28
-3164.0691 2649.6436 1165.2350 0.948 -0.296 -0.113 151 83 46
-3170.8589 2706.9648 1150.7416 0.411 -0.886 0.216 123 60 23
-2969.6960 2676.8469 1022.8511 0.349 -0.303 -0.887 108 94 85
-2911.1548 2704.9714 973.3094 0.778 -0.237 0.582 182 139 112
-2875.6045 2703.5974 949.3889 0.688 -0.726 0.001 159 105 64
-2405.6011 2723.9658 620.2685 0.775 -0.335 -0.536 155 65 6
-2417.7529 2758.1685 617.1757 0.773 -0.306 -0.555 148 65 13
-2207.1394 2712.8264 487.8901 0.820 -0.572 0.012 192 117 64
-2393.9482 3211.2109 449.5014 0.999 0.024 -0.039 204 117 69
-2407.7725 3243.2769 448.2693 0.999 -0.020 0.028 213 117 65
-2392.6582 3232.7734 441.4133 0.998 -0.016 0.062 217 123 70
-2476.5769 3406.1233 441.0508 0.829 -0.454 -0.325 155 81 46
-2479.6816 3423.2771 437.4494 0.830 -0.551 -0.083 108 38 10
-2474.9172 3428.6521 432.3864 0.737 -0.620 0.269 91 25 1
-2458.2622 3416.0369 425.1793 -0.123 -0.680 0.723 92 28 7
-4261.6367 2615.7097 1917.7421 0.053 -0.697 0.715 158 154 142
-4010.0408 2515.1018 1779.3585 0.177 -0.790 0.587 142 139 122
-3977.8591 2766.0510 1672.9519 0.940 -0.258 0.222 151 145 128
-4037.7107 2943.5847 1654.2251 0.743 -0.460 0.486 144 179 201
-4021.6663 2939.8894 1644.4855 0.800 -0.410 0.438 144 179 201
-3996.6558 2938.0195 1627.9951 0.802 -0.389 0.453 142 178 200
-3363.0469 2612.9634 1303.6008 -0.197 -0.929 -0.314 76 39 19
-3327.0259 2590.3191 1286.5592 -0.158 -0.963 -0.216 72 37 19
-3339.6873 2609.3113 1288.8396 -0.377 -0.923 0.072 65 37 25
-3419.9976 2695.0474 1314.9824 0.657 -0.152 -0.738 93 84 84
