ply
format ascii 1.0
element vertex 791
property float x
property float y
property float z
property float nx
property float ny
property float nz
property uchar diffuse_red
property uchar diffuse_green
property uchar diffuse_blue
end_header
-2210.2256 3451.8630 360.5242 0.764 -0.622 0.172 38 41 48
-2212.0510 3463.8813 356.7207 0.444 -0.652 -0.614 50 53 60
-2213.8843 3475.9705 352.8925 0.259 -0.797 -0.545 55 58 65
-2208.1475 3477.4260 347.7455 0.264 -0.798 -0.542 55 58 65
-2198.2605 3472.9968 341.8993 0.135 -0.847 -0.515 53 55 61
-2189.3018 3479.4368 332.0449 0.122 -0.856 -0.502 87 78 83
-2185.0039 3482.9263 327.1429 0.122 -0.856 -0.502 150 137 144
-2179.8086 3485.1375 322.0925 0.126 -0.850 -0.511 190 177 184
-2175.5625 3488.7144 317.1931 0.126 -0.850 -0.511 200 189 193
-2171.3123 3492.2942 312.2892 0.126 -0.850 -0.511 201 190 194
-2169.8320 3499.8926 307.8124 0.160 -0.986 -0.033 205 194 200
-2169.5022 3509.1948 303.4976 0.346 -0.937 0.040 210 196 202
-1754.4415 4695.0620 -539.9661 0.938 -0.059 0.343 254 210 223
-1750.3646 4722.9829 -555.3450 0.942 -0.053 0.331 254 210 223
-1783.1017 4843.1763 -581.9926 0.469 -0.684 0.559 251 207 220
-1641.0961 4638.8843 -604.6324 0.486 -0.253 0.837 254 202 215
-1638.9368 4652.6968 -612.3526 0.589 -0.721 -0.365 254 202 215
-1583.0470 4642.9688 -652.0743 0.903 -0.388 -0.185 62 38 34
-1517.1971 4727.9966 -740.9393 0.991 -0.125 -0.045 231 179 192
-719.8771 3949.0261 -1028.5156 0.053 -0.588 -0.807 253 19 66
-593.3498 3575.7021 -965.2908 0.562 -0.056 0.825 250 71 109
-587.7662 3819.9402 -1076.1584 0.612 -0.732 0.300 255 134 164
-586.6204 3903.8674 -1113.6477 0.506 -0.681 0.529 254 115 153
-581.8880 3907.2815 -1118.8586 0.296 -0.518 0.803 255 109 146
-578.6381 3919.4724 -1126.7297 0.162 -0.787 -0.595 253 100 142
-685.7882 4589.3911 -1334.4968 -0.068 -0.618 0.783 255 89 140
-465.5660 4362.8623 -1408.9675 0.950 -0.275 0.150 250 131 161
-431.1836 4127.3877 -1333.3574 -0.425 -0.765 0.484 243 112 144
-434.8586 4249.8921 -1383.8723 -0.409 -0.850 0.331 246 106 141
-283.3443 3645.6128 -1239.6173 0.776 -0.453 0.440 242 45 77
-276.6140 3673.5083 -1257.0724 0.827 -0.497 0.262 243 29 68
-263.9432 3688.8855 -1273.7429 0.744 -0.346 -0.572 229 7 46
-215.1875 3598.9146 -1272.8711 0.417 -0.337 0.844 186 7 29
-206.2708 3600.4333 -1280.5470 0.405 -0.403 0.821 201 22 44
-3044.2180 2979.3071 1212.7350 0.816 -0.470 -0.335 149 89 65
-3074.1580 3011.7529 1222.0292 0.772 -0.156 0.616 155 97 72
-3095.6953 3037.0266 1227.8671 0.660 -0.191 0.727 153 104 81
-3080.3506 3030.2087 1218.8019 0.174 -0.510 0.842 135 101 83
-3067.1121 3025.1914 1210.6018 0.173 -0.522 0.835 130 103 86
-2942.4458 3114.6042 1073.4617 0.308 -0.444 0.841 30 30 28
-2936.6777 3116.1328 1068.2601 0.144 -0.528 0.837 34 33 29
-2920.3601 3107.6711 1059.1514 0.148 -0.518 0.843 40 39 35
-2899.2258 3094.5857 1048.2860 0.186 -0.497 0.848 46 45 41
-2896.7385 3106.1309 1041.2699 0.973 -0.225 -0.061 57 56 52
-2892.6848 3109.2444 1036.7202 0.886 -0.288 -0.364 63 63 61
-2891.9905 3115.5833 1033.3954 0.886 -0.288 -0.364 71 69 64
-2878.8645 3117.0178 1022.4548 0.840 -0.316 0.441 136 133 120
-2876.1038 3121.3970 1018.3658 0.845 -0.305 0.439 137 131 117
-2905.5242 3178.5066 1016.4376 0.990 -0.123 0.063 136 104 101
-3019.9863 3297.6941 1054.0979 0.942 -0.247 0.228 143 102 95
-2915.2407 3209.8494 1010.3282 -0.297 -0.844 0.447 153 93 77
-2920.2991 3222.1746 1008.8978 -0.405 -0.764 0.502 157 92 73
-2844.2200 3161.6033 975.6896 -0.313 -0.775 0.549 173 96 68
-2458.0483 3176.6787 665.7090 0.182 -0.631 0.754 157 95 56
-2449.5754 3174.6973 659.9215 0.154 -0.662 0.733 136 82 45
-2439.3979 3170.7231 653.6688 0.354 -0.622 0.698 102 62 37
-2424.2634 3160.9683 646.0566 0.626 -0.779 -0.021 113 81 65
-2422.2007 3166.3481 642.0773 0.623 -0.782 -0.010 140 104 88
-2417.5962 3168.7830 637.3925 0.235 -0.933 -0.272 140 107 92
-2424.7681 3184.9880 635.9212 0.496 -0.848 -0.187 155 122 107
-2299.9482 3122.9995 565.0444 -0.039 -0.846 0.532 137 101 93
-2264.1582 3110.8708 542.2463 0.085 -0.954 0.286 157 111 93
-2397.8015 3393.0205 523.5221 0.490 -0.824 -0.285 187 95 56
-2351.8020 3378.2419 493.8654 -0.293 -0.949 -0.118 182 90 51
-2346.4810 3380.2007 488.8263 -0.291 -0.948 -0.129 185 86 53
-2215.6135 3322.9705 411.1124 0.876 -0.474 0.086 27 27 29
-2218.6753 3335.9348 407.8332 0.883 -0.462 0.078 32 33 34
-2221.9619 3349.2666 404.5697 0.717 -0.684 -0.136 40 39 40
-2219.0039 3354.2275 400.0707 0.705 -0.694 -0.147 51 52 55
-2218.6677 3362.7583 396.0661 0.878 -0.348 -0.328 54 55 59
-2217.3621 3370.0103 391.8608 0.878 -0.348 -0.328 41 44 49
-2190.7249 3388.1577 362.9780 0.554 -0.638 0.535 21 24 29
-2216.5979 3452.0234 355.3005 0.764 -0.604 0.228 38 41 48
-2222.8423 3470.2109 352.2316 0.458 -0.639 -0.618 39 42 49
-2220.4463 3476.3596 347.6532 0.458 -0.639 -0.618 40 43 50
-2216.4834 3480.3254 342.8011 0.453 -0.640 -0.620 43 46 53
-2201.1052 3468.1733 336.0488 0.560 -0.663 -0.498 48 50 56
-2194.9680 3478.6057 326.6532 0.441 -0.751 -0.491 45 36 41
-2192.0312 3484.0381 321.9641 0.452 -0.754 -0.477 64 52 58
-2186.7554 3486.1453 316.8955 0.508 -0.753 -0.417 123 110 117
-2183.4189 3491.0349 312.1306 0.508 -0.753 -0.417 179 168 174
-2180.0771 3495.9336 307.3574 0.508 -0.753 -0.417 198 187 193
-2174.2754 3497.2988 302.2011 0.164 -0.986 -0.031 206 195 201
-2169.3274 3499.8953 297.1755 0.171 -0.985 -0.025 215 201 207
-1750.3398 4687.1606 -552.5476 0.938 -0.059 0.343 254 210 223
-1770.2830 4813.4551 -592.2561 0.482 -0.656 0.581 246 200 213
-1821.7141 4982.5615 -625.9996 0.846 -0.503 -0.175 252 202 214
-1639.0862 4616.6973 -609.0510 0.434 -0.311 0.846 253 203 215
-1582.3466 4603.9902 -648.0533 0.975 -0.203 0.085 84 47 47
-1554.0076 4667.2222 -698.0408 0.098 -0.352 0.931 128 65 78
-1504.1871 4714.6851 -757.9896 -0.021 -0.866 0.500 253 201 214
-1062.2078 5079.4126 -1265.1217 0.666 -0.741 -0.087 245 152 163
-1078.4236 5215.9912 -1312.2677 0.175 -0.781 0.600 229 124 137
-617.8925 3629.4946 -978.4324 0.225 -0.974 -0.015 244 22 71
-572.1497 3493.8008 -954.8703 0.680 -0.047 0.731 255 136 155
-586.5009 3817.2957 -1085.4371 0.681 -0.681 0.269 255 131 165
-582.8210 3826.0103 -1092.1489 0.860 -0.509 -0.039 255 128 165
-591.1526 3934.9609 -1133.3748 -0.121 -0.628 -0.769 255 108 147
-432.4375 4145.0552 -1350.1775 -0.330 -0.920 0.210 245 106 141
-267.9762 3690.4519 -1280.0487 0.734 -0.346 -0.584 229 7 46
-209.2322 3589.9519 -1282.1315 0.041 -0.579 0.815 201 22 44
-3041.6494 2970.8276 1204.6393 0.829 -0.493 -0.263 147 89 65
-3067.8516 2999.9478 1212.3555 0.770 -0.157 0.618 164 107 83
-3083.1523 3019.7251 1215.6385 0.492 -0.463 0.737 179 131 109
-3068.4675 3013.4680 1206.8766 0.111 -0.568 0.815 167 134 116
-3040.6677 2995.7185 1192.8927 0.073 -0.581 0.811 161 136 120
-2788.9968 2937.5249 1021.1006 0.285 -0.675 -0.681 18 18 16
-2910.9114 3078.2454 1054.6969 0.830 -0.502 0.244 26 25 21
-2907.4541 3081.8684 1050.3866 0.830 -0.502 0.244 28 27 23
-2904.3899 3085.8706 1046.2177 0.856 -0.461 0.235 32 31 27
-2901.3250 3089.8818 1042.0442 0.864 -0.448 0.230 51 50 46
-2889.8054 3106.7322 1025.5756 0.905 -0.421 0.060 91 87 82
-2949.7400 3214.5884 1025.0364 0.965 0.031 0.261 136 99 89
-2925.7898 3205.8347 1010.1058 0.969 -0.216 0.123 144 95 81
-2909.6653 3197.3396 1001.2010 -0.227 -0.830 0.510 148 93 75
-2926.0615 3220.7617 1003.7365 -0.176 -0.648 0.741 151 93 71
-2890.6807 3193.2610 988.1049 -0.176 -0.648 0.741 156 92 66
-2844.4275 3154.8669 968.7468 -0.284 -0.781 0.555 168 98 66
-2354.9612 3021.6018 643.4919 -0.085 -0.618 0.782 193 106 78
-2427.7615 3134.5879 650.7846 0.841 0.066 0.537 147 86 47
-2448.8748 3166.5432 653.2579 0.199 -0.514 0.834 135 81 43
-2436.5959 3160.1455 646.4454 0.531 -0.363 0.765 98 58 34
-2422.3936 3174.8059 628.8376 0.547 -0.837 -0.019 146 115 97
-2422.8875 3183.2231 625.5134 0.474 -0.879 -0.054 151 117 100
-2427.6047 3196.6274 623.3035 0.709 -0.704 -0.045 155 122 110
-2252.2971 3104.6731 526.3117 -0.250 -0.947 0.202 108 57 25
-2415.3857 3424.7356 513.1259 0.571 -0.464 -0.677 196 107 67
-2312.4551 3328.2012 474.9390 -0.085 -0.907 -0.413 195 98 63
-2299.4336 3320.0854 468.3015 -0.068 -0.937 -0.342 192 90 65
-2327.1958 3364.6692 470.4225 -0.087 -0.552 0.829 195 97 74
-2297.0210 3334.3342 460.1252 -0.128 -0.659 0.741 192 107 82
-2287.7776 3331.0459 454.3233 -0.116 -0.653 0.748 193 119 100
-2272.9431 3320.4304 447.3656 -0.116 -0.653 0.748 161 98 83
-2258.2329 3309.9045 440.4662 -0.116 -0.653 0.748 83 31 23
-2205.3083 3292.2544 406.7262 0.707 -0.555 0.439 20 19 17
-2213.2253 3311.5657 404.4218 0.879 -0.476 0.005 25 25 27
-2221.9700 3332.0872 402.2331 0.886 -0.464 0.013 25 27 27
-2224.0879 3343.8147 398.7232 0.865 -0.495 0.078 27 26 26
-2222.3901 3350.4575 394.4618 0.874 -0.483 0.063 35 36 39
-2220.6753 3357.1045 390.1852 0.944 -0.310 0.117 52 53 57
-2218.2515 3362.8181 385.7641 0.944 -0.310 0.117 55 58 63
-2215.7466 3368.4426 381.3185 0.949 -0.315 0.021 44 47 52
-2219.6790 3447.5857 349.5033 0.772 -0.486 0.409 31 34 41
-2219.1296 3456.2363 345.2574 0.639 -0.444 0.628 40 43 52
-2213.0349 3457.1602 340.0683 0.631 -0.448 0.633 44 47 54
-2200.5210 3449.0593 333.8226 0.514 -0.700 -0.495 45 48 55
-2206.5581 3476.5757 326.4250 0.569 -0.655 -0.496 52 46 53
-2202.3047 3480.1313 321.5199 0.451 -0.743 -0.495 53 44 49
-2198.1067 3483.7744 316.6198 0.452 -0.754 -0.477 54 43 49
-2192.4287 3485.3159 311.4851 0.508 -0.753 -0.417 60 47 54
-2187.7603 3488.2981 306.5073 0.520 -0.747 -0.415 117 106 112
-2179.9819 3496.5217 296.7782 0.164 -0.986 -0.031 207 196 202
-2174.0320 3497.6765 291.6008 0.164 -0.986 -0.031 212 200 205
-2171.2844 3503.4634 286.8934 0.352 -0.856 0.378 215 197 200
-2178.4126 3533.4963 279.2420 0.260 -0.860 -0.439 218 198 200
-1747.0820 4719.2612 -582.0656 0.045 -0.600 0.799 242 196 209
-1770.2960 4796.1851 -597.7743 0.197 -0.776 0.599 242 196 209
-1822.7260 4987.4980 -641.0042 0.853 -0.492 -0.175 244 196 208
-1584.5604 4592.6606 -653.7474 0.980 -0.177 -0.088 90 45 48
-1597.1191 4665.4897 -676.0104 -0.002 -0.504 0.864 95 61 60
-1585.2295 4653.6089 -680.0995 -0.002 -0.509 0.861 98 64 63
-1522.3696 4705.6670 -752.3741 0.934 -0.135 0.332 239 187 200
-1511.3148 4716.4668 -765.8099 0.515 -0.523 0.679 254 202 215
-1369.9371 4756.7720 -894.5048 0.881 -0.142 0.452 249 192 209
-1364.1992 4761.7788 -901.2145 0.867 -0.179 0.465 243 186 203
-826.3517 4353.5332 -1143.1674 0.683 -0.489 0.543 246 49 87
-732.1374 3936.1523 -1033.0292 0.303 -0.590 -0.748 244 23 67
-570.6353 3464.6653 -951.8235 0.343 -0.308 0.888 255 135 154
-596.4918 3939.5583 -1140.9550 0.002 -0.626 -0.780 252 102 139
-473.9064 4306.5420 -1398.9644 0.933 -0.096 0.346 255 145 175
-438.1947 4154.7339 -1360.0385 -0.409 -0.895 0.176 249 110 145
-290.1382 3635.7844 -1247.3539 0.747 -0.499 0.438 236 38 71
-285.1950 3632.6843 -1249.8651 0.762 -0.474 0.441 237 31 66
-212.5669 3584.7070 -1285.6902 0.041 -0.579 0.815 214 35 57
-3000.2576 2922.5986 1183.7944 0.838 -0.365 -0.405 145 90 63
-3042.3152 2965.1655 1197.8708 0.823 -0.499 -0.270 147 91 68
-3060.2432 2987.0588 1202.2089 0.727 -0.480 0.490 170 115 90
-3079.2800 3010.0093 1206.9470 0.492 -0.463 0.737 187 142 119
-3033.3853 2983.0642 1182.9357 0.075 -0.573 0.816 171 148 132
-2978.8425 2941.8884 1158.4594 0.251 -0.636 0.729 171 148 130
-2986.3459 3013.1633 1132.7286 0.790 -0.304 0.533 48 46 42
-2979.9568 3014.0251 1127.3401 0.798 -0.302 0.521 27 24 19
-2968.5156 3010.3394 1120.0100 0.771 -0.512 0.378 19 16 11
-2909.7900 3063.7266 1050.3179 -0.197 -0.893 -0.404 18 18 16
-2926.6174 3086.3347 1053.4767 -0.083 -0.852 -0.517 24 23 19
-2922.6382 3089.4905 1048.9591 -0.082 -0.852 -0.518 26 25 21
-2909.1091 3083.6543 1040.9467 0.100 -0.823 -0.559 29 28 24
-2902.4722 3084.2881 1035.4650 0.864 -0.448 0.230 54 50 47
-2901.3240 3090.1123 1031.9824 0.880 -0.434 0.192 73 69 66
-2939.6301 3212.3159 1007.8007 0.270 -0.406 0.873 132 84 69
-2889.7544 3178.0840 983.9017 -0.275 -0.767 0.580 135 84 59
-2884.7461 3180.4165 978.9431 -0.161 -0.644 0.748 138 83 51
-2851.7605 3155.1733 964.2921 -0.161 -0.644 0.748 154 91 57
-2783.1677 3101.6726 934.2728 -0.169 -0.647 0.744 181 109 68
-2498.2385 3138.6497 694.6143 -0.254 -0.763 0.594 182 97 56
-2392.4868 3079.4897 637.9885 0.883 0.162 0.441 154 90 52
-2421.4373 3120.1182 642.6543 0.841 0.066 0.537 145 84 45
-2422.8428 3137.0095 636.2645 0.838 0.051 0.543 100 60 36
-2424.9683 3147.1492 633.4331 0.834 0.043 0.550 97 64 48
-2429.9487 3160.6357 631.3544 0.833 0.039 0.552 113 78 62
-2427.4478 3165.5071 627.2342 0.833 0.039 0.552 124 92 77
-2433.8442 3180.7429 625.4893 0.809 0.037 0.587 138 106 91
-2426.2373 3179.7190 619.9828 0.620 -0.784 0.034 146 112 95
-2449.6453 3214.9497 622.6998 0.763 0.057 0.644 151 118 106
-2418.7085 3186.6338 611.0168 0.379 -0.911 0.163 155 125 111
-2402.9417 3175.9895 603.3832 -0.328 -0.925 0.191 153 127 112
-2388.6558 3167.0220 596.1666 -0.498 -0.867 -0.031 147 126 111
-2380.2954 3164.9998 590.5124 -0.518 -0.855 -0.040 143 122 108
-2377.8328 3177.8411 582.8878 -0.356 -0.916 0.185 128 103 91
-2243.1541 3101.7632 511.0991 -0.114 -0.980 -0.162 168 108 69
-2238.3250 3103.6609 506.4735 -0.091 -0.984 -0.153 188 106 70
-2232.1143 3103.8555 501.5208 -0.091 -0.984 -0.153 195 102 67
-2233.5212 3113.4573 498.3649 -0.137 -0.971 -0.196 194 104 65
-2310.3901 3317.4626 468.1208 -0.103 -0.883 -0.459 194 103 64
-2337.8772 3361.4626 470.1448 -0.106 -0.601 0.792 192 100 69
-2318.3291 3345.0227 462.1188 -0.121 -0.605 0.787 195 106 79
-2303.2856 3334.3042 455.0850 -0.112 -0.604 0.789 193 116 88
-2273.8135 3313.4451 441.2427 -0.095 -0.607 0.789 148 96 75
-2256.6228 3299.7031 433.8671 -0.166 -0.595 0.786 72 33 18
-2217.7849 3309.4626 399.1070 0.902 -0.431 -0.022 21 21 23
-2224.1499 3326.7566 396.4246 0.883 -0.457 0.107 20 22 22
-2225.5532 3337.4922 392.7629 0.870 -0.487 0.079 20 20 20
-2222.0625 3350.6309 384.2009 0.944 -0.310 0.117 42 43 47
-2219.6438 3356.3301 379.7782 0.944 -0.310 0.117 52 55 60
-2217.2190 3362.0425 375.3448 0.944 -0.310 0.117 45 48 53
-2212.5635 3429.0005 342.0013 0.742 -0.512 0.434 30 33 40
-2209.4255 3433.9812 337.3335 0.737 -0.515 0.438 41 44 51
-2204.4351 3445.7959 328.1833 0.514 -0.669 -0.537 45 48 55
-2207.8372 3460.0239 324.5390 0.441 -0.615 -0.654 47 49 55
-2210.9658 3473.9402 320.8188 0.517 -0.635 -0.575 50 46 52
-2206.6541 3477.4099 315.9015 0.426 -0.667 -0.611 54 44 52
-2201.3210 3479.4395 310.8226 0.500 -0.727 -0.471 55 44 50
-2197.4304 3483.5200 305.9643 0.484 -0.770 -0.417 56 43 50
-2184.6631 3494.2617 291.1966 0.260 -0.962 0.083 193 182 188
-2178.7146 3495.4231 286.0204 0.260 -0.962 0.083 210 198 203
-2174.7759 3499.4810 281.1346 0.352 -0.856 0.378 214 197 199
-2165.4050 3495.6824 275.4767 0.373 -0.837 0.400 218 199 201
-1735.3699 4474.1587 -495.4319 0.824 -0.520 -0.226 253 215 228
-1775.5170 4640.9365 -537.9394 0.557 -0.430 0.710 250 212 225
-1767.2850 4639.5356 -543.7682 0.556 -0.411 0.723 251 211 225
-1777.4631 4777.3604 -596.9178 0.637 -0.122 0.761 238 192 205
-1770.5939 4779.7246 -603.3489 0.188 -0.765 0.616 238 192 205
-1773.8264 4807.2261 -613.0128 0.487 -0.635 0.600 238 191 204
-1764.6550 4803.9404 -618.7418 0.434 -0.655 0.619 242 192 204
-1675.3951 4637.3848 -614.8157 0.644 -0.711 0.283 240 192 204
-1673.5210 4651.7559 -622.6577 0.584 -0.715 0.386 235 186 198
-1663.7679 4646.0996 -627.7913 0.880 -0.469 0.073 240 190 202
-1581.1986 4566.6924 -657.2728 0.976 -0.218 0.029 94 43 48
-1563.0171 4616.1533 -693.4546 0.139 -0.517 0.845 130 61 77
-1553.0386 4609.0605 -698.1277 0.074 -0.573 0.817 134 59 77
-1519.4215 4699.9170 -764.7634 0.946 -0.159 0.282 245 195 207
-830.9721 4350.5029 -1149.2417 0.804 -0.348 0.482 242 42 82
-614.3235 3593.5879 -983.3107 0.169 -0.970 -0.176 246 62 98
-571.4173 3447.8113 -952.2791 0.459 -0.520 0.720 255 135 154
-564.9491 3438.6360 -953.2781 0.630 -0.102 0.770 254 135 154
-594.2676 3840.6707 -1108.6057 0.538 -0.546 -0.642 250 113 149
-600.6224 3937.1296 -1146.4055 0.149 -0.771 -0.620 251 100 137
-597.5784 3950.6133 -1154.7706 0.157 -0.759 -0.632 248 92 131
-497.3651 4274.5386 -1376.9532 0.334 -0.606 0.722 250 70 118
-254.9962 3238.4546 -1107.3654 -0.088 -0.955 -0.282 234 36 69
-284.6080 3634.7202 -1259.9048 0.842 -0.514 0.162 236 22 60
-3028.4111 2940.6565 1188.1285 0.880 -0.374 -0.291 152 96 69
-3053.1519 2968.2722 1195.1724 0.825 -0.480 -0.298 154 98 74
-3059.7644 2980.3696 1194.9517 0.727 -0.480 0.490 176 121 96
-3048.1018 2983.1318 1184.5930 0.087 -0.565 0.820 183 151 133
-2981.5281 2944.3896 1149.7753 0.697 -0.639 0.326 178 153 134
-2979.5520 3000.7063 1123.1111 0.802 -0.356 0.479 49 47 43
-2970.8933 2999.5166 1116.8658 0.894 -0.267 0.361 26 23 18
-2943.2625 3102.1631 1049.4617 -0.388 -0.850 -0.356 26 25 21
-2915.7913 3083.2800 1036.3861 -0.091 -0.739 -0.668 31 27 24
-2904.2839 3079.3345 1029.1409 -0.199 -0.979 -0.046 54 51 46
-2901.4932 3083.5923 1025.0580 0.881 -0.441 0.173 74 70 67
-2895.2932 3105.4690 1010.4489 0.879 -0.474 0.055 111 100 84
-2900.0520 3117.0149 1009.0233 0.057 -0.779 0.625 120 104 81
-2911.0291 3134.5706 1009.7833 0.890 -0.276 0.364 124 103 76
-2908.0039 3138.7441 1005.5544 0.890 -0.276 0.364 128 100 75
-2913.1394 3186.7329 988.1696 0.302 -0.312 0.901 110 66 46
-2869.2444 3158.2375 966.5290 0.292 -0.315 0.903 117 66 35
-2851.4817 3147.9802 957.2037 0.292 -0.315 0.903 134 78 43
-2830.2358 3134.2266 946.7120 0.305 -0.305 0.902 158 96 58
-2407.6567 3023.3071 665.4951 0.739 -0.179 0.649 187 102 61
-2349.0615 3001.1323 629.5319 -0.063 -0.662 0.747 204 118 88
-2415.1655 3105.7695 634.5919 0.841 0.066 0.537 146 85 48
-2415.7715 3114.0383 631.3781 0.843 0.067 0.534 136 80 44
-2430.3174 3138.3379 631.9229 0.816 0.036 0.577 103 63 38
-2426.3486 3141.4551 627.4269 0.821 0.034 0.570 94 59 44
-2423.6550 3146.0496 623.2698 0.821 0.034 0.570 97 61 45
-2420.9563 3150.6523 619.1050 0.821 0.034 0.570 96 63 48
-2425.5200 3163.6946 616.8594 0.808 0.027 0.589 114 81 66
-2414.6267 3182.2842 600.0436 0.512 -0.840 0.180 132 109 93
-2397.1533 3169.6208 592.0179 -0.308 -0.934 0.181 130 113 97
-2390.5718 3169.7217 586.8226 -0.292 -0.940 0.178 132 116 100
-2389.9255 3176.8306 583.1462 0.451 -0.790 0.415 135 118 102
-2388.9031 3183.5217 579.3617 0.609 -0.236 0.757 124 105 91
-2233.7363 3106.3293 492.3652 -0.116 -0.971 -0.207 193 103 66
-2480.9456 3500.1399 510.1734 0.061 -0.982 -0.181 194 105 65
-2266.0427 3252.6755 452.3741 0.291 -0.940 -0.176 192 107 64
-2314.8513 3332.4004 455.0107 -0.061 -0.587 0.807 192 117 88
-2278.4683 3302.7542 439.7620 -0.061 -0.588 0.807 177 125 99
-2262.0083 3290.0315 432.5556 -0.049 -0.594 0.803 124 87 60
-2256.9050 3292.0056 427.6817 -0.099 -0.610 0.786 55 31 10
-2245.0764 3337.5522 398.1107 0.708 -0.529 0.468 14 14 16
-2225.9866 3329.8108 386.6248 0.863 -0.502 0.063 14 14 12
-2227.1240 3340.2029 382.8798 0.863 -0.499 0.085 15 16 19
-2221.7546 3350.8308 373.9379 0.939 -0.328 0.103 46 49 54
-2219.2922 3356.4741 369.4939 0.939 -0.328 0.103 45 48 53
-2217.1899 3362.6272 365.1045 0.940 -0.324 0.109 27 30 35
-2217.4131 3371.9668 361.1136 0.933 -0.327 0.150 16 19 24
-2207.4436 3422.5571 330.7479 0.566 -0.822 0.065 41 44 51
-2202.1343 3424.4973 325.7278 0.782 -0.593 0.192 45 48 55
-2219.0339 3486.0081 311.5180 0.256 -0.966 -0.016 54 44 52
-2212.7251 3486.6929 306.2756 0.252 -0.968 -0.009 55 44 50
-2196.2529 3492.1968 290.9306 0.250 -0.962 0.112 69 60 65
-2189.6487 3492.4341 285.6566 0.260 -0.962 0.083 138 127 133
-2183.6970 3493.5967 280.4806 0.260 -0.962 0.083 192 181 186
-2178.2649 3495.5017 275.3800 0.352 -0.856 0.378 215 198 200
-2167.7974 3490.1323 269.5835 0.362 -0.843 0.399 217 198 200
-2154.9043 3481.2026 263.4767 0.205 -0.823 0.530 218 198 200
-1789.6991 4622.1118 -531.1746 0.508 -0.371 0.777 243 205 218
-1773.6631 4620.3101 -542.9198 0.531 -0.410 0.741 243 205 218
-1766.5562 4621.5464 -549.0328 0.547 -0.415 0.727 244 204 217
-1827.3159 4824.3335 -591.9311 -0.136 -0.981 0.141 240 194 205
-1774.9850 4792.8477 -618.8395 0.488 -0.843 0.227 232 184 196
-1783.7861 4834.2876 -630.4351 0.597 -0.752 0.280 235 184 196
-1676.2727 4622.8091 -620.2472 0.712 -0.643 0.281 235 184 196
-1661.8870 4624.3906 -632.2101 0.442 -0.777 0.449 240 188 200
-1610.6898 4666.5640 -691.0840 -0.186 -0.656 0.731 106 55 60
-1556.9271 4602.1099 -704.4086 -0.258 -0.662 0.704 171 76 100
-1510.5626 4677.4395 -774.2890 0.905 -0.198 0.375 254 202 215
-585.0366 3472.8000 -961.2725 -0.018 -0.847 0.532 255 131 153
-464.4561 4202.2891 -1380.9943 -0.092 -0.939 0.331 255 143 171
-451.6885 4189.2305 -1385.1614 -0.194 -0.920 0.340 248 112 145
-266.2403 3234.6990 -1104.5497 -0.245 -0.969 -0.011 239 52 82
-257.8306 3232.6326 -1110.2090 -0.245 -0.969 -0.011 235 36 69
-225.0562 3591.3125 -1295.8326 0.423 -0.433 0.796 205 26 48
-3036.4812 2941.4121 1184.3744 0.775 -0.452 -0.441 158 101 74
-3052.8616 2961.7964 1188.0332 0.837 -0.482 -0.259 160 103 78
-3052.4221 2967.7903 1185.0011 0.660 -0.435 0.613 181 126 101
-3036.1731 2972.9417 1169.9916 0.553 -0.619 0.558 182 159 143
-3034.5862 2977.9841 1166.4896 0.557 -0.628 0.544 183 159 141
-3025.0220 2976.0906 1159.8640 0.565 -0.629 0.534 181 157 139
-2974.9094 2990.2107 1114.3660 0.751 -0.519 0.408 50 47 43
-2984.2063 3078.5449 1082.0111 -0.146 -0.989 -0.018 14 14 12
-2989.7891 3090.4968 1081.0134 -0.419 -0.868 0.266 14 14 11
-2946.9160 3057.8440 1062.1526 -0.422 -0.877 0.229 14 15 11
-2963.4497 3093.6099 1059.0321 -0.378 -0.840 -0.389 18 19 15
-2953.8987 3091.6113 1052.4640 -0.364 -0.860 -0.357 18 18 16
-2937.2346 3089.8337 1040.2377 -0.322 -0.864 -0.386 28 24 19
-2916.6758 3077.4587 1029.7209 -0.192 -0.978 -0.078 33 28 22
-2898.3818 3067.1406 1020.0516 -0.170 -0.960 0.222 56 51 44
-2902.4126 3077.7976 1018.4218 0.881 -0.439 0.174 75 70 64
-2904.0857 3086.2703 1015.9290 0.894 -0.432 0.119 83 78 73
-2900.8506 3090.1270 1011.6709 0.895 -0.428 0.124 89 85 79
-2895.4365 3091.9236 1006.6336 0.892 -0.448 0.061 98 89 79
-2902.6584 3105.7456 1006.0783 0.868 -0.490 0.081 113 99 82
-2893.5828 3104.0762 999.7341 0.061 -0.771 0.634 121 103 78
-2899.2478 3123.5190 995.4407 0.900 -0.391 0.194 130 101 73
-2904.4678 3164.1199 981.3096 0.273 -0.315 0.909 97 56 42
-2864.4087 3139.4404 961.0715 0.264 -0.452 0.852 93 51 31
-2848.2688 3130.7969 952.3345 0.278 -0.441 0.853 97 50 24
-2829.4150 3119.4370 942.6949 0.370 -0.452 0.812 118 64 34
-2818.6240 3115.9377 935.8309 0.424 -0.436 0.794 146 88 55
-2810.6873 3115.2241 929.9481 0.398 -0.452 0.799 166 104 65
-2803.9128 3115.6455 924.4647 0.361 -0.466 0.808 170 100 62
-2345.9849 2990.8132 622.5693 -0.061 -0.658 0.750 208 124 93
-2364.6365 3033.7341 617.8949 0.550 -0.107 0.828 154 90 52
-2399.1321 3080.3677 623.9378 0.665 -0.174 0.727 146 84 47
-2429.2200 3122.2119 628.6839 0.466 -0.336 0.818 137 80 44
-2417.5059 3131.6912 615.2772 0.821 0.034 0.570 82 48 32
-2409.3076 3176.4819 588.7798 0.485 -0.234 0.843 102 88 72
-2401.9358 3175.6841 583.3763 0.501 -0.233 0.833 109 96 80
-2382.9998 3176.9688 568.0010 0.557 -0.221 0.800 122 106 91
-2339.5959 3148.9138 546.6630 -0.239 -0.949 0.205 129 116 101
-2329.7000 3144.9189 540.7208 -0.244 -0.947 0.209 134 120 103
-2292.7734 3116.1672 524.7576 -0.227 -0.877 0.423 153 131 108
-2243.4246 3095.2207 495.5847 -0.263 -0.929 0.262 183 107 73
-2241.3186 3100.4487 491.5941 -0.112 -0.982 -0.150 192 104 70
-2237.6917 3103.8245 487.2452 -0.106 -0.976 -0.191 192 104 68
-2474.3220 3483.2559 501.9929 -0.071 -0.976 -0.206 194 105 65
-2280.8118 3272.1113 445.4630 0.928 -0.124 -0.351 190 116 86
-2230.8425 3328.0496 381.3202 0.741 -0.538 0.403 9 9 7
-2229.4849 3335.0872 377.1024 0.863 -0.497 0.095 6 7 10
-2222.3042 3343.2483 367.8300 0.813 -0.334 0.477 41 44 49
-2217.7178 3346.0039 363.0097 0.807 -0.338 0.484 45 48 53
-2213.8696 3349.7620 358.3167 0.791 -0.359 0.495 28 31 36
-2210.2126 3417.7603 324.9590 0.567 -0.820 0.078 41 44 51
-2229.5278 3491.8914 306.8044 0.180 -0.964 0.197 53 45 52
-2209.5459 3473.3281 299.5141 0.469 -0.699 -0.539 54 45 51
-2213.1177 3487.9497 295.7472 0.280 -0.960 0.022 53 44 51
-2200.9124 3489.8909 285.3376 0.267 -0.959 0.094 33 25 31
-2194.9458 3491.0454 280.1567 0.267 -0.959 0.094 69 60 66
-2188.9827 3492.1987 274.9790 0.267 -0.959 0.094 169 158 164
-2183.0229 3493.3511 269.8045 0.267 -0.959 0.094 216 199 203
-2173.6677 3489.6069 264.1724 0.306 -0.949 0.080 216 198 200
-2162.9827 3483.9055 258.3788 0.369 -0.845 0.386 218 198 201
-1734.5891 4493.7300 -529.3647 0.863 -0.445 -0.238 239 200 212
-1731.3732 4503.7163 -536.3572 0.863 -0.445 -0.238 239 200 212
-1732.0276 4523.0024 -544.4962 0.864 -0.455 -0.215 240 200 211
-1830.0183 4813.8262 -598.3569 -0.190 -0.974 0.126 238 188 199
-1705.2717 4640.9751 -618.3214 0.967 0.175 0.186 235 178 190
-1653.6776 4549.3320 -617.5392 0.021 -0.671 -0.741 235 178 190
-1602.5231 4667.1309 -710.3549 -0.264 -0.921 -0.287 166 59 88
-1591.1379 4656.6743 -714.5626 -0.616 -0.784 0.072 186 75 106
-1321.7616 4546.2632 -875.5665 0.966 0.077 0.246 248 193 209
-837.4288 4220.6162 -1108.0262 0.933 -0.032 -0.359 227 120 130
-747.7454 3942.8298 -1053.5209 -0.052 -0.534 0.844 241 18 63
-588.9423 3472.0381 -966.4655 -0.009 -0.844 0.536 255 132 154
-723.4053 4614.9287 -1374.0016 0.312 -0.896 -0.315 249 90 133
-711.7938 4621.6841 -1386.1066 0.281 -0.905 -0.319 253 70 131
-494.5893 4143.1089 -1341.2028 0.437 -0.899 0.007 255 67 117
-476.9391 4262.8682 -1408.7130 0.534 -0.551 0.641 255 144 171
-457.9313 4201.9077 -1396.2256 0.368 -0.275 0.888 246 112 145
-270.5111 3242.9038 -1112.5564 -0.086 -0.963 -0.254 240 50 81
-265.3076 3232.2812 -1111.8585 -0.030 -0.986 -0.163 237 41 73
-260.3065 3223.3308 -1111.7524 -0.102 -0.974 0.202 236 35 69
-2944.3235 2826.2334 1154.6572 0.450 -0.571 -0.687 91 115 134
-2956.3411 2842.4187 1156.7369 0.364 -0.472 -0.803 131 99 84
-3040.1052 2938.3513 1178.8458 0.742 -0.491 -0.458 162 115 89
-3054.5342 2957.0200 1181.6874 0.757 -0.639 -0.138 173 125 100
-3057.7551 2966.1433 1180.0863 0.762 -0.628 -0.155 186 142 119
-3055.1797 2983.1323 1170.4132 0.744 -0.412 0.525 183 166 152
-3020.9688 2959.9102 1154.1852 0.818 -0.527 -0.231 182 166 153
-3025.7000 2970.4146 1153.1399 0.889 -0.418 0.185 180 164 152
-3020.0293 2971.8967 1148.0453 0.895 -0.409 0.176 176 159 145
-3040.4177 2996.1367 1153.0255 0.310 -0.425 0.851 178 160 147
-3025.5703 2989.6343 1144.3698 0.310 -0.425 0.851 162 146 132
-3002.6240 3061.6680 1093.9686 0.789 -0.216 0.576 17 17 19
-2998.4634 3064.6377 1089.3816 0.789 -0.216 0.576 16 16 18
-3015.5715 3114.4062 1080.2866 0.798 -0.270 0.538 9 11 3
-2938.2773 3056.8538 1045.9160 -0.411 -0.907 -0.093 19 21 14
-2917.7578 3044.6375 1035.4103 -0.371 -0.893 -0.254 18 21 13
-2954.8391 3085.8306 1045.7728 -0.213 -0.943 0.254 19 21 15
-2942.1653 3080.9077 1038.1012 -0.213 -0.943 0.254 31 23 12
-2914.6294 3068.9106 1022.0202 -0.190 -0.946 0.262 67 49 32
-2904.8745 3066.6147 1015.4418 -0.166 -0.958 0.233 87 70 55
-2898.1309 3073.9890 1006.8520 0.892 -0.305 0.333 104 85 70
-2890.9849 3087.9309 994.9858 0.858 -0.249 0.449 105 84 60
-2879.6528 3084.0854 987.8755 0.056 -0.695 0.717 105 81 56
-2881.6067 3092.8877 985.4302 0.514 -0.419 0.748 106 81 54
-2917.8662 3148.7231 988.5468 0.913 0.099 0.396 93 79 63
-2897.1531 3142.9922 974.9648 0.372 -0.279 0.885 87 73 64
-2879.2468 3139.8867 962.3893 0.291 -0.311 0.905 97 69 70
-2837.2847 3113.2283 941.6614 0.271 -0.446 0.853 82 41 38
-2824.7271 3108.0244 934.2071 0.370 -0.452 0.812 91 47 37
-2809.4724 3100.1379 925.8577 0.414 -0.423 0.806 115 67 54
-2733.5713 3046.3855 890.8604 -0.301 -0.776 0.554 180 101 71
-2345.4036 2983.3372 616.3254 -0.064 -0.661 0.747 192 121 83
-2332.4089 2975.8936 609.5405 0.268 -0.385 0.883 191 120 82
-2333.1543 2983.9170 606.5033 0.284 -0.357 0.890 179 110 70
-2365.3679 3027.6091 611.9391 0.106 -0.389 0.915 169 100 61
-2416.9858 3101.0889 619.0847 0.484 -0.322 0.814 144 83 47
-2421.6523 3136.8752 606.5856 0.348 -0.928 -0.132 79 53 41
-2419.2617 3141.8113 602.4932 0.516 -0.817 -0.257 66 46 30
-2372.6880 3165.1846 555.5988 0.536 -0.287 0.794 106 92 84
-2262.1794 3102.9648 497.4089 -0.114 -0.984 -0.138 95 62 42
-2255.7341 3102.9170 492.3999 -0.114 -0.984 -0.138 164 101 77
-2249.2490 3102.8088 487.3868 -0.106 -0.983 -0.153 192 119 91
-2237.9932 3096.8381 481.2944 -0.320 -0.945 0.063 184 106 78
-2282.3018 3266.0845 439.5392 0.928 -0.110 -0.357 207 130 108
-2228.2412 3255.8125 401.9771 -0.369 -0.685 0.628 11 4 2
-2230.8069 3319.7827 375.1256 0.742 -0.534 0.404 9 10 7
-2231.2603 3329.2043 371.2299 0.736 -0.542 0.406 10 11 13
-2212.8057 3403.4924 323.3178 0.844 -0.489 -0.222 16 19 26
-2214.1099 3414.5322 319.3562 0.567 -0.820 0.078 27 30 37
-2179.1292 3384.5542 305.5747 0.725 -0.607 0.324 43 46 53
-2198.1575 3420.2957 304.3053 0.740 -0.608 0.289 48 51 58
-2219.8572 3488.5649 290.4494 0.505 -0.857 0.100 50 50 61
-1848.9688 4823.2925 -601.0698 -0.254 -0.918 0.304 245 185 191
-1745.5902 4630.2559 -594.6891 0.995 0.093 0.024 234 171 176
-1654.6497 4553.9365 -631.2462 0.022 -0.674 -0.738 224 148 157
-1623.0168 4644.5869 -696.8245 -0.293 -0.930 -0.222 111 37 47
-1619.7483 4655.6470 -704.3643 -0.289 -0.931 -0.221 117 41 53
-1617.5063 4669.4956 -712.3605 -0.308 -0.916 -0.258 125 45 59
-1573.5704 4651.8662 -738.7017 -0.172 -0.927 -0.334 199 131 150
-830.0543 4218.4053 -1123.5176 0.631 -0.234 0.739 251 89 112
-625.2713 3560.5159 -986.6121 0.329 -0.616 0.716 246 57 97
-592.6347 3470.1772 -971.3381 0.167 -0.544 0.822 255 127 150
-744.3813 4630.1318 -1376.0977 0.248 -0.963 0.103 255 92 142
-739.1978 4637.1602 -1383.3137 0.321 -0.947 0.022 255 86 136
-505.3410 4227.8730 -1381.2338 0.333 -0.696 0.636 254 62 114
-471.8990 4187.5967 -1389.1691 0.468 -0.712 0.523 255 154 176
-278.1839 3243.8962 -1114.7087 0.023 -0.912 0.409 239 44 79
-2874.9480 2744.4609 1128.3096 0.611 -0.203 0.765 65 173 195
-2883.0835 2757.0811 1128.9270 0.969 0.048 0.241 68 159 185
-3038.8030 2937.3777 1168.5333 0.681 -0.388 0.621 182 139 116
-3061.3066 2982.1475 1165.7688 0.761 -0.408 0.505 184 167 154
-3028.3081 2960.0376 1150.0746 0.826 -0.522 -0.212 181 167 156
-3027.5601 2965.7776 1146.8881 0.865 -0.412 0.286 181 167 156
-3030.8899 2975.0801 1145.2643 0.536 -0.513 0.671 183 166 156
-3032.0742 2982.5483 1142.8000 0.321 -0.472 0.821 175 159 146
-3009.4238 3095.2222 1074.0377 0.791 -0.248 0.559 18 17 8
-3008.4937 3101.2278 1070.5887 0.788 -0.241 0.566 18 18 8
-2953.8342 3078.2625 1038.3978 -0.048 -0.934 0.353 18 16 9
-2946.4353 3078.2422 1032.6395 -0.190 -0.946 0.262 38 24 11
-2934.2019 3073.7114 1025.1584 -0.190 -0.946 0.262 65 40 18
-2922.0264 3069.2021 1017.7130 -0.190 -0.946 0.262 81 56 34
-2916.3066 3070.6992 1012.5754 -0.161 -0.950 0.267 97 72 52
-2899.9624 3069.0737 1000.5721 0.888 -0.288 0.358 111 86 66
-2889.7661 3073.1997 990.7526 0.912 -0.282 0.297 111 87 64
-2897.2258 3087.1572 990.2368 0.502 -0.480 0.719 101 75 52
-2887.7212 3085.0659 983.7765 0.105 -0.648 0.754 95 69 42
-2878.5598 3083.2805 977.4449 0.435 -0.507 0.744 95 69 43
-2874.4390 3086.2861 972.8695 0.885 -0.210 0.415 92 69 47
-2866.6519 3113.7712 954.3328 0.329 -0.297 0.896 95 81 84
-2807.9019 3091.8206 918.4930 0.383 -0.412 0.827 98 59 50
-2701.9729 3015.4126 870.5775 -0.378 -0.729 0.570 183 99 63
-2345.9858 2977.1904 610.4198 -0.066 -0.623 0.779 188 120 81
-2327.8616 2963.9973 602.2758 0.245 -0.387 0.889 189 120 81
-2316.2671 2958.0789 595.9222 0.243 -0.387 0.890 184 115 74
-2385.4829 3050.7727 607.8328 0.111 -0.236 0.965 158 90 53
-2376.1860 3146.2654 557.2728 0.416 -0.804 0.424 66 53 44
-2370.0161 3146.7920 552.2245 0.416 -0.804 0.424 69 56 47
-2365.5886 3149.3721 547.6030 0.368 -0.829 0.421 73 58 51
-2359.7979 3150.3379 542.6509 0.483 -0.842 0.242 75 62 54
-2353.3804 3150.5527 537.5510 0.470 -0.849 0.241 84 71 62
-2335.7178 3137.3428 529.7746 -0.301 -0.951 0.065 87 74 65
-2325.7097 3133.2056 523.8499 -0.313 -0.938 0.152 96 82 73
-2248.1663 3101.9504 477.5806 -0.340 -0.936 0.090 181 105 78
-2247.2961 3116.5828 470.2655 -0.042 -0.858 -0.512 198 112 72
-2289.9480 3276.3823 431.0319 0.217 -0.691 0.689 189 120 104
-2229.8755 3310.3591 368.7940 0.742 -0.540 0.397 8 10 7
-2229.0835 3318.0854 364.6720 0.754 -0.533 0.383 9 10 12
-2206.8276 3386.7344 316.1862 0.764 -0.624 0.161 15 18 25
-2204.9924 3393.3843 311.7393 0.774 -0.618 0.139 26 29 36
-2199.6321 3395.1929 306.7406 0.720 -0.666 0.195 36 39 46
-2214.2712 3443.4229 296.2759 0.722 -0.692 0.011 51 51 61
-2223.9753 3485.4746 284.7667 0.505 -0.857 0.100 48 50 62
-2166.5071 3480.7407 242.1169 -0.270 -0.959 -0.088 217 198 204
-2179.0681 3508.6118 239.2668 0.622 -0.781 0.055 217 200 206
-1853.0302 4816.0781 -607.9160 -0.249 -0.921 0.301 242 180 185
-1810.8781 4734.0835 -603.5832 -0.359 -0.848 0.389 235 173 178
-1760.2933 4668.0913 -613.0818 0.912 0.078 0.402 231 166 170
-1684.8279 4575.7485 -630.0234 0.030 -0.687 -0.726 230 155 160
-1650.6283 4545.9854 -643.1824 0.079 -0.542 -0.837 210 133 139
-1647.9912 4557.9849 -650.6805 0.141 -0.501 -0.854 183 106 112
-1621.6267 4662.9316 -718.8332 -0.299 -0.921 -0.249 137 55 69
-1579.0339 4648.9707 -745.7022 -0.166 -0.931 -0.326 207 142 162
-733.1100 4608.5210 -1386.7585 0.310 -0.893 -0.327 253 76 131
-506.6913 4203.3174 -1379.4631 0.567 -0.803 0.184 254 59 113
-477.4817 4194.5493 -1398.2552 0.198 -0.772 0.604 255 156 177
-453.8815 4184.0791 -1411.9028 0.366 -0.345 0.864 233 100 135
-283.9372 3226.9734 -1110.2563 0.106 -0.771 -0.628 240 64 98
-240.4348 3586.1553 -1307.0826 0.396 -0.489 0.777 194 20 43
-2865.8430 2725.4497 1120.8051 0.887 -0.326 0.328 67 167 186
-2867.0359 2737.9558 1116.0297 0.622 -0.091 0.778 74 153 177
-2875.2910 2750.6626 1116.6605 0.565 -0.133 0.815 88 140 171
-3060.2310 2974.9531 1158.3364 0.761 -0.408 0.505 184 167 154
-3030.6575 2955.8455 1144.0288 0.889 -0.418 0.185 181 167 156
-3049.8242 2978.8013 1148.4796 0.440 -0.569 0.695 184 170 159
-3029.2520 2967.3967 1137.6659 0.087 -0.645 0.759 192 178 167
-3017.9468 2963.9829 1130.4219 0.424 -0.561 0.711 167 151 138
-3006.7910 3093.0168 1062.8853 0.785 -0.249 0.568 38 28 17
-2988.6560 3083.2383 1053.2271 -0.218 -0.968 -0.126 36 26 15
-2958.4998 3075.9568 1033.0718 -0.033 -0.914 0.404 34 23 13
-2927.1465 3060.5449 1015.6929 -0.184 -0.942 0.282 84 50 26
-2917.2515 3058.1484 1009.0828 -0.172 -0.954 0.244 95 61 36
-2915.5645 3063.3896 1005.3790 -0.191 -0.947 0.257 104 71 46
-2917.8125 3072.3279 1003.0523 0.944 -0.322 -0.071 115 80 54
-2904.2815 3066.5020 995.1757 0.897 -0.284 0.339 119 82 59
-2895.1687 3064.7905 988.8619 0.895 -0.276 0.352 120 84 60
-2889.2683 3066.0886 983.6767 0.877 -0.285 0.386 118 84 60
-2894.8503 3078.2322 982.4835 0.458 -0.468 0.755 98 64 40
-2886.9917 3077.6946 976.6108 0.084 -0.652 0.753 86 54 28
-2875.9084 3074.0818 969.6304 0.435 -0.507 0.744 85 55 32
-2870.2458 3075.6013 964.5292 0.637 -0.393 0.664 79 55 35
-2864.0383 3097.4629 949.7256 0.376 -0.274 0.885 103 94 93
-2826.1692 3088.8477 924.1741 0.330 -0.412 0.849 85 66 63
-2813.6497 3083.6682 916.7900 0.330 -0.412 0.849 72 47 37
-2765.0625 3057.0898 891.0877 0.382 -0.436 0.815 125 82 54
-2707.1934 3013.9690 865.7045 -0.380 -0.730 0.569 183 100 63
-2340.7810 2964.5940 602.9753 -0.047 -0.623 0.781 188 120 81
-2326.7747 2956.0269 595.9789 -0.018 -0.566 0.824 189 121 82
-2350.6101 2989.9238 599.0742 -0.213 -0.537 0.816 191 122 81
-2350.8079 3004.6062 592.5316 0.110 -0.237 0.965 154 89 51
-2368.4985 3153.2563 538.5045 0.697 -0.017 0.717 56 43 35
-2325.0208 3132.8306 513.9736 0.126 -0.513 0.849 79 66 58
-2311.3247 3124.2344 507.2321 -0.350 -0.918 0.185 88 75 67
-2299.5979 3117.9485 500.9699 -0.321 -0.928 0.188 79 66 57
-2285.3408 3108.5640 494.1511 -0.301 -0.949 0.099 71 57 47
-2269.6350 3105.1440 483.4841 -0.203 -0.978 0.046 136 78 57
-2263.1128 3105.0222 478.4621 -0.329 -0.941 0.086 176 108 82
-2265.7793 3179.9712 446.3539 0.615 -0.784 -0.079 199 117 77
-2281.2681 3265.8425 419.2460 0.227 -0.640 0.734 93 39 30
-2272.4480 3263.0322 413.6614 0.233 -0.634 0.737 49 9 7
-2240.3623 3238.7278 399.7683 -0.032 -0.525 0.850 23 7 1
-2223.5183 3225.4182 392.7258 -0.039 -0.528 0.848 14 5 3
-2223.2070 3302.1086 357.5051 0.743 -0.560 0.367 5 6 8
-2202.5713 3390.6992 301.0342 0.635 -0.612 0.470 36 39 46
-2195.8394 3390.6072 295.8356 0.633 -0.615 0.471 43 46 53
-2192.5757 3395.3074 291.1510 0.623 -0.621 0.476 48 51 58
-2226.7681 3490.0981 274.5356 0.392 -0.917 0.073 51 53 65
-2219.2917 3489.1663 269.1404 0.315 -0.947 0.065 51 53 65
-2172.4924 3480.3899 236.7103 -0.268 -0.960 -0.077 215 196 202
-2092.5808 5326.9341 -667.7059 0.530 -0.433 0.729 244 193 201
-1819.5726 4738.2715 -611.7526 -0.332 -0.838 0.433 230 165 169
-1687.5549 4566.1382 -636.0176 0.644 -0.423 -0.637 214 143 147
-1679.0695 4563.5869 -641.4597 0.153 -0.515 -0.844 214 143 147
-1656.0176 4618.3745 -684.3939 0.162 -0.561 -0.812 128 52 62
-1663.8444 4657.6030 -696.1930 0.211 -0.547 -0.810 122 45 55
-1661.1398 4670.0596 -703.9797 0.219 -0.540 -0.813 117 40 50
-1631.5765 4671.6650 -727.7269 -0.298 -0.923 -0.243 152 70 85
-1626.5011 4678.1099 -734.6174 -0.276 -0.935 -0.222 191 95 124
-1587.2256 4653.3828 -753.9152 -0.243 -0.946 0.213 184 122 141
-1553.5854 4622.6060 -766.0665 -0.371 -0.786 0.495 146 108 119
-1394.2245 4646.6265 -901.0834 0.928 -0.134 0.347 253 205 219
-1237.9812 5210.5635 -1279.9282 0.612 -0.787 0.078 244 166 180
-1078.7131 5024.0908 -1318.8672 0.976 -0.103 -0.191 223 119 129
-896.5114 4441.3345 -1194.9155 -0.093 -0.828 -0.554 251 111 129
-634.6413 3565.2278 -999.1886 -0.052 -0.979 -0.199 254 69 110
-702.3074 4211.4121 -1241.2346 0.826 -0.071 -0.559 255 117 157
-755.1818 4629.4092 -1390.7201 -0.283 -0.934 -0.218 255 90 142
-481.2267 4187.4556 -1402.4177 0.221 -0.624 0.750 255 156 177
-462.0539 4168.2666 -1408.5916 0.375 -0.332 0.865 230 103 136
-457.1807 4173.4565 -1414.7523 0.366 -0.345 0.864 233 100 135
-256.2915 2943.5745 -1010.1957 -0.082 -0.868 0.490 243 63 99
-287.5992 3267.1086 -1133.3864 0.144 -0.973 -0.178 240 38 76
-257.3863 3686.8062 -1348.3301 -0.293 -0.939 -0.181 188 11 32
-2855.7539 2722.8857 1105.1019 0.576 -0.120 0.809 84 146 166
-3030.0315 2930.1587 1145.5386 0.875 -0.402 0.271 192 169 155
-3033.9502 2939.8091 1144.1593 0.689 -0.346 0.637 185 167 154
-3035.1421 2947.1541 1141.7174 0.901 -0.409 0.145 182 167 156
-3029.9104 2948.9939 1136.8060 0.885 -0.410 0.220 181 167 156
-3046.0674 2969.2932 1140.0580 0.423 -0.648 0.633 185 171 160
-3025.3611 2957.7878 1129.2360 0.083 -0.650 0.756 198 184 173
-2947.4524 2915.4038 1088.1021 0.306 -0.938 0.165 41 32 23
-2970.0115 2960.6565 1084.8873 0.771 -0.412 0.485 21 14 6
-2994.5740 3008.4231 1082.0771 0.901 -0.396 0.176 25 13 8
-2989.0645 3010.0840 1077.0321 0.888 -0.420 0.188 25 13 7
-2995.2571 3069.0730 1054.7930 0.299 -0.953 -0.039 56 36 23
-2990.1423 3071.1895 1049.8457 0.231 -0.953 0.196 56 34 22
-2984.1946 3072.5439 1044.6002 0.214 -0.960 0.180 61 40 27
-2969.8491 3066.1921 1036.3601 0.410 -0.904 0.118 65 45 31
-2981.6624 3083.8523 1037.4452 0.773 -0.624 0.112 65 45 29
-2961.1575 3071.7986 1027.0312 -0.148 -0.900 0.409 66 44 31
-2939.9385 3059.0149 1016.3969 -0.153 -0.940 0.307 83 49 30
-2917.7156 3051.9998 1002.3363 -0.366 -0.843 -0.394 108 63 34
-2910.3469 3051.9355 996.6370 -0.309 -0.815 -0.491 113 67 40
-2922.6201 3070.1921 997.8062 0.031 -0.836 -0.548 124 76 46
-2901.6914 3057.4651 987.3715 0.895 -0.284 0.343 129 79 52
-2891.2329 3054.4851 980.6069 0.890 -0.308 0.337 128 80 52
-2892.3132 3062.3296 977.8492 0.637 -0.393 0.664 126 80 54
-2897.6997 3074.2620 976.5645 0.075 -0.654 0.753 98 55 31
-2885.0686 3069.2178 969.0576 0.084 -0.652 0.753 80 41 18
-2872.5845 3064.2771 961.6172 0.262 -0.554 0.790 77 42 21
-2864.2725 3063.2642 955.6196 0.391 -0.429 0.815 72 43 25
-2813.3672 3076.6650 909.8959 0.658 -0.286 0.697 67 49 29
-2737.2576 3030.0649 872.0944 -0.322 -0.757 0.569 168 99 65
-2712.0222 3012.1340 860.6980 -0.370 -0.723 0.584 182 100 63
-2335.9729 2959.5808 592.4307 -0.163 -0.518 0.840 188 120 81
-2345.5789 2977.4644 591.6972 -0.214 -0.533 0.819 195 128 86
-2303.6982 2937.5742 577.4306 0.036 -0.355 0.934 181 113 74
-2374.3623 3091.2170 561.9062 0.605 0.010 0.796 101 96 77
-2377.2856 3102.1899 559.1465 0.711 -0.031 0.703 93 84 72
-2356.5518 3124.0271 533.0114 0.687 -0.032 0.726 77 64 58
-2355.4502 3130.4773 529.1967 0.674 -0.001 0.739 70 57 49
-2347.0137 3128.2717 523.6492 0.639 -0.020 0.769 60 47 39
-2333.7571 3128.0940 513.4238 0.558 -0.026 0.830 71 58 50
-2310.3215 3107.9319 504.4502 0.097 -0.525 0.846 75 62 54
-2316.4504 3123.0247 502.2934 0.107 -0.582 0.807 71 58 50
-2284.8213 3100.6204 487.9776 0.187 -0.590 0.785 63 50 41
-2276.7307 3106.4043 479.0347 -0.203 -0.978 0.046 125 69 49
-2272.5217 3109.1057 474.5234 -0.333 -0.939 0.088 167 101 76
-2260.8018 3118.3450 461.1740 -0.233 -0.899 -0.370 198 112 72
-2263.9517 3170.0889 439.8920 0.634 -0.773 -0.012 199 117 77
-2281.7048 3200.3467 439.8178 0.765 -0.618 0.179 201 119 79
-2302.3269 3284.7437 417.1446 -0.135 -0.985 -0.108 69 22 14
-2219.7393 3221.0811 382.1316 -0.398 -0.651 0.646 9 10 5
-2186.1394 3387.0449 279.8939 0.522 -0.572 0.633 49 52 61
-2233.3376 3490.4331 269.1732 0.402 -0.914 0.048 50 52 64
-2227.1682 3491.3579 263.9524 0.219 -0.970 0.107 56 58 70
-2180.6748 3483.1729 231.5586 -0.202 -0.977 -0.062 218 199 205
-1758.9866 4437.3770 -533.9138 -0.089 -0.929 0.358 253 207 217
-2141.7261 5339.4731 -650.0649 0.502 -0.444 0.742 253 207 217
-1801.6946 4735.0713 -637.2389 -0.435 -0.873 -0.219 219 154 158
-1798.3430 4745.8740 -644.7991 -0.178 -0.945 0.276 219 154 158
-1766.1320 4705.3823 -651.2719 0.892 0.026 0.452 201 136 137
-1705.0751 4593.0234 -647.2117 0.511 -0.592 -0.623 202 135 137
-1685.0315 4562.0220 -648.5772 0.590 -0.750 -0.301 202 135 137
-1676.9625 4560.4888 -654.1474 0.602 -0.713 -0.360 206 139 141
-1674.4423 4572.7695 -661.7393 0.612 -0.698 -0.371 167 100 102
-1670.0059 4580.3325 -668.6569 0.612 -0.698 -0.371 140 74 76
-1662.1693 4579.3765 -674.3112 0.639 -0.585 -0.499 142 73 76
-1658.6913 4589.4131 -681.6183 0.639 -0.585 -0.499 131 57 66
-1650.9922 4588.7925 -687.3195 0.710 -0.561 -0.426 129 52 62
-1645.8950 4594.7827 -694.0297 0.277 -0.944 -0.182 124 44 55
-1640.3700 4599.7065 -700.5834 0.715 -0.509 -0.480 117 40 48
-874.7532 4293.8589 -1155.5637 0.025 -0.752 0.658 236 127 135
-901.1669 4437.7993 -1201.0421 0.357 -0.459 0.814 251 111 129
-785.2133 4026.5867 -1102.6017 0.675 -0.306 0.671 249 10 59
-514.1752 4229.5249 -1406.3995 0.251 -0.661 0.707 255 65 117
-484.7772 4178.9854 -1406.0771 0.358 -0.528 0.770 255 156 177
-464.4230 4150.7173 -1408.9377 0.370 -0.315 0.874 231 104 137
-258.7798 2937.9792 -1012.6309 -0.085 -0.875 0.477 242 62 98
-2845.1436 2697.0730 1099.7439 0.583 -0.320 0.747 109 160 170
-2837.0115 2701.6619 1091.3134 0.498 -0.108 0.860 100 144 155
-3008.1523 2892.9666 1135.9775 0.820 0.059 0.569 199 175 163
-3036.4165 2942.0640 1135.2822 0.901 -0.409 0.145 189 175 164
-3033.4016 2945.8027 1131.2172 0.887 -0.424 0.181 194 180 169
-3045.8914 2962.9001 1133.0305 0.431 -0.665 0.610 198 184 173
-3029.3140 2954.9814 1123.8105 0.426 -0.658 0.621 200 186 175
-2945.6375 2907.6887 1080.6479 0.332 -0.920 0.207 31 22 13
-3026.3362 3010.5073 1095.8928 0.712 -0.266 0.650 27 22 16
-2965.8730 2963.6042 1070.5748 0.831 -0.347 0.435 31 23 15
-2974.0142 3077.0259 1024.5918 -0.053 -0.983 -0.176 96 61 47
-2970.3926 3080.5200 1020.1684 -0.295 -0.920 -0.257 114 67 47
-2895.2319 3051.6404 975.1271 0.894 -0.281 0.350 150 87 58
-2895.7588 3065.7932 969.0095 0.075 -0.654 0.753 130 76 53
-2883.1531 3060.7756 961.5355 0.084 -0.652 0.753 100 52 30
-2869.2222 3054.4707 953.6263 0.262 -0.554 0.790 80 37 18
-2857.0815 3049.8198 946.3444 0.262 -0.554 0.790 80 44 30
-2804.0564 3060.9338 900.0472 0.650 -0.303 0.697 83 61 35
-2756.1655 3035.0627 874.7923 0.394 -0.428 0.813 112 70 34
-2328.0774 2944.0457 584.3712 -0.163 -0.518 0.840 187 119 80
-2322.3813 2944.7473 579.6250 -0.217 -0.553 0.804 185 118 76
-2322.9368 2952.4500 576.5042 -0.277 -0.566 0.776 186 118 79
-2257.9846 2886.5569 556.4577 0.059 -0.284 0.957 171 106 68
-2365.2671 3081.1226 550.0345 0.619 0.022 0.785 95 87 74
-2349.2961 3108.2195 525.1381 0.643 -0.005 0.766 123 110 104
-2345.0093 3110.8721 520.5862 0.664 -0.002 0.748 122 109 101
-2341.3899 3114.3164 516.1876 0.603 0.013 0.798 118 105 97
-2321.4753 3106.1846 504.4748 0.561 -0.025 0.827 128 115 107
-2304.2168 3108.8313 489.8537 0.178 -0.607 0.775 67 54 48
-2284.2166 3092.6023 481.8082 0.187 -0.590 0.785 61 48 41
-2358.8442 3255.2942 464.7284 0.173 -0.645 -0.744 201 112 68
-2253.2554 3165.3386 424.2259 0.600 -0.785 -0.152 217 136 93
-2305.4739 3297.8330 403.6717 -0.270 -0.933 -0.237 20 5 0
-2252.2778 3246.7053 385.9447 -0.390 -0.650 0.652 6 10 2
-2220.2864 3282.0142 344.8218 0.661 -0.655 0.366 8 9 11
-2197.8740 3358.1819 292.2950 0.636 -0.584 0.505 16 19 26
-2185.6626 3377.8489 273.7439 0.541 -0.560 0.628 49 52 61
-2232.0706 3479.7883 262.7686 0.502 -0.680 -0.535 49 51 63
-2182.4458 3496.1411 216.6958 0.442 -0.785 -0.435 219 202 208
-1774.0956 4439.9531 -535.6100 -0.086 -0.930 0.359 248 202 212
-1764.6477 4435.2749 -540.7885 -0.089 -0.929 0.358 248 202 212
-2119.8323 5311.8164 -669.2178 -0.569 -0.812 0.127 236 192 201
-2093.0989 5291.0039 -680.3779 -0.549 -0.827 0.123 241 190 198
-2081.5864 5284.7905 -686.4515 0.619 -0.666 0.416 231 171 176
-1908.1925 4896.1138 -641.8469 -0.319 -0.925 0.206 230 165 171
-1868.0439 4820.2036 -638.0150 -0.451 -0.881 0.143 223 158 162
-1712.2998 4594.4072 -654.8182 0.516 -0.588 -0.623 190 132 131
-1659.3032 4612.1304 -704.1410 0.797 0.023 0.604 125 45 56
-1608.4249 4654.9365 -763.3861 -0.356 -0.714 0.602 168 93 116
-1601.1812 4655.5625 -769.2991 -0.352 -0.708 0.612 132 68 87
-1391.3074 4599.8525 -906.5674 0.898 0.145 0.415 255 209 222
-1031.6213 4773.8325 -1266.0798 0.479 -0.872 -0.100 226 122 132
-899.8939 4436.2402 -1212.6808 0.493 -0.207 0.845 245 74 101
-810.2404 4831.1782 -1464.4183 0.768 -0.086 -0.634 251 89 141
-485.7948 4151.8452 -1403.0640 0.291 -0.535 0.793 255 157 178
-472.5580 4135.4507 -1405.7814 0.147 -0.458 0.877 251 131 159
-383.4287 3931.0046 -1380.7065 0.641 -0.306 0.704 237 74 109
-260.8167 2928.4331 -1013.5751 -0.191 -0.906 0.377 226 48 83
-560.0484 5955.1680 -2177.0093 0.671 -0.341 0.659 226 10 47
-550.1132 5936.0522 -2175.9084 0.756 -0.272 0.595 226 10 47
-2825.7065 2686.7041 1080.5272 0.530 -0.116 0.840 122 143 149
-2918.3884 2799.0000 1100.3279 0.831 -0.236 0.504 188 169 159
-3025.9309 2920.6633 1127.3086 0.925 -0.369 0.089 186 171 162
-3037.0659 2942.7622 1125.6965 0.890 -0.405 0.209 197 183 172
-3043.9077 2954.9717 1125.3407 0.413 -0.652 0.635 200 186 175
-3029.0410 2948.5366 1116.7960 0.426 -0.658 0.621 195 181 170
-3005.0933 2940.5505 1101.9290 0.439 -0.659 0.611 81 67 56
-2965.7346 2912.7617 1084.2936 0.531 -0.590 0.608 42 30 21
-2973.8743 2926.1262 1084.4087 0.306 -0.859 0.410 26 16 7
-2966.7622 2926.2527 1078.8350 0.522 -0.838 0.158 25 18 10
-2972.9658 2950.7559 1072.2839 0.804 -0.354 0.479 28 19 12
-2972.4517 2956.7112 1069.1239 0.823 -0.401 0.403 27 21 14
-2975.1753 2965.5422 1067.1414 0.863 -0.334 0.378 28 20 11
-2971.0300 2968.3318 1062.6333 0.822 -0.342 0.456 33 19 8
-2991.1267 2992.6152 1066.9575 0.887 -0.125 0.444 43 23 10
-2988.4023 3023.0576 1050.7296 0.859 -0.265 0.438 96 72 57
-2988.2341 3029.5444 1047.5914 0.858 -0.261 0.442 98 70 54
-2968.1729 3051.5332 1021.8392 0.942 -0.297 0.155 113 67 51
-2961.8484 3052.4978 1016.4877 0.934 -0.307 0.183 115 67 50
-2905.4700 3061.4395 968.6235 0.124 -0.670 0.732 155 87 58
-2870.9573 3049.5037 947.3951 0.302 -0.523 0.797 95 46 29
-2857.6836 3043.7925 939.7502 0.399 -0.464 0.790 77 33 22
-2837.3806 3051.8621 920.2648 0.610 -0.656 0.444 108 84 82
-2830.9890 3052.6199 914.9570 0.243 -0.695 0.677 104 83 77
-2824.7607 3053.5281 909.7062 0.227 -0.711 0.666 100 78 69
-2812.5857 3048.7107 902.4988 0.606 -0.657 0.449 100 74 60
-2807.5125 3057.6072 894.4398 0.677 -0.605 0.418 107 68 45
-2305.6357 2919.3779 569.3563 -0.202 -0.566 0.800 184 115 74
-2230.2681 2848.9231 543.5811 0.059 -0.284 0.957 182 114 77
-2337.5532 3094.8596 512.7397 0.600 0.013 0.800 174 161 153
-2286.9165 3088.5686 476.3907 0.255 -0.590 0.766 71 57 49
-2274.0730 3080.8730 469.9996 0.921 -0.335 0.200 78 52 38
-2267.1411 3103.4944 454.1353 0.461 -0.623 0.632 189 114 78
-2287.1873 3135.7119 454.7415 -0.202 -0.970 -0.138 199 113 75
-2297.7280 3156.4963 453.2780 -0.096 -0.979 -0.180 202 112 70
-2311.5068 3272.0308 410.3921 -0.324 -0.945 -0.040 75 30 11
-2202.8767 3365.6487 282.7472 0.561 -0.661 0.498 20 23 30
-2218.7654 3424.2612 267.8907 0.690 -0.649 -0.322 49 52 61
