ply
format ascii 1.0
element vertex 798
property float x
property float y
property float z
property float nx
property float ny
property float nz
property uchar diffuse_red
property uchar diffuse_green
property uchar diffuse_blue
end_header
-1222.0972 777.5995 875.3642 0.628 0.194 -0.754 203 196 186
-4023.3540 2772.3997 2587.6997 0.101 -0.107 -0.989 210 203 197
-3603.1172 5273.0337 2169.0806 0.247 -0.480 -0.841 57 34 20
-3535.6067 5977.7700 2084.3259 0.946 -0.295 0.137 124 91 58
-3086.8870 5843.8447 1799.3131 0.966 0.240 -0.097 134 101 66
-2898.4299 5832.0688 1677.0421 0.590 -0.719 0.367 60 39 18
-2831.4851 6025.2202 1622.2091 0.246 -0.749 -0.616 19 18 12
-2817.5132 6020.5337 1613.3644 0.207 -0.814 -0.542 19 19 11
-2672.4495 5885.2104 1526.5404 0.995 0.048 -0.088 34 35 30
-2631.0498 5844.5259 1501.8811 0.267 -0.958 0.105 19 21 17
-2436.7104 5520.1240 1393.8317 0.030 -0.748 -0.663 24 25 24
-2547.9707 5829.1509 1448.5676 0.722 -0.106 -0.684 19 25 19
-2548.3875 5853.4731 1447.4346 0.724 -0.110 -0.681 19 25 17
-2421.8977 5782.3960 1369.0173 -0.044 -0.470 -0.881 6 6 4
-2269.3647 5850.8301 1265.5500 -0.347 -0.531 -0.773 6 16 25
-2115.1777 5610.7998 1178.8225 0.033 -0.034 -0.999 22 28 49
-2385.4336 6450.7290 1306.6206 0.959 0.237 -0.156 13 34 63
-2353.5220 6395.2979 1289.0032 0.383 -0.784 0.489 12 33 60
-2215.7896 6167.4194 1212.3088 0.168 -0.985 0.050 12 41 70
-2151.9966 6153.8823 1171.4717 -0.155 -0.868 0.471 5 37 65
-2044.2378 6199.8975 1098.5106 -0.398 -0.914 -0.077 25 56 76
-1800.8031 6233.1616 937.7699 0.468 -0.869 0.161 9 18 23
-1739.5615 6231.4668 897.9132 0.954 -0.299 -0.037 8 17 15
-4352.0576 4900.7007 2662.5063 0.201 -0.382 -0.902 221 216 213
-3646.0098 5891.8765 2144.5227 0.282 -0.299 -0.912 125 94 66
-3659.1536 5934.6636 2150.5310 0.328 -0.269 -0.906 125 94 66
-3449.7751 5825.7539 2020.8322 0.885 -0.460 0.072 121 88 55
-3531.6028 5980.7490 2064.8472 0.905 -0.403 0.133 117 84 53
-3022.5122 5648.3257 1753.5052 0.941 0.254 -0.224 128 95 60
-3298.5747 6382.8481 1889.4395 0.719 0.047 -0.693 126 100 67
-2873.1106 5791.8501 1647.8282 0.816 -0.523 0.245 68 46 24
-2851.5825 5772.8691 1634.9546 0.817 -0.521 0.249 68 46 23
-2850.5391 5884.6592 1627.6412 0.553 -0.709 0.437 31 23 10
-2837.7737 5882.4858 1619.4686 0.540 -0.712 0.448 30 24 10
-2963.4038 6252.8467 1679.1873 0.671 -0.655 -0.349 22 19 9
-2797.5396 6011.9292 1585.6211 0.483 -0.825 -0.294 22 22 14
-2664.4172 5899.9307 1505.6963 0.640 -0.358 -0.680 26 26 23
-2693.2065 5984.4854 1519.4001 0.592 -0.176 -0.787 25 26 20
-2611.5085 5881.0591 1472.4087 -0.288 -0.767 -0.574 22 26 28
-2751.8674 6567.4761 1522.9475 -0.243 -0.953 0.183 10 12 9
-2207.1765 6126.3428 1194.9061 0.171 -0.971 -0.165 16 39 69
-1963.0748 5794.5493 1055.8542 0.679 0.315 -0.663 22 58 89
-1897.7103 6072.2168 996.8668 -0.028 -0.421 -0.906 12 32 43
-1781.7125 6121.2178 918.5229 0.894 -0.354 0.276 14 25 31
-1805.2056 6226.1147 927.5752 0.466 -0.872 0.147 9 18 22
-1746.5776 6233.2285 889.0261 0.953 -0.298 -0.055 8 17 15
-4043.5334 2811.7751 2573.1274 0.268 -0.217 -0.939 196 191 185
-4036.0945 2818.5525 2567.8921 0.241 -0.183 -0.953 208 203 197
-3557.9087 2665.3916 2267.2490 0.915 0.126 -0.383 224 213 207
-3587.5518 5190.8198 2132.5852 0.755 0.326 -0.569 66 40 27
-3497.2034 5911.7910 2030.0883 -0.071 -0.873 0.483 117 84 53
-3441.2056 5865.4883 1996.6101 -0.077 -0.970 0.233 117 84 53
-3055.6228 5716.0000 1755.7714 0.846 0.313 -0.432 121 88 53
-3046.9812 5766.6929 1747.0807 0.921 0.318 -0.224 124 91 56
-2864.8018 5761.8076 1629.2837 0.517 -0.718 0.467 56 35 15
-2847.2075 5750.3584 1618.5762 0.800 -0.540 0.262 54 33 12
-2808.3923 5809.9248 1589.7854 0.953 -0.101 -0.286 30 24 12
-2784.7380 5808.5078 1574.5382 0.710 -0.700 -0.076 27 19 7
-2614.8557 5667.1938 1473.0256 0.959 -0.245 0.143 16 16 8
-2647.0479 5756.3154 1488.4633 0.899 -0.261 -0.351 14 15 9
-2607.5718 5787.9214 1460.9478 -0.087 -0.477 -0.874 26 26 22
-2605.1538 5805.8130 1458.2902 -0.071 -0.503 -0.861 25 26 20
-2598.5898 5814.9375 1453.4792 -0.079 -0.488 -0.870 24 26 21
-2595.3472 5831.1763 1450.3877 -0.064 -0.506 -0.860 21 26 32
-2588.9807 5840.7593 1445.6769 -0.064 -0.514 -0.855 9 15 33
-2574.0908 5855.2686 1435.1407 -0.048 -0.155 -0.987 9 15 42
-2550.7756 5969.8877 1413.0431 0.974 0.047 -0.223 19 21 18
-2229.9143 5865.5288 1211.4089 0.792 -0.572 -0.213 16 15 26
-2214.8372 5876.5171 1200.9661 0.394 -0.743 -0.541 14 14 27
-2215.3147 6208.0464 1181.0748 0.103 -0.965 0.243 15 34 63
-2179.8499 6139.4995 1162.2621 0.126 -0.978 0.163 14 32 60
-2175.3210 6153.5059 1158.4729 0.192 -0.952 0.236 14 31 60
-2108.8779 6077.6807 1120.0226 -0.176 -0.858 0.483 32 62 93
-2044.4547 5977.7515 1084.3502 0.803 0.079 -0.590 26 57 88
-1937.2074 6199.3730 1001.3251 -0.381 -0.856 -0.350 15 31 41
-1783.8453 6107.2378 907.5248 0.894 -0.354 0.276 6 17 22
-1812.0050 6226.9185 918.4865 0.477 -0.866 0.148 10 19 23
-1750.2010 6223.5596 878.6277 0.953 -0.298 -0.055 8 15 14
-1363.6458 5384.6333 679.1674 -0.089 -0.006 -0.996 167 136 131
-4031.9746 2811.7510 2552.9663 0.320 -0.843 -0.432 207 202 196
-4281.8926 4826.0278 2588.5383 0.861 -0.291 -0.416 226 221 217
-4208.9741 4837.8120 2540.6853 -0.026 -0.997 -0.078 232 227 221
-3932.2461 5447.2808 2323.7795 -0.355 -0.610 -0.708 95 66 52
-3590.7832 5165.3901 2120.7642 0.820 0.277 -0.501 66 40 27
-3456.2673 5810.5190 1993.5197 0.899 -0.435 0.061 113 80 47
-3478.6057 6049.8213 1992.9948 -0.135 -0.991 0.019 132 100 72
-3487.6536 6088.0542 1996.4512 0.274 -0.702 0.657 126 94 66
-3299.5063 6428.4019 1853.6047 0.785 -0.575 0.231 112 83 52
-2877.0730 5748.9609 1623.1212 0.517 -0.718 0.467 39 23 6
-2866.9216 5751.8818 1616.3794 0.517 -0.718 0.467 38 21 4
-2853.1953 5747.8804 1607.7603 0.734 -0.624 0.269 43 25 7
-2901.4062 5909.1538 1628.8304 0.091 -0.970 0.225 33 23 9
-2901.8667 5933.1382 1627.6287 0.133 -0.959 0.251 31 22 11
-2637.7346 5836.6709 1462.9900 -0.169 -0.863 -0.476 26 25 23
-2627.6060 5838.4058 1456.3368 -0.173 -0.861 -0.479 28 29 24
-2619.8572 5845.1445 1450.9087 -0.170 -0.865 -0.472 30 34 27
-2610.5679 5848.5752 1444.6920 -0.182 -0.858 -0.480 23 29 37
-2616.9651 5909.0771 1445.0436 0.970 -0.078 0.231 31 53 101
-2553.0044 5794.3979 1410.8839 -0.133 -0.779 -0.613 31 50 106
-2278.3865 6224.3140 1206.5656 -0.625 -0.469 -0.623 14 28 49
-2178.0217 6039.0654 1153.2947 -0.572 -0.595 -0.564 20 33 56
-2185.8049 6137.0518 1152.1986 0.126 -0.978 0.163 16 30 53
-2183.0581 6155.8115 1149.2511 0.134 -0.977 0.165 17 30 53
-2053.7400 5959.5381 1077.9613 0.734 0.133 -0.666 32 61 88
-2092.7134 6119.2104 1093.1628 0.752 0.089 -0.653 23 49 77
-2028.6807 6204.6606 1046.4465 -0.382 -0.923 -0.054 19 48 58
-1785.5493 6091.9697 896.3915 0.892 -0.357 0.277 8 18 24
-1277.0109 760.2578 897.3974 0.914 0.038 -0.403 175 171 162
-3908.1448 4383.1519 2359.8630 0.229 -0.704 -0.672 232 227 223
-4350.4468 4909.3706 2611.0146 -0.243 -0.967 0.074 217 210 204
-4333.7749 4984.3228 2595.4734 0.569 0.478 -0.670 234 227 221
-3972.7205 5449.0654 2333.1450 0.859 -0.505 -0.081 92 64 52
-3989.3379 5491.3916 2341.1355 0.815 -0.579 -0.030 91 63 51
-2754.4060 5459.3633 1547.8032 0.221 -0.866 -0.449 66 54 43
-2751.8933 5475.7383 1545.1355 0.194 -0.865 -0.463 45 35 24
-2765.6182 5523.0615 1550.9425 0.615 -0.566 -0.549 26 17 6
-2839.2390 5685.0859 1587.9763 0.797 -0.492 -0.350 25 16 4
-2820.1155 5670.5020 1576.5940 0.467 -0.310 -0.828 28 17 6
-2624.6116 5863.3740 1438.3152 -0.161 -0.545 -0.823 53 69 75
-2620.9089 5902.1973 1433.4425 0.894 -0.310 0.324 30 94 160
-2602.8867 5910.3643 1421.3115 0.876 -0.333 0.349 47 81 188
-2548.1106 5814.8999 1392.1497 0.905 -0.417 0.089 44 69 166
-2541.4084 5823.5137 1387.2809 0.893 -0.437 0.107 23 44 106
-2198.6721 6153.0205 1145.4175 0.134 -0.977 0.165 17 22 29
-2188.9956 6153.2900 1139.1680 0.134 -0.977 0.165 16 22 29
-2176.8538 6146.8652 1131.7594 0.127 -0.975 0.181 15 23 32
-2051.3899 5934.9790 1064.5304 0.909 0.030 -0.416 56 82 95
-2052.7942 5964.3101 1063.5552 0.909 0.030 -0.416 53 78 93
-2191.7190 6429.8232 1123.2003 0.614 0.300 -0.730 31 44 53
-1995.4993 6142.4907 1015.2344 0.607 -0.751 0.260 17 48 51
-1911.4525 6054.6411 966.7322 -0.365 -0.692 -0.622 13 29 37
-1870.3446 6174.1338 932.5980 0.312 -0.834 0.456 13 24 28
-1786.4576 6074.2466 884.9700 0.887 -0.361 0.287 12 18 22
-1828.1355 6236.6890 901.4035 0.599 -0.801 -0.018 13 17 19
-1771.7428 6281.2119 862.2293 0.073 -0.975 -0.209 23 18 16
-1761.4849 6275.8384 855.9668 0.059 -0.984 -0.167 84 78 75
-3177.0276 2144.1824 2022.6586 0.459 -0.015 -0.888 213 208 204
-4081.7910 2789.3293 2561.1560 0.446 -0.605 -0.660 208 203 199
-4066.4534 2791.0974 2551.1934 0.526 -0.800 -0.288 216 211 205
-3977.0205 5443.9204 2319.6011 0.859 -0.505 -0.081 92 64 52
-3993.5930 5486.1025 2327.4709 0.815 -0.579 -0.030 91 63 51
-3801.0198 5789.0771 2183.9473 0.301 -0.437 -0.848 114 91 66
-2753.4207 5444.4346 1534.0193 0.156 -0.840 -0.520 65 54 45
-2745.4324 5450.3823 1528.5004 0.176 -0.852 -0.494 44 35 26
-2859.7344 5710.4048 1584.8096 0.820 -0.328 -0.469 24 16 5
-2839.9614 5694.7397 1573.1439 0.813 -0.358 -0.460 27 17 8
-2655.9158 5730.9292 1452.6108 0.524 0.146 -0.839 20 21 16
-2677.4885 5820.9219 1460.5519 0.899 -0.320 0.300 30 29 27
-2654.2139 5887.7744 1441.2203 0.132 0.003 -0.991 87 89 90
-2635.6770 5871.7666 1430.3707 -0.164 -0.548 -0.820 32 48 53
-2555.6897 5816.1606 1382.6699 0.726 -0.687 0.026 31 58 151
-2541.3899 5808.2407 1374.0095 0.919 -0.392 0.040 15 36 95
-2512.6790 5791.7446 1356.6603 0.896 -0.287 0.340 18 28 27
-2208.1191 6159.8130 1136.9674 0.437 -0.841 0.319 13 16 21
-2198.3621 6159.9233 1130.6960 0.429 -0.846 0.317 13 17 20
-2174.0146 6146.9238 1115.9187 -0.230 -0.874 0.429 18 31 40
-2063.2539 5924.1509 1059.4371 -0.250 -0.931 0.267 38 57 69
-2053.7151 5923.3667 1053.3647 0.906 -0.083 -0.416 53 75 83
-2059.6367 5964.9985 1054.4330 0.902 -0.063 -0.427 51 72 82
-1989.4282 5974.0493 1008.7650 0.567 -0.247 -0.786 25 33 36
-2000.5750 6031.8818 1012.1241 0.498 -0.112 -0.860 25 34 36
-2017.6396 6107.1631 1018.1368 0.571 0.065 -0.818 21 35 38
-2031.1764 6199.8335 1020.7429 0.571 0.074 -0.818 13 43 43
-1786.9355 6055.2661 873.4327 0.648 -0.742 0.170 13 18 22
-3183.8608 2110.3372 2019.5289 0.424 0.075 -0.903 207 202 198
-4346.3188 4979.9551 2570.5051 0.625 0.472 -0.621 234 227 221
-3926.6145 5367.2642 2275.8877 0.653 -0.702 -0.285 92 64 52
-3971.8557 5446.7168 2299.4976 0.383 -0.871 -0.308 91 63 51
-3524.7507 6155.4092 1965.7404 0.180 -0.712 0.678 107 72 40
-3431.3875 6021.8511 1914.9733 0.135 -0.740 0.659 97 62 30
-2768.4954 5501.9878 1525.7186 0.537 -0.675 -0.505 25 16 7
-2875.4409 5726.4976 1579.0632 0.753 -0.314 -0.578 25 16 7
-2677.9551 5807.1436 1447.2650 0.899 -0.320 0.300 29 28 26
-2675.8679 5918.3633 1438.4526 0.132 0.003 -0.991 44 47 48
-2684.0586 5982.8140 1439.3612 0.171 0.016 -0.985 20 68 97
-2614.6731 5881.6538 1401.7601 -0.040 -0.914 -0.404 15 63 134
-2497.5381 5743.4189 1336.0952 0.753 -0.406 0.518 21 28 26
-2211.7920 6151.2842 1125.8195 0.429 -0.846 0.317 7 11 14
-2202.8740 6153.6147 1119.9559 0.429 -0.846 0.317 6 10 13
-2193.9749 6155.9399 1114.1047 0.429 -0.846 0.317 6 11 16
-2182.4255 6151.1060 1107.0389 -0.235 -0.875 0.424 3 14 20
-2116.2390 6024.5620 1073.1914 -0.207 -0.866 0.456 10 22 30
-2060.0413 5922.7407 1044.0740 0.911 -0.077 -0.406 16 31 36
-2063.3467 5957.0972 1043.8795 0.901 -0.090 -0.425 11 26 33
-2072.0359 6032.2485 1044.3879 0.755 0.220 -0.618 6 15 23
-2080.7437 6082.3267 1046.5938 0.735 0.190 -0.651 21 31 36
-2087.7349 6541.5146 1020.1983 0.421 0.174 -0.890 16 29 35
-1843.8116 6050.9062 897.0867 0.816 -0.578 -0.003 13 24 26
-1837.2571 6057.6128 892.4413 0.815 -0.579 0.022 14 23 28
-1831.2244 6065.9443 888.0208 0.815 -0.579 0.022 12 21 26
-1825.1910 6074.2754 883.5998 0.815 -0.579 0.022 10 19 26
-1819.1572 6082.6079 879.1785 0.815 -0.579 0.022 10 19 26
-1813.3558 6091.6816 874.8560 0.815 -0.579 0.018 11 18 24
-1773.4584 5991.8306 856.0371 0.838 -0.388 -0.385 11 19 22
-1781.1288 6297.9165 840.3687 0.666 0.208 -0.717 85 77 75
-1806.5441 6412.6499 848.9196 0.648 0.209 -0.733 133 125 123
-1847.0493 6579.4170 863.6290 0.660 0.212 -0.721 135 127 125
-1880.3594 7618.0317 815.1232 0.131 0.076 -0.988 169 140 132
-1903.3824 1222.7029 1254.1035 0.568 -0.278 -0.774 200 196 187
-3197.8264 2124.4934 2017.7437 0.430 0.008 -0.903 199 194 190
-4296.2427 4897.8149 2527.5996 0.271 -0.952 -0.141 234 227 221
-3952.6719 5410.8350 2273.1577 0.279 -0.921 -0.273 91 63 51
-3819.8333 5749.0996 2165.1553 0.332 -0.895 -0.298 103 81 58
-3656.9172 5988.7124 2044.7542 0.271 -0.899 0.344 122 89 56
-2774.9885 5479.9292 1517.2059 0.130 -0.980 -0.152 43 34 25
-2779.1831 5508.9912 1517.8823 0.538 -0.705 -0.463 26 17 8
-2889.5398 5739.4614 1572.4203 0.759 -0.282 -0.586 25 16 7
-2695.0198 5920.1211 1435.9155 0.132 0.003 -0.991 25 25 23
-2697.7563 5949.2822 1435.6549 0.132 0.003 -0.991 28 30 29
-2703.8779 6009.4746 1435.4189 0.168 0.012 -0.986 7 42 61
-2596.9473 5851.6851 1378.0667 0.895 -0.309 0.321 11 34 92
-2176.2368 6039.3223 1096.8040 0.347 -0.881 0.322 4 8 11
-2204.5081 6139.7173 1107.9307 0.434 -0.782 0.448 4 8 11
-2131.4795 6047.6108 1067.6848 -0.160 -0.850 0.502 2 7 9
-2094.0298 5997.3477 1047.2546 0.899 0.003 -0.438 8 16 17
-2027.1689 6096.3540 997.7960 0.518 0.239 -0.821 11 21 26
-2071.9280 6416.9282 1004.2932 0.435 0.161 -0.886 16 31 36
-2089.5969 6497.4419 1010.0249 0.419 0.169 -0.892 16 29 35
-1828.0676 6315.5498 855.7180 0.514 -0.628 -0.584 8 12 13
-1796.9275 6328.7788 834.9449 0.657 0.217 -0.722 88 80 78
-1823.5383 6447.2871 843.7666 0.648 0.209 -0.733 130 122 120
-1815.0747 6448.6904 838.2714 0.066 0.005 -0.998 131 123 121
-1855.7609 6678.3003 848.4283 -0.201 -0.742 -0.639 142 132 130
-1903.8687 6972.3169 858.8885 0.188 -0.919 0.345 144 126 122
-1893.3888 6968.6060 852.4592 0.211 -0.918 0.337 145 127 123
-3206.4771 2144.2771 2012.1005 0.338 -0.069 -0.939 204 199 195
-4363.7676 4888.4082 2554.8438 0.239 -0.890 -0.388 227 220 214
-3982.1814 5438.7539 2273.5122 0.210 -0.952 -0.221 86 58 46
-3582.4578 5601.0654 2007.9490 0.924 0.373 0.084 124 93 63
-3516.5779 5887.3774 1945.9193 -0.165 -0.512 -0.843 119 84 54
-3517.5959 6023.9771 1936.9563 0.560 -0.828 0.032 108 73 43
-2783.3616 5482.5767 1508.2205 0.948 0.142 -0.285 35 26 17
-2722.9077 5893.4185 1440.8794 0.021 -0.182 -0.983 17 17 15
-2622.0420 5843.9219 1380.2314 0.893 -0.331 0.306 14 34 50
-2615.6421 5853.4116 1375.4945 -0.004 -0.929 -0.371 15 31 54
-2101.8938 5975.2773 1040.2800 0.002 -0.801 0.598 10 12 8
-2067.5100 5983.2744 1017.8563 -0.124 -0.872 0.474 7 11 11
-2082.6125 6344.3291 1002.0567 0.638 0.106 -0.763 9 18 27
-1842.6721 6341.6514 849.6912 0.898 -0.331 -0.291 8 12 13
-1845.4901 6498.2383 840.4662 0.666 0.208 -0.716 114 106 104
-1867.0927 6662.3057 842.6583 -0.053 -0.119 -0.991 133 125 123
-1892.9865 6781.5264 850.7339 0.752 -0.560 -0.348 136 126 124
-1778.3552 6698.9922 783.6580 0.339 -0.655 -0.675 149 124 120
-1361.5496 896.4779 922.8468 0.593 0.208 -0.778 201 197 188
-4787.2734 3298.9929 2921.0955 0.808 -0.398 -0.435 213 208 202
-4292.9761 4894.9185 2493.0698 0.747 -0.397 -0.534 232 225 219
-4326.4502 4968.4160 2508.9980 0.555 0.417 -0.720 238 227 219
-4058.2712 5285.8218 2316.2161 0.912 -0.405 0.068 115 86 70
-4104.8257 5363.7549 2340.1152 0.941 -0.327 -0.086 111 82 66
-4085.2688 5359.2119 2328.0479 0.925 -0.364 -0.106 104 75 59
-4011.0476 5465.7188 2273.3516 0.398 -0.915 0.060 86 58 46
-3835.8442 5791.4741 2138.8916 0.466 -0.882 -0.072 100 77 54
-3820.2495 5812.1987 2127.5183 0.718 -0.568 0.403 124 93 64
-3606.0808 5688.0483 2000.7188 0.453 -0.883 -0.122 126 93 60
-3606.2007 6086.4009 1972.1477 0.217 -0.081 -0.973 123 88 58
-3345.7334 5882.7451 1821.7245 0.405 -0.509 -0.760 121 86 56
-2742.3362 5351.5806 1477.5248 0.915 -0.403 -0.021 63 44 32
-2774.4050 5452.7793 1490.5706 0.944 0.132 -0.304 36 27 18
-2840.6570 5598.2305 1522.0973 0.420 -0.868 -0.265 30 21 12
-2878.3062 5690.8149 1539.2990 0.905 -0.307 -0.295 27 18 9
-2571.7637 5767.7393 1339.4983 -0.154 -0.966 -0.208 23 24 28
-2551.2659 5746.6113 1328.0275 -0.135 -0.982 -0.132 19 20 23
-2499.7190 5680.8047 1300.0925 0.755 -0.458 0.469 20 20 20
-1972.4222 5878.0049 951.7414 0.503 0.225 -0.835 5 15 17
-1903.5656 5708.0181 920.3284 0.537 -0.094 -0.838 6 14 20
-1901.2263 5725.9790 917.5543 0.546 -0.092 -0.833 8 15 23
-1923.7534 5815.1982 925.4146 0.550 -0.207 -0.809 10 15 24
-1983.6614 6012.6055 949.1844 0.391 -0.074 -0.917 11 14 25
-2094.9268 6360.0078 994.7149 0.662 0.157 -0.733 12 15 24
-1857.4939 6515.7104 833.0466 0.695 0.210 -0.688 90 82 80
-1880.5997 6623.0796 839.9684 0.111 0.037 -0.993 104 96 94
-1880.6267 6684.6997 835.5542 0.346 -0.144 -0.927 116 108 106
-1917.5859 6841.1714 847.7243 0.581 -0.811 -0.076 120 110 108
-1861.2633 6743.6763 819.0416 0.400 -0.811 0.427 135 117 113
-1695.7837 6472.3892 733.6796 -0.137 -0.680 -0.720 152 127 123
-4298.0166 4891.5767 2480.2246 0.730 -0.403 -0.553 238 231 225
-4120.8604 5353.5010 2334.3792 0.269 -0.696 -0.666 115 86 70
-4080.9568 5363.3970 2308.4456 0.247 -0.830 -0.500 99 70 54
-3998.5107 5418.4805 2252.3186 0.844 0.425 -0.326 89 61 49
-3772.1614 5708.7866 2088.0076 -0.157 -0.536 -0.829 124 93 65
-3753.8403 5898.6558 2062.4846 -0.407 -0.636 -0.656 126 93 60
-3739.3367 5898.8521 2053.3083 -0.407 -0.636 -0.656 129 96 63
-3570.9275 5750.7910 1957.8046 0.049 -0.967 -0.249 141 108 75
-3554.5239 5746.9980 1947.7213 0.045 -0.940 -0.337 136 103 70
-3590.7188 5824.8330 1964.8666 -0.215 -0.879 -0.425 130 97 64
-3614.6287 6086.6470 1960.7346 0.094 -0.158 -0.983 115 80 50
-3542.1646 6014.7754 1920.2404 -0.007 -0.928 0.374 122 87 57
-2748.1987 5370.3203 1466.0505 0.414 -0.805 0.425 44 32 23
-2893.0886 5705.0542 1532.9827 0.828 -0.560 0.024 28 19 10
-2635.1948 5573.8315 1379.7155 0.233 -0.522 -0.820 20 17 10
-2449.3130 5492.0293 1268.3062 -0.102 -0.889 -0.446 20 19 5
-2440.0833 5493.9644 1262.3337 -0.102 -0.889 -0.446 23 22 10
-2053.3474 6247.4819 962.6764 0.962 -0.031 -0.270 11 10 18
-2080.4932 6409.0972 967.9501 0.987 -0.160 -0.007 10 14 20
-1865.0135 6400.0869 832.4963 0.165 -0.680 -0.714 11 11 11
-1839.1855 6344.8403 820.2401 0.634 0.206 -0.745 16 13 12
-1873.7714 6547.2339 827.2176 0.684 0.205 -0.700 64 56 54
-1922.0294 6800.6963 839.0796 0.101 -0.193 -0.976 80 72 70
-1874.4758 6765.1499 811.6522 0.283 -0.858 0.428 128 111 107
-1861.0735 6750.6211 804.2536 0.280 -0.879 0.387 137 122 117
-1799.2250 6661.3008 771.7470 0.389 -0.045 -0.920 140 122 118
-1698.6915 6583.9619 713.9235 0.753 -0.085 -0.653 156 131 126
-1766.5323 6966.3926 728.6803 0.396 -0.037 -0.917 162 136 131
-1355.4777 792.2435 918.7914 0.793 0.326 -0.515 179 175 166
-3214.4802 2247.1814 1980.1339 0.377 -0.677 -0.632 204 199 193
-4047.5103 5471.3115 2262.7542 0.812 0.447 -0.374 89 61 49
-3793.0146 5684.6064 2086.5120 0.177 -0.840 -0.514 93 71 49
-3798.2146 5713.3291 2087.6313 0.185 -0.779 -0.599 90 67 44
-3809.1729 5793.5923 2088.5093 0.113 -0.832 -0.543 124 93 65
-3596.3381 5976.0088 1940.8151 -0.295 -0.381 -0.876 124 89 59
-3572.8955 6006.0508 1923.8008 -0.024 -0.180 -0.983 110 75 45
-2816.0771 5900.3345 1455.2109 -0.176 -0.507 -0.844 21 18 10
-1878.5398 6393.2036 827.9254 0.178 -0.679 -0.712 9 12 11
-1871.6930 6400.0596 823.1000 0.178 -0.679 -0.712 11 11 10
-1856.6812 6380.2886 815.1313 0.634 0.206 -0.745 22 18 16
-1875.8989 6472.3394 820.3255 0.688 0.242 -0.685 38 32 29
-1845.4362 6704.2739 783.7443 0.341 -0.010 -0.940 110 98 92
-1821.2445 6778.0596 762.9767 0.653 -0.677 0.339 139 120 116
-1801.6493 6740.5952 753.4495 0.694 -0.718 0.062 145 125 121
-1747.9573 6837.8008 712.3503 0.917 0.050 -0.396 151 129 124
-1756.2072 6901.7261 712.7488 0.440 -0.823 -0.359 157 135 129
-1754.3965 6928.4941 709.6005 0.460 -0.865 -0.202 157 134 129
-1745.1870 6927.5728 703.8710 0.470 -0.867 -0.163 159 134 129
-4812.4980 3300.7476 2892.4607 0.956 -0.265 0.126 213 210 201
-4809.5923 3326.1492 2888.6919 0.956 -0.277 0.099 198 195 186
-4050.6880 5464.7388 2248.6494 0.815 0.446 -0.371 85 59 46
-3797.4038 5700.3955 2071.6450 0.306 -0.892 0.334 82 61 42
-3652.5405 5917.6704 1964.0923 -0.193 -0.923 -0.332 147 112 80
-3657.1775 5947.1133 1964.7479 0.017 -0.886 -0.464 147 112 80
-3555.7153 5987.7656 1897.9581 0.184 -0.913 0.364 113 78 48
-2837.6421 5682.1182 1470.7062 0.263 -0.957 -0.119 21 16 7
-2037.2316 6135.7710 933.6373 0.978 0.183 0.105 14 10 8
-2063.1021 6318.1836 935.9052 0.888 -0.378 0.262 7 10 4
-1889.4031 6435.6909 817.8952 0.363 -0.819 -0.445 12 9 6
-1891.8440 6502.3530 814.3225 0.721 0.247 -0.648 40 35 32
-1941.5725 6695.0620 830.7751 0.714 0.241 -0.658 47 42 38
-1958.4161 6843.6162 829.9706 -0.027 -0.111 -0.993 53 48 44
-1924.7140 6762.5635 815.0260 0.093 -0.884 0.457 53 48 44
-1931.2904 6847.3809 812.6584 0.237 -0.908 0.344 55 47 43
-1887.2920 6792.7666 789.2274 0.395 -0.791 0.467 55 45 41
-1860.8682 6733.6313 777.1723 0.345 -0.005 -0.938 57 48 43
-1738.8588 6746.1567 699.6411 0.776 -0.016 -0.630 145 129 124
-1742.3103 6857.3599 693.2920 0.971 -0.235 0.046 149 133 129
-1744.5645 6899.1367 691.5076 0.920 -0.335 0.202 150 133 130
-2426.1003 1619.9485 1516.1842 0.347 -0.050 -0.937 188 185 180
-4804.5522 3277.2712 2874.5510 0.531 -0.604 -0.594 200 197 188
-4063.8894 5471.1133 2239.8430 0.811 0.449 -0.376 85 59 46
-3865.4497 5743.4297 2094.4353 0.365 -0.902 0.230 72 55 39
-3805.6533 5700.5176 2060.3821 0.739 -0.667 -0.097 82 62 44
-3630.7437 5849.3096 1939.3435 0.699 -0.147 -0.700 131 96 64
-2751.9573 5359.8218 1427.8585 0.480 -0.873 0.084 30 23 15
-2001.5382 6015.0430 907.2473 0.971 0.221 0.091 20 17 12
-2045.0182 6192.1348 920.6114 0.975 0.212 0.066 17 14 9
-2024.1692 6158.7104 910.1805 0.837 -0.487 -0.251 14 13 8
-2014.4922 6184.0786 902.1453 0.804 -0.594 0.029 9 12 3
-1937.4073 5985.2856 869.4549 0.663 -0.748 0.037 8 13 3
-1893.4417 5882.0430 850.0177 0.973 -0.227 0.036 6 13 4
-1896.2489 5941.8232 847.1036 0.919 -0.389 0.057 5 12 3
-1892.8163 5957.5938 843.7244 0.749 -0.663 0.009 5 11 4
-1901.8536 6396.1729 815.1151 0.856 -0.258 0.448 10 9 7
-1870.7626 6529.6641 785.2375 0.302 -0.746 -0.593 53 48 44
-1920.7897 6726.1665 801.1808 0.137 -0.849 0.511 53 48 44
-1864.3245 6629.0474 773.4462 0.360 -0.814 0.455 55 46 41
-1895.9366 6798.3931 779.9916 0.411 -0.778 0.475 55 46 41
-1881.2186 6779.6196 772.2513 0.348 0.004 -0.937 51 42 37
-1894.5178 6889.0376 772.0227 0.243 0.040 -0.969 51 42 37
-1771.5465 6617.1260 716.3403 0.037 -0.748 -0.663 71 61 59
-1748.3501 6723.7417 693.5008 0.814 -0.081 -0.576 127 113 110
-1743.4725 6770.5278 686.7946 0.906 0.032 -0.422 137 123 120
-1756.9818 6853.1646 688.7896 0.978 0.157 -0.138 145 131 128
-1767.3528 6924.8633 689.6759 0.977 0.157 -0.144 148 134 131
-1748.0193 6886.1582 680.6055 0.916 -0.341 0.212 148 133 128
-1304.4648 5278.8086 528.7092 0.327 -0.307 -0.894 162 143 137
-1302.5276 5297.0244 526.0742 0.320 -0.308 -0.896 166 143 136
-4816.4517 3280.1013 2867.0530 0.532 -0.612 -0.586 201 198 189
-4819.0039 3295.2842 2867.4346 0.520 -0.604 -0.604 212 209 200
-4087.0215 5490.2378 2236.1716 0.815 0.446 -0.369 85 59 46
-4073.7544 5493.4888 2227.6404 0.337 -0.937 0.091 79 53 40
-3798.6506 5678.7969 2041.3473 0.731 -0.680 -0.051 84 64 46
-3424.5330 5881.7988 1791.9082 0.744 -0.569 0.349 118 83 55
-3514.2434 6190.5073 1823.2501 -0.198 -0.974 -0.106 93 67 40
-3410.5747 6247.3218 1754.0853 -0.250 -0.757 -0.603 95 71 45
-2608.6592 5063.0381 1348.4287 0.606 -0.795 0.018 38 30 21
-3006.1863 6021.3770 1519.9446 0.254 -0.899 0.356 39 32 24
-2024.6010 5959.2544 912.8636 -0.123 -0.883 -0.454 25 24 20
-2029.3159 6207.7983 896.0029 0.477 -0.865 -0.157 10 11 3
-1936.3860 6041.7461 851.2888 0.236 -0.944 0.230 9 10 4
-1927.7822 6042.5762 845.8581 0.236 -0.944 0.230 8 9 3
-1844.1406 5819.3848 811.4874 0.455 -0.853 0.255 9 9 4
-1820.9469 5826.1489 796.4869 0.131 -0.958 0.256 11 10 7
-1840.6136 5937.6465 799.8668 0.343 -0.910 0.231 12 11 7
-1947.3097 6917.0454 788.3682 0.321 -0.841 0.435 55 46 41
-1902.8916 6798.2397 770.1378 0.594 0.119 -0.796 56 47 42
-1912.8099 6863.6333 771.1123 0.498 0.108 -0.860 65 56 51
-1912.3335 6926.0669 765.8414 0.319 0.033 -0.947 60 51 46
-1890.9181 6884.2993 755.8161 0.244 -0.095 -0.965 55 46 41
-1853.9880 6788.0825 740.4550 0.334 -0.884 0.326 52 42 40
-1776.4077 6610.5127 706.2291 0.121 -0.821 -0.558 52 44 41
-1768.3418 6613.1016 700.9937 0.162 -0.528 -0.834 52 44 41
-1757.8734 6607.0728 694.9467 0.346 -0.300 -0.889 55 47 44
-1745.3999 6752.5698 675.5782 0.955 0.009 -0.298 111 100 96
-1741.2522 6769.7373 671.6243 0.208 -0.655 -0.726 142 131 127
-1754.3745 6884.0781 670.6972 0.504 -0.724 -0.471 147 134 128
-1365.1334 5540.4946 535.0388 0.204 -0.348 -0.915 169 143 134
-3256.0576 2279.0542 1963.9032 0.076 -0.291 -0.954 200 197 188
-4828.4619 3296.5430 2858.4897 0.499 -0.627 -0.598 212 209 200
-4372.6592 4928.2559 2442.7112 0.632 0.447 -0.633 228 221 215
-3772.6445 5609.1626 2014.5209 0.784 -0.603 -0.151 71 54 38
-3789.1472 5653.5938 2021.1687 0.823 -0.161 -0.544 85 65 47
-3787.2996 5671.9663 2018.5284 0.823 -0.161 -0.544 106 79 56
-3783.2573 5815.4771 2004.3622 0.619 -0.762 -0.188 127 98 71
-3499.7805 5925.2354 1819.2744 0.465 -0.653 0.597 120 83 56
-3512.6763 6174.0112 1807.0863 -0.190 -0.953 -0.236 92 66 39
-3434.0913 6274.2559 1750.1071 -0.283 -0.807 -0.518 98 74 48
-3407.3267 6395.2139 1723.6508 0.934 0.190 0.303 75 57 36
-3004.6404 6027.0889 1503.2845 0.377 0.020 -0.926 65 58 48
-3017.5569 6075.1870 1507.4059 0.439 0.035 -0.898 53 46 36
-3029.9954 6217.8813 1503.5483 -0.351 -0.300 -0.887 44 35 20
-2992.7910 6192.4971 1482.4880 -0.171 -0.001 -0.985 60 51 36
-2101.5305 6129.1929 933.7302 -0.240 -0.881 -0.407 25 24 20
-1969.2299 6014.4092 860.8297 0.749 -0.568 -0.342 25 21 14
-1935.9131 5943.5215 845.8806 0.696 -0.696 -0.178 25 20 13
-1919.8368 5922.3076 837.6122 0.504 -0.861 -0.062 25 20 13
-1904.9917 5904.4468 829.8369 0.736 -0.626 -0.260 22 17 9
-1935.4366 6019.8833 839.3834 0.643 -0.706 0.298 16 11 3
-1864.1075 5860.3286 808.0109 0.449 -0.883 0.138 16 12 5
-1861.5425 5878.2739 804.9596 0.475 -0.869 0.137 14 10 4
-1854.0719 5881.5850 800.0479 0.475 -0.869 0.137 10 9 4
-1843.0540 5899.9663 791.7077 0.134 -0.984 0.117 11 10 7
-1831.7649 5996.5024 776.8524 0.463 0.065 -0.884 10 9 5
-1864.3650 6234.8257 777.7590 0.865 -0.302 0.400 12 11 9
-1873.7223 6292.6270 778.8805 0.958 -0.087 0.272 12 11 9
-1859.8124 6276.4429 771.5500 0.940 -0.106 0.324 12 11 9
-1812.2501 6207.6006 747.5816 0.746 -0.664 -0.056 48 43 39
-1773.4927 6607.5493 691.0160 0.300 -0.739 -0.603 53 45 42
-1764.2909 6606.0449 685.4194 0.196 -0.741 -0.643 56 46 44
-1779.3136 6786.6445 680.0897 0.013 -0.131 -0.991 65 50 47
-1776.3950 6940.1191 665.8126 0.275 -0.672 -0.687 144 130 126
-2429.5457 1648.1219 1494.1733 0.867 0.199 -0.457 193 190 185
-4828.8301 3305.5403 2843.2603 0.601 -0.546 -0.583 216 213 204
-4378.8281 4353.4487 2477.7976 0.595 -0.450 0.666 227 222 218
-3792.7490 5668.1592 2005.9653 0.802 -0.103 -0.588 84 57 34
-3763.1074 5646.6265 1989.3856 0.431 -0.842 0.324 90 62 38
-3765.9556 5952.4980 1965.8403 0.855 0.413 -0.313 118 85 52
-3665.2712 6065.4604 1894.1245 -0.034 -0.938 -0.346 123 88 58
-3295.7261 5602.9702 1703.4797 -0.445 -0.716 -0.538 109 74 46
-3309.4263 5646.3174 1708.3794 -0.238 -0.756 -0.610 106 72 44
-3447.0823 6049.8887 1760.2563 0.849 -0.514 0.127 104 78 51
-3456.8667 6089.2324 1763.0618 0.853 -0.503 0.140 95 69 42
-3431.4229 6069.0840 1748.9678 0.884 -0.467 -0.020 97 71 44
-3429.2075 6088.2319 1746.0112 0.903 -0.428 -0.023 108 82 55
-3379.4707 6117.9624 1712.7417 -0.374 -0.807 -0.457 76 52 26
-3473.1890 6328.3091 1753.3900 -0.319 -0.818 -0.479 95 71 45
-2626.6934 5072.5229 1332.9413 0.858 -0.476 0.192 31 23 14
-3058.4539 6045.6523 1519.8718 -0.151 -0.984 -0.097 18 11 2
-3042.6274 6038.8154 1510.6340 -0.142 -0.985 -0.097 19 12 3
-3017.1023 6013.3618 1496.9287 0.161 -0.928 0.337 35 28 18
-3009.8984 6022.6929 1491.6942 0.262 -0.907 0.329 63 56 46
-3063.2004 6148.2681 1514.3210 0.443 0.234 -0.865 62 55 45
-3109.8833 6334.7983 1527.8041 -0.399 -0.665 -0.632 33 24 8
-2735.5212 5802.1929 1339.9773 -0.583 -0.523 -0.621 27 20 10
-2075.6025 6090.5581 907.3311 0.222 0.126 -0.967 39 36 31
-2100.6270 6266.3921 908.2828 -0.443 -0.766 -0.466 22 21 16
-2154.2864 6446.1870 926.6448 0.388 -0.791 0.473 28 27 23
-1937.9297 5905.3589 837.3744 0.632 -0.448 -0.633 49 38 36
-1922.5928 5886.3789 829.4445 0.710 -0.498 -0.498 51 38 36
-1925.3179 5919.7690 828.3696 0.504 -0.861 -0.062 50 39 35
-1919.6353 5928.7871 824.1033 0.512 -0.857 -0.061 46 34 30
-1921.3351 5959.5103 822.6141 0.780 -0.612 0.129 36 25 21
-1910.9028 5954.6240 816.5562 0.626 -0.757 0.188 37 25 21
-1832.3733 6005.3784 763.7115 0.581 -0.177 -0.795 6 6 4
-1840.2694 6056.6611 764.3593 0.476 -0.343 -0.810 6 6 4
-1874.6801 6274.7715 767.6272 0.731 -0.657 0.182 14 13 11
-1810.0533 6179.6250 735.4673 0.741 -0.668 -0.072 51 46 42
-1815.9957 6226.8735 735.2386 0.895 -0.409 -0.179 50 45 41
-1801.6591 6620.8174 693.7607 0.210 -0.798 -0.564 55 45 43
-1803.6304 6689.9829 689.2585 0.443 -0.229 -0.867 54 44 42
-1779.1588 6666.1870 676.0687 0.346 -0.241 -0.907 55 44 42
-1778.7035 6824.2842 662.7048 0.146 -0.285 -0.947 108 93 92
-1769.2422 6822.2979 657.0084 0.301 -0.641 -0.706 142 126 126
-1781.6656 6900.6782 658.2184 0.292 -0.657 -0.695 143 129 128
-1799.5823 7000.0435 661.0948 0.524 -0.233 -0.819 142 128 125
-2087.5581 1321.2205 1303.2812 0.497 0.177 -0.849 201 198 193
-2453.8582 1687.0634 1498.6093 0.779 0.318 -0.540 201 198 191
-4839.0117 3334.5078 2832.4062 0.637 -0.109 -0.763 194 190 181
-4688.3438 4465.7417 2644.0388 0.855 -0.097 -0.510 222 214 211
-4393.9609 4262.7734 2479.3870 0.713 -0.701 -0.016 223 215 212
-4517.4575 4409.7983 2543.2451 0.746 -0.514 0.423 226 221 217
-4052.1506 5494.4014 2164.5427 0.855 -0.356 0.376 60 36 22
-3793.2913 5657.3579 1990.9832 0.801 -0.585 -0.125 75 48 25
-3775.3052 5652.5640 1980.2822 0.290 -0.938 0.187 80 52 28
-3726.5386 5858.5073 1932.8156 0.857 -0.382 0.345 124 91 58
-3701.1169 6041.0776 1901.7324 0.991 0.054 -0.126 122 87 57
-3600.0374 5926.8672 1848.9495 -0.153 -0.820 -0.552 121 86 56
-3589.2166 5931.8979 1841.8445 -0.152 -0.814 -0.561 118 83 53
-3320.2002 5630.4272 1701.1561 -0.424 -0.690 -0.587 106 71 43
-3450.5105 6087.7969 1743.0651 0.722 -0.684 0.103 97 71 44
-3392.4619 6126.5923 1703.9548 -0.373 -0.810 -0.453 77 53 27
-3359.8789 6256.7710 1672.8657 0.971 0.124 -0.206 61 43 19
-3399.2039 6399.5337 1685.1136 0.973 0.226 0.054 62 45 20
-3051.1433 6087.0137 1496.5530 0.169 0.065 -0.983 57 50 40
-3099.7393 6373.0049 1502.4535 -0.311 -0.836 -0.452 47 38 23
-3086.7476 6371.9766 1494.5188 -0.169 -0.619 -0.767 46 37 20
-2922.8271 6071.1152 1418.6678 -0.363 -0.693 -0.622 44 35 19
-2006.4817 5905.0859 866.8893 -0.098 -0.993 -0.060 32 29 24
-1993.5533 6047.1499 846.9337 0.957 -0.182 -0.224 59 42 40
-1951.2222 5950.8579 828.9131 0.541 -0.774 -0.327 61 42 41
-1940.6112 5945.7334 822.7936 0.575 -0.771 -0.272 59 41 40
-1925.0945 5926.1855 814.8607 0.512 -0.857 -0.061 60 42 42
-1865.9005 5803.4922 788.6539 0.549 -0.824 0.142 64 45 45
-1858.7175 5807.4604 783.8845 0.549 -0.824 0.142 61 44 45
-1821.7534 5798.2192 761.8409 0.199 -0.317 -0.927 34 32 28
-1833.1412 5883.7422 761.6640 0.222 0.012 -0.975 14 12 10
-1860.4324 6045.8433 764.8521 0.536 0.075 -0.841 10 10 8
-1886.1729 6179.4585 769.4835 -0.083 -0.556 -0.827 7 7 5
-1881.8972 6276.8350 758.6367 0.707 -0.679 0.199 15 14 12
-1823.4319 6174.2231 731.1872 0.837 -0.187 -0.513 51 46 42
-1808.3505 6874.1650 662.8837 0.050 -0.559 -0.827 59 46 40
-1793.1332 6851.6763 655.3835 0.037 -0.595 -0.803 108 93 92
-2671.2949 1831.0592 1612.6752 0.420 -0.415 -0.807 201 198 191
-3277.2590 2338.3616 1942.0519 0.608 0.193 -0.770 218 214 205
-4348.1997 4181.8799 2442.9097 0.968 -0.115 -0.223 216 208 205
-4320.4688 4792.3813 2373.4546 0.704 -0.265 -0.658 233 226 220
-4317.6685 4807.2603 2370.4546 0.704 -0.265 -0.658 233 226 220
-4314.8623 4822.1704 2367.4480 0.704 -0.265 -0.658 170 163 157
-3977.4468 5269.0112 2121.4575 0.835 0.487 -0.256 83 57 44
-4100.0454 5444.3594 2181.8574 0.845 0.485 -0.226 83 57 44
-4050.3374 5481.3730 2148.0908 0.855 -0.356 0.376 54 30 16
-4060.8911 5535.7729 2149.9175 0.982 0.184 -0.043 64 43 26
-3740.1003 5780.1606 1931.5311 -0.123 -0.967 -0.223 110 77 44
-3692.7002 5882.1216 1893.6115 -0.115 -0.773 -0.624 145 110 78
-3667.9636 5887.9873 1877.8853 -0.408 -0.676 -0.613 139 104 72
-3358.8687 5680.7183 1705.4547 -0.425 -0.705 -0.567 97 63 35
-3485.9158 5997.3696 1756.4666 0.952 0.288 0.104 119 85 57
-3335.7219 6199.3345 1646.7059 0.913 -0.260 -0.315 68 50 26
-3097.1206 6066.5347 1511.2667 0.199 -0.885 -0.421 26 19 11
-3063.6436 6096.2808 1488.1124 0.158 0.083 -0.984 51 44 34
-3079.9343 6150.8198 1493.4576 0.395 0.210 -0.894 52 45 35
-3152.1472 6386.2451 1517.6947 -0.216 -0.598 -0.772 40 31 16
-3150.6377 6407.9316 1514.9048 -0.241 -0.781 -0.576 37 28 13
-3139.5005 6410.8638 1507.7992 -0.246 -0.784 -0.570 33 23 11
-3107.4199 6397.2119 1489.2284 -0.205 -0.772 -0.601 36 27 10
-3074.8967 6357.5327 1472.6187 -0.381 -0.800 -0.464 40 31 16
-1969.6556 5784.7891 841.6028 0.507 -0.319 -0.800 26 23 16
-1957.0037 5798.5771 832.6336 0.968 0.178 -0.177 28 25 20
-1982.4637 5895.0508 840.0230 0.958 0.196 -0.210 36 33 28
-2013.9796 6087.0708 842.9399 0.918 0.218 -0.332 68 47 44
-1973.3019 5996.0532 825.7174 0.611 -0.705 -0.360 71 46 43
-1853.8281 5799.8735 769.0282 0.574 -0.812 -0.105 66 49 47
-1870.2986 5899.6304 770.6036 0.472 -0.799 -0.372 55 50 45
-1830.0386 5829.9985 751.8029 0.572 0.151 -0.806 51 46 39
-1846.0029 5903.8345 755.2913 0.320 -0.018 -0.947 44 39 35
-1888.4857 6139.3403 761.2256 0.625 -0.221 -0.748 27 26 22
-1881.9133 6146.1577 756.5959 0.447 -0.367 -0.816 28 27 23
-1889.7310 6225.2378 754.6207 -0.042 -0.062 -0.997 21 20 18
-1876.6963 6239.7373 745.3550 -0.279 -0.519 -0.808 16 12 9
-1858.4381 6237.5830 734.3038 -0.227 -0.735 -0.639 37 32 28
-1821.7573 6148.3193 719.3904 -0.071 -0.797 -0.599 50 45 41
-1820.5598 6199.8647 714.2302 0.957 0.079 -0.278 50 45 41
-1929.1420 7181.2417 696.8361 0.962 0.246 0.117 54 45 42
-1808.8268 6850.9185 651.1405 0.495 -0.447 0.745 56 46 40
-1802.1122 6891.7876 643.5012 0.484 -0.456 0.747 119 107 103
-1200.1974 654.8950 805.0282 0.417 0.369 -0.831 114 98 77
-2929.0442 1930.3940 1754.0649 0.613 -0.064 -0.787 199 196 191
-4366.6831 4097.6978 2446.5874 0.496 -0.385 -0.778 223 218 215
-4458.7944 4357.2139 2480.4199 0.465 -0.528 0.711 227 222 217
-4380.7158 4349.6709 2433.1870 0.499 0.077 -0.863 43 38 34
-4345.2114 4810.0649 2371.1968 0.734 -0.245 -0.634 233 226 220
-4339.1729 4821.5698 2366.4880 0.735 -0.217 -0.642 233 226 220
-4336.9556 4837.1543 2363.7666 0.735 -0.217 -0.642 170 163 157
-3671.3259 4836.2671 1955.5593 0.759 0.552 -0.345 87 59 45
-4048.5325 5468.4072 2131.7180 0.855 -0.356 0.376 55 29 15
-3937.5430 5606.9458 2051.5386 0.789 0.048 -0.612 97 75 57
-3698.2205 5921.9727 1877.2272 0.962 -0.274 -0.017 137 103 71
-3393.8374 5724.8130 1707.7448 -0.494 -0.777 -0.391 90 58 30
-3425.5371 6064.0166 1697.5618 0.864 -0.501 0.050 97 71 44
-3328.1819 6195.1035 1626.3964 0.933 -0.266 -0.241 76 58 38
-3105.1326 6090.3774 1498.7291 0.515 -0.325 -0.793 19 10 1
-3092.8918 6090.5962 1491.2018 0.269 -0.866 -0.421 20 12 3
-3082.3132 6093.8857 1484.4257 0.270 -0.870 -0.413 39 31 21
-3149.7832 6415.4014 1497.7285 -0.402 -0.374 -0.836 36 26 14
-3135.8115 6412.7573 1489.3894 -0.375 -0.436 -0.818 25 16 2
-3118.5479 6403.5342 1479.6057 -0.372 -0.485 -0.791 29 20 4
-3089.9617 6371.7852 1464.8446 -0.380 -0.797 -0.470 37 30 14
-1960.9639 5792.0879 822.9706 0.937 0.287 -0.201 32 28 21
-1950.5231 5787.3823 816.9774 0.966 0.202 -0.163 44 40 33
-1999.2444 5949.5293 832.6998 0.961 0.245 -0.129 46 42 34
-2004.3311 5989.3486 832.3420 0.957 0.245 -0.156 53 45 38
-1994.7352 5987.6465 826.6047 0.931 0.290 -0.221 62 47 40
-1837.8782 5685.3423 756.7956 0.574 -0.812 0.108 76 45 36
-1929.2551 6004.1377 785.0001 0.046 -0.053 -0.998 71 49 39
-1892.6948 6078.7891 756.0544 0.384 -0.017 -0.923 60 55 51
-1902.3066 6161.9326 754.6880 0.463 -0.238 -0.853 51 47 42
-1912.4816 6275.7358 750.9893 -0.151 -0.112 -0.982 41 37 33
-1890.2275 6261.7407 738.5615 -0.146 -0.264 -0.953 32 28 24
-1887.6495 6281.5151 735.2530 -0.120 -0.158 -0.980 33 28 25
-1868.9581 6250.3057 726.5139 -0.196 -0.323 -0.926 45 40 36
-1846.3325 6206.2021 716.4879 -0.159 -0.192 -0.968 53 46 43
-1809.3527 6115.6851 701.7112 -0.088 -0.099 -0.991 55 48 42
-1682.2777 6196.4487 616.7116 0.966 0.239 0.099 47 42 38
-1789.8296 6790.0386 630.8361 0.786 -0.174 0.593 96 91 80
-1792.0498 6830.2720 628.6838 0.536 -0.402 0.742 95 88 78
-1748.9999 6738.1616 610.3229 0.544 -0.407 0.734 106 92 83
-1385.6244 886.8753 894.5178 0.545 0.284 -0.789 195 192 185
-3290.3076 2330.8650 1930.6525 0.790 0.076 -0.609 205 201 192
-4595.8599 4343.7056 2549.9443 0.905 0.023 -0.425 214 204 198
-4344.4697 4818.6743 2354.0427 0.801 -0.267 -0.535 232 225 219
-3259.6782 4295.9346 1737.2920 0.887 0.458 -0.060 91 63 49
-3800.1638 5043.6909 2001.2745 0.817 0.520 -0.250 64 36 18
-4047.3108 5456.2451 2115.7087 0.882 -0.376 0.284 106 77 59
-4053.6716 5484.6226 2117.0754 0.929 0.298 -0.220 116 87 66
-3845.6238 5824.9453 1959.6377 0.720 -0.666 -0.196 88 60 38
-3837.7800 5835.1006 1953.9398 0.720 -0.666 -0.196 107 79 57
-3802.6785 5805.3672 1935.1223 0.088 -0.956 -0.278 102 72 48
-3728.4385 6044.9512 1868.4426 0.969 0.221 -0.110 102 74 46
-3453.1411 6259.8696 1681.0352 -0.492 -0.754 -0.436 92 68 40
-3124.9553 6089.8843 1495.4995 0.522 -0.318 -0.791 22 15 5
-3166.3088 6190.5688 1511.8340 0.243 -0.864 -0.440 18 9 0
-3100.8381 6091.1255 1480.6449 0.448 -0.755 0.479 25 15 6
-3083.0928 6080.9058 1470.7041 0.435 -0.761 0.481 48 38 29
-3111.8213 6158.5962 1481.3635 0.396 0.179 -0.901 47 37 28
-3116.9939 6239.5640 1477.3302 0.504 0.174 -0.846 60 50 40
-1994.9835 5919.4526 819.8180 0.966 0.238 -0.098 53 43 38
-2022.3286 6021.9351 827.4283 0.937 0.266 -0.229 52 44 36
-2050.7043 6154.3872 833.0054 0.595 -0.613 -0.521 74 43 28
-2064.8481 6221.2544 835.7100 -0.052 -0.848 -0.527 82 48 28
-2042.4073 6183.4316 825.3517 0.130 -0.741 -0.659 89 54 34
-1933.9646 5973.3403 777.7240 0.694 0.121 -0.710 85 50 30
-1900.5516 5900.9346 763.7311 0.645 0.134 -0.752 80 46 24
-1906.7836 5944.8892 763.6348 0.225 -0.119 -0.967 81 48 26
-1910.5741 5981.9243 762.6610 0.152 -0.240 -0.959 91 60 38
-1902.3960 6035.8262 752.8709 0.334 0.037 -0.942 63 50 39
-1908.2389 6079.8506 752.5306 0.334 0.037 -0.942 59 50 44
-1925.7568 6324.3950 741.5081 -0.128 -0.132 -0.983 60 50 44
-1922.3318 6341.7495 737.8718 -0.114 -0.117 -0.987 60 50 44
-1879.6851 6263.5947 718.7446 -0.080 -0.066 -0.995 59 51 45
-1887.4556 6316.2197 718.8185 -0.107 -0.159 -0.981 59 50 45
-1835.8124 6179.7847 699.3704 -0.101 -0.108 -0.989 59 50 45
-1572.0270 5712.7241 579.6080 0.360 0.111 -0.926 51 49 44
-1711.0990 6303.7676 612.1064 0.985 0.168 -0.027 45 41 38
-1766.4265 6588.0986 620.6635 0.914 0.156 0.375 54 62 48
-1789.4746 6700.9106 624.7289 0.900 0.126 0.417 58 69 50
-1779.5131 6696.8882 618.9962 0.867 0.107 0.487 66 77 55
-1576.7004 6232.9966 536.2289 -0.202 -0.059 -0.978 192 154 134
-4218.7539 3097.2373 2417.1260 0.120 -0.576 -0.808 214 209 203
-4566.7227 4261.7065 2523.9033 0.309 -0.728 -0.612 219 211 208
-4498.0610 4216.7710 2486.1255 0.578 -0.661 -0.480 219 211 207
-4511.2671 4244.5728 2491.6599 0.453 -0.859 0.239 214 203 198
-4494.4478 4261.6655 2479.8657 0.513 -0.825 0.236 198 187 181
-4430.2188 4864.5210 2386.2336 -0.065 -0.837 -0.543 232 225 219
-4419.7026 4981.1899 2369.2795 0.755 0.479 -0.448 245 226 215
-4163.6792 5314.4702 2183.1438 0.991 -0.005 0.137 101 73 59
-3997.5249 5381.5713 2075.8308 0.974 0.180 -0.135 122 93 74
-4059.3440 5501.5532 2102.6553 0.965 0.207 -0.164 117 87 63
-3902.3867 5808.7832 1979.2407 0.412 -0.889 0.198 96 68 47
-3882.3777 5801.6064 1967.6970 0.702 -0.704 0.109 91 63 42
-3870.5686 5806.0889 1960.0958 0.679 -0.727 0.102 84 56 35
-3856.5852 5828.8843 1949.5144 0.701 -0.681 -0.214 65 37 16
-3848.6265 5838.8882 1943.7604 0.701 -0.681 -0.214 88 60 39
-3555.5032 5893.5884 1760.1992 -0.522 -0.620 -0.586 76 49 22
-3422.9888 6263.7827 1645.9877 -0.222 -0.876 -0.427 85 66 44
-3416.8179 6276.5776 1641.0708 0.892 -0.065 -0.446 82 64 41
-3318.9177 6173.5498 1590.7277 0.975 0.204 0.089 81 63 41
-2639.2085 5036.8457 1279.2921 0.240 -0.958 -0.157 30 25 15
-3141.8535 6107.0205 1488.8461 0.273 -0.427 -0.862 22 15 5
-3197.2429 6451.8618 1491.4269 -0.425 -0.735 -0.528 61 51 39
-3119.5679 6399.0435 1448.8694 -0.376 -0.789 -0.485 35 25 13
-2739.7622 5828.8892 1268.9701 0.357 0.179 -0.917 20 16 7
-2618.7439 6107.4253 1170.0490 -0.391 -0.563 -0.727 25 22 17
-2590.5447 6068.5859 1156.3765 -0.408 -0.534 -0.741 25 22 17
-2599.7334 6161.9116 1153.5398 -0.236 -0.705 -0.668 20 19 15
-2500.6287 5984.9985 1109.1412 0.276 -0.873 0.402 19 18 14
-1947.2906 5792.2554 789.3834 0.969 -0.107 -0.221 52 44 35
-1942.6373 5803.7354 785.5101 -0.026 -0.653 -0.757 59 42 29
-2053.0037 6142.0815 822.1786 0.911 -0.310 -0.272 73 43 25
-2040.4958 6132.6460 815.4098 0.926 -0.313 -0.214 82 47 24
-1860.9072 5791.2261 736.8381 0.299 0.108 -0.948 103 69 46
-1922.3384 6076.4404 748.4902 0.461 0.109 -0.881 63 49 38
-1932.7133 6160.9795 747.1706 0.407 -0.010 -0.913 59 49 47
-1946.9822 6231.2930 749.5096 0.353 0.044 -0.935 60 50 48
-1975.4725 6458.2461 746.3555 -0.078 -0.478 -0.875 60 49 43
-1900.6664 6281.1660 716.7786 -0.144 -0.859 -0.491 59 48 42
-1861.7769 6241.8730 696.6328 -0.101 -0.120 -0.988 59 50 45
-1581.7069 5699.7896 574.9707 0.357 0.107 -0.928 52 49 44
-1759.8732 6480.9346 612.9276 0.913 0.136 0.385 71 71 66
-1764.7811 6528.3403 611.6331 0.978 0.209 0.001 71 74 65
-1778.9633 6639.7363 610.2057 0.918 0.143 0.371 72 82 63
-1789.1729 6707.2109 610.3278 0.916 0.142 0.376 64 73 53
-2104.9595 1343.5765 1281.4806 0.896 -0.381 -0.226 205 204 199
-4913.5151 3469.3276 2791.8735 0.917 0.056 -0.395 207 202 196
-4356.0327 4007.0808 2403.8594 0.446 -0.840 0.308 223 215 212
-4440.5298 4111.7778 2445.5559 0.305 -0.897 -0.321 219 211 208
-4488.6689 4249.4751 2462.1370 0.889 -0.382 -0.253 181 170 164
-3216.7546 4195.7441 1694.5776 0.919 0.043 0.391 76 48 34
-3819.3127 5784.3608 1914.5264 0.028 -0.903 -0.429 53 25 3
-3814.9446 5799.3887 1910.4922 -0.054 -0.941 -0.335 66 38 15
-3468.2998 5807.1147 1699.2472 -0.515 -0.717 -0.469 93 66 39
-3427.6675 5915.6328 1664.5948 0.987 -0.061 0.146 96 72 46
-3432.6719 5968.3130 1662.7924 0.938 -0.188 0.293 96 72 46
-2645.8547 5037.2944 1270.4916 0.234 -0.959 -0.158 30 24 15
-3163.4639 6156.1626 1482.0227 0.144 -0.391 -0.909 19 9 0
-3188.4985 6444.1206 1470.7604 0.343 -0.885 0.315 63 51 39
-3149.7646 6442.7612 1447.3602 -0.229 -0.811 -0.539 32 23 9
-2795.3987 5927.1646 1279.5261 0.234 0.030 -0.972 27 23 14
-2655.6265 6100.8750 1178.6691 0.296 -0.934 0.201 23 20 15
-2660.9731 6136.6958 1178.6240 -0.037 -0.616 -0.787 26 23 18
-2455.9075 5867.4307 1078.8263 0.344 -0.882 0.321 22 21 17
-2468.8779 5920.3774 1081.8374 0.307 -0.866 0.394 17 16 12
-2397.9797 5781.3315 1051.5575 0.488 -0.830 0.269 17 16 12
-1999.8058 5847.5806 803.6372 0.196 -0.824 0.531 27 21 13
-1934.4149 5762.9170 771.7037 0.040 -0.499 -0.866 58 42 28
-1931.5878 5779.4126 768.4705 0.046 -0.516 -0.856 73 44 24
-1837.8873 5584.7695 729.4517 0.331 -0.931 0.153 94 58 34
-1856.5991 5662.5889 733.6637 0.682 -0.715 -0.155 96 61 37
-1956.6714 6106.6348 753.6288 0.258 0.094 -0.962 107 78 58
-1941.8402 6115.4731 743.8088 0.478 0.135 -0.868 64 49 38
-1946.9512 6293.3784 730.5611 -0.110 -0.616 -0.780 62 51 45
-1915.0408 6305.5679 710.0599 -0.024 -0.852 -0.523 60 49 43
-1907.6663 6366.6494 699.9668 -0.117 -0.130 -0.985 59 50 45
-1560.0256 5312.4116 585.7256 0.324 -0.935 0.147 59 50 45
-1542.8036 5548.7036 553.5474 0.912 0.191 -0.364 52 48 41
-1682.3090 6103.4341 587.2889 0.324 0.115 -0.939 50 49 44
-1678.9839 6120.1211 583.7357 0.543 0.066 -0.837 67 66 61
-1790.4625 6625.6919 604.9736 0.990 0.138 -0.012 43 48 36
-1785.1897 6669.1099 597.7805 0.879 0.013 0.476 32 35 21
-1686.7708 6470.4941 556.2610 0.967 0.046 -0.252 179 149 140
-3711.0190 2581.6965 2131.9304 0.272 -0.957 0.102 197 193 184
-4876.6104 3566.5994 2745.4983 0.730 -0.560 -0.392 208 204 195
-4329.4463 3947.4387 2378.6914 0.376 -0.277 -0.884 224 216 213
-4524.9004 4131.7817 2479.7859 0.806 -0.553 0.210 224 216 213
-4537.5063 4158.4644 2484.9241 0.970 -0.175 -0.168 224 216 213
-4522.5415 4161.2056 2475.6086 0.811 -0.508 -0.290 224 216 213
-4465.0513 4189.5435 2438.1597 0.817 -0.131 -0.561 208 196 191
-4464.8535 4205.2251 2436.5747 0.882 -0.397 -0.255 192 179 173
-4493.3301 4246.6978 2449.9382 0.889 -0.382 -0.253 168 157 151
-4377.4893 4828.0747 2325.4956 0.466 -0.386 -0.796 232 225 219
-4377.3276 4863.7925 2322.0605 0.711 0.391 -0.585 150 143 137
-3262.5249 4213.4141 1707.9823 0.172 -0.836 0.522 92 64 50
-3796.2759 5572.5586 1904.1013 0.888 -0.373 0.271 86 59 40
-3798.0393 5595.5850 1903.0173 0.910 -0.355 0.215 105 77 56
-3891.1431 5854.9434 1935.1455 -0.061 -0.885 -0.461 84 56 35
-3746.4709 6034.4106 1830.8007 0.656 0.336 -0.676 117 90 63
-3670.0723 6072.0088 1781.0402 0.766 -0.441 0.469 90 63 36
-3401.4719 6244.6177 1602.3163 0.897 -0.398 0.191 91 73 49
-3411.0593 6285.1240 1604.3354 0.856 -0.472 0.212 90 72 52
-2284.7983 4342.5391 1104.0532 0.287 -0.282 -0.915 46 31 12
-2663.3813 5057.3491 1266.4424 0.209 -0.970 -0.125 32 27 17
-3158.8074 6133.0703 1465.8419 0.289 -0.445 -0.848 19 9 0
-3132.8516 6107.9502 1452.4766 0.660 -0.324 -0.678 28 18 8
-3234.3643 6467.6636 1480.3186 0.272 -0.823 0.499 60 51 37
-3175.9270 6453.5757 1446.2601 0.358 -0.745 0.563 39 30 15
-3147.8264 6423.3906 1432.0697 0.312 -0.780 0.542 32 23 9
-3105.6279 6365.1982 1411.9618 -0.451 -0.778 -0.437 26 18 7
-3095.9426 6370.5806 1405.5961 -0.450 -0.778 -0.438 34 26 17
-2640.5132 6028.3799 1161.8749 0.756 -0.545 0.363 20 17 12
-2671.5325 6144.0059 1169.8492 -0.040 -0.623 -0.781 23 20 15
-2663.4463 6150.3809 1164.3586 -0.040 -0.623 -0.781 28 25 20
-2648.1958 6140.8716 1156.0151 -0.416 -0.604 -0.680 27 24 19
-2335.5920 5668.0981 1010.9529 0.324 -0.851 0.412 16 15 11
-2389.6477 5839.0288 1027.7052 0.599 0.030 -0.800 16 15 11
-2407.4136 5927.4370 1030.1996 0.370 0.147 -0.917 16 15 11
-2438.1814 6023.5986 1039.8405 0.460 0.066 -0.886 17 16 12
-2427.6919 6047.1548 1031.2897 0.554 -0.151 -0.818 17 16 12
-2047.1732 5911.0723 813.6578 0.239 -0.820 0.520 29 20 13
-2032.3999 5895.2964 806.1888 0.231 -0.820 0.523 24 14 8
-1939.0153 5734.1157 764.7178 0.032 -0.840 0.542 47 37 28
-1934.8644 5746.7334 761.0262 0.105 -0.993 -0.061 58 39 25
-1915.4336 5716.2471 752.1122 0.239 -0.228 -0.944 73 42 23
-1898.2974 5716.1514 741.7477 0.339 -0.180 -0.923 88 53 30
-1903.1406 5754.3726 741.1085 0.125 -0.391 -0.912 95 60 39
-1946.8881 6164.4634 729.2758 -0.136 -0.073 -0.988 58 48 46
-1722.4917 5761.1895 631.1162 0.177 -0.953 0.247 60 51 46
-1701.9659 5721.6685 622.3835 -0.099 -0.995 0.008 57 48 43
-1570.3794 5571.8091 556.7292 0.538 0.177 -0.824 46 39 33
-1769.9690 6591.6084 582.2697 0.827 -0.192 0.528 12 7 0
-1763.1060 6598.0938 577.5092 0.828 -0.193 0.527 18 5 1
-1718.5729 6531.2588 556.7956 0.886 -0.116 0.449 179 148 144
-1702.0524 6502.3252 549.4983 0.955 -0.025 0.295 192 157 150
-1682.2279 6461.0229 541.3565 0.972 -0.015 0.233 202 165 148
-1390.8395 802.7928 889.7806 0.774 0.156 -0.614 180 180 170
-4956.9561 3487.9731 2786.4487 0.936 0.043 -0.350 217 212 206
-4581.1836 4237.5996 2488.5530 -0.385 -0.917 -0.103 207 199 196
-4391.5312 4834.3730 2317.4653 0.473 -0.395 -0.787 232 225 219
-4385.1279 4845.5439 2312.5410 0.466 -0.386 -0.796 227 220 214
-3942.5972 4800.2529 2049.8408 0.440 -0.739 0.511 111 83 69
-3923.0796 4812.7749 2036.8760 0.341 -0.835 0.432 111 83 69
-3263.5776 4101.0269 1706.5432 0.871 0.490 0.033 113 83 72
-2615.8853 3555.6172 1367.5427 0.772 -0.370 0.517 134 105 87
-3819.3435 5593.7134 1900.1401 0.261 -0.965 0.023 90 63 44
-3902.9326 5859.9844 1925.2924 0.372 -0.020 -0.928 120 92 71
-3832.6089 5779.9600 1890.4606 -0.029 -0.916 -0.399 112 84 63
-3756.7031 6037.4355 1820.2168 0.650 0.331 -0.684 118 91 64
-3344.2021 6129.8384 1562.5613 0.507 -0.551 -0.663 89 71 47
-3279.7532 6062.0132 1530.1157 0.951 0.227 0.210 78 60 38
-2696.1230 5104.6650 1268.8789 0.190 -0.958 -0.215 39 33 24
-3194.4487 6023.3032 1482.3226 0.764 -0.443 -0.469 31 27 18
-3230.2043 6419.7456 1466.2554 0.566 0.320 -0.760 55 45 35
-3241.3740 6465.6523 1468.6359 0.275 -0.863 0.425 55 46 32
