ply
format ascii 1.0
element vertex 777
property float x
property float y
property float z
property float nx
property float ny
property float nz
property uchar diffuse_red
property uchar diffuse_green
property uchar diffuse_blue
end_header
-3498.8494 4433.6279 1299.5850 -0.461 -0.727 0.510 189 160 142
-3326.8860 4263.6812 1222.1366 -0.190 -0.871 0.453 188 168 146
-3212.1892 4300.4180 1129.2904 0.264 -0.938 -0.225 217 175 161
-3236.1873 5610.2979 787.1314 0.562 -0.764 0.317 202 159 152
-2438.1516 5778.6367 165.0768 0.910 -0.114 -0.399 125 86 69
-2001.6880 5249.6309 -4.6948 0.008 -0.904 0.427 180 150 147
-1985.5603 5231.2266 -11.2817 -0.220 -0.867 -0.446 139 108 114
-1976.6256 5232.4458 -18.0635 -0.220 -0.867 -0.446 213 184 189
-1863.5212 5308.4810 -120.5454 0.019 -0.960 0.281 246 235 241
-1194.2142 3834.4390 -198.9851 0.093 -0.822 0.563 253 247 249
-3409.5266 2340.0452 1799.8276 0.420 -0.720 -0.552 180 181 173
-3398.9646 2369.1199 1784.1799 0.340 -0.813 -0.473 189 190 185
-4452.4009 3392.8655 2259.8425 0.949 -0.311 0.045 199 198 193
-4355.7910 3649.6721 2119.2402 0.129 -0.858 0.497 17 17 15
-4456.3721 3762.3176 2160.5359 0.041 -0.575 0.817 17 17 15
-4404.4868 3762.7104 2123.0554 0.971 -0.230 0.067 14 14 12
-4507.5010 3892.0569 2161.4849 0.650 -0.679 0.341 23 23 21
-3039.1221 2688.7900 1436.5933 -0.253 -0.748 0.614 31 30 20
-2963.3792 2624.8723 1399.7130 0.577 -0.578 -0.577 37 25 19
-2938.4780 2609.4370 1386.0458 0.542 -0.632 -0.554 49 21 21
-2935.5908 2615.1196 1382.3945 0.542 -0.632 -0.554 63 21 25
-2938.7239 2626.6399 1381.4655 0.978 -0.198 0.066 73 22 27
-2909.8982 2649.8987 1354.2712 -0.158 -0.856 0.492 174 60 63
-2901.2285 2649.9678 1348.0076 -0.189 -0.825 0.533 191 70 74
-2810.1287 2593.6316 1297.9694 0.930 -0.303 0.206 185 95 102
-2796.7722 2588.7297 1289.7046 0.915 -0.289 0.281 185 107 112
-2771.8396 2580.5735 1274.0017 0.763 -0.391 0.515 216 165 156
-2795.2422 2621.3044 1279.5945 0.538 -0.732 0.418 215 189 173
-2788.6143 2623.1633 1274.3064 0.538 -0.732 0.418 217 194 181
-2780.6826 2623.6821 1268.4501 0.676 -0.624 0.392 214 193 187
-2787.9072 2710.0984 1249.7565 0.264 -0.471 -0.842 131 155 163
-2779.2615 2709.9460 1243.5713 0.489 -0.505 -0.711 133 152 170
-3261.4690 3563.4641 1354.8651 0.093 -0.458 0.884 196 160 146
-3228.8494 3694.8745 1295.0302 0.435 -0.509 0.743 187 156 153
-3187.4106 3656.9829 1275.6613 0.344 -0.579 0.740 185 151 147
-3132.2529 3614.2932 1247.7377 0.445 -0.526 0.725 188 151 143
-2892.3333 3354.9290 1146.6528 -0.268 -0.855 0.444 186 148 141
-3546.5171 4470.8853 1309.2434 0.566 -0.813 0.137 193 164 146
-3509.2771 4436.8921 1291.8206 -0.462 -0.728 0.506 195 166 148
-3412.2407 4338.0264 1249.2677 -0.386 -0.712 0.587 204 175 157
-3328.8984 4256.1245 1211.8870 -0.265 -0.956 0.123 216 193 172
-3276.2356 4243.9209 1177.3298 0.199 -0.786 -0.586 218 137 133
-3114.1497 5172.0776 803.9137 0.454 -0.889 -0.058 203 160 154
-3159.7241 5291.2397 803.7872 0.451 -0.677 0.581 203 160 154
-3120.2239 5365.0469 754.9258 0.825 -0.187 0.533 202 159 152
-3213.5579 5553.5098 770.0352 0.440 -0.806 0.396 202 159 152
-2675.7854 5531.8457 388.6810 0.965 -0.257 -0.047 180 129 112
-2756.6052 5879.0034 350.8918 -0.718 -0.577 -0.390 172 121 104
-2661.8914 5694.0303 333.8237 -0.640 -0.500 -0.583 171 120 103
-2488.0588 5722.1294 200.8457 0.011 -0.821 0.570 107 60 40
-2494.9395 6090.5693 103.9144 -0.517 -0.780 0.353 75 36 27
-2443.3726 6016.0640 87.3754 -0.474 -0.811 0.341 57 28 22
-2268.5884 5703.1338 48.0190 0.290 -0.957 0.010 73 44 39
-2219.0378 5627.2153 33.3232 0.942 -0.226 0.247 131 101 96
-2007.1903 5244.0195 -13.2980 0.018 -0.983 -0.185 197 166 163
-1994.1863 5234.2246 -19.9557 -0.304 -0.942 -0.144 147 116 121
-1985.9971 5237.5229 -26.7664 -0.104 -0.984 -0.147 160 131 136
-1870.1422 5305.8452 -129.1076 0.019 -0.960 0.281 247 234 241
-1623.8854 5152.3975 -264.0467 0.121 -0.934 -0.336 244 233 237
-4301.0488 2788.5134 2305.9976 0.392 -0.330 -0.859 185 185 177
-4277.1870 2797.6421 2286.2981 0.383 -0.648 -0.659 178 175 166
-4334.0405 2908.5706 2296.2649 0.471 -0.076 -0.879 191 191 183
-3416.7166 2341.1355 1794.8518 0.431 -0.731 -0.529 180 183 174
-3414.8379 2347.0979 1791.8397 0.237 -0.835 -0.497 186 189 182
-3406.2156 2370.2585 1779.1874 0.343 -0.817 -0.464 188 190 185
-4456.9482 3390.2705 2250.4119 0.813 -0.423 -0.400 199 198 193
-4381.6616 3677.0171 2116.3853 0.182 -0.655 0.733 18 18 16
-2972.7009 2628.4316 1395.5701 0.577 -0.580 -0.576 30 22 15
-2950.1069 2615.2581 1382.9963 0.900 -0.422 -0.105 41 11 11
-2940.9878 2614.9563 1376.5242 0.947 -0.212 0.241 62 10 17
-2942.3752 2624.7766 1374.7854 0.946 -0.214 0.245 100 33 43
-2950.2295 2658.0686 1371.1559 0.969 -0.219 0.113 190 63 66
-2939.2317 2655.9546 1363.8379 0.986 -0.110 0.127 199 62 65
-2961.4434 2686.3555 1371.3365 -0.058 -0.689 0.722 201 58 66
-2892.5876 2644.5437 1333.4822 -0.183 -0.784 0.593 197 49 57
-2865.2219 2626.0190 1318.9689 0.766 -0.475 0.433 187 45 50
-2853.7800 2623.2056 1311.5264 0.848 -0.433 0.306 185 69 74
-2798.2141 2576.3225 1284.6400 0.924 -0.299 0.239 186 99 105
-2814.9507 2601.5071 1289.6556 0.422 -0.824 0.377 195 123 128
-2796.6506 2591.6482 1279.2456 0.318 -0.943 0.098 206 144 145
-2789.9207 2593.3613 1273.9297 0.318 -0.943 0.098 212 163 159
-2782.1191 2593.9829 1268.1476 0.699 -0.524 -0.486 198 163 156
-2774.8071 2595.0842 1262.5836 0.710 -0.584 -0.394 193 165 158
-2773.4670 2602.2412 1259.6259 0.768 -0.564 -0.303 208 191 181
-2798.2490 2706.2170 1248.4718 0.258 -0.524 -0.812 63 103 119
-2796.8853 2713.7104 1245.4033 0.268 -0.472 -0.840 54 97 125
-2785.6423 2710.8481 1238.1176 0.472 -0.501 -0.725 55 95 132
-2777.6653 2711.3906 1232.2313 -0.217 -0.975 0.044 60 92 137
-2736.3369 2685.5149 1209.7275 -0.452 -0.817 0.359 77 92 122
-3245.7317 3706.8835 1291.3724 0.529 -0.431 0.731 188 155 152
-3199.2236 3675.3384 1266.7245 0.565 -0.427 0.706 188 150 141
-3082.5332 3557.3545 1215.7030 0.361 -0.528 0.769 192 152 143
-3015.3267 3486.8723 1187.0231 0.154 -0.580 0.800 195 153 144
-2856.5112 3325.6294 1117.7689 0.204 -0.599 -0.774 198 157 138
-2943.0320 3480.0837 1136.9374 0.269 -0.907 -0.325 200 159 135
-3013.6968 3718.8425 1121.2158 -0.057 -0.661 0.749 192 163 146
-3400.1531 4311.5591 1233.9106 -0.474 -0.769 0.430 223 196 179
-3369.8113 4285.9165 1219.2410 -0.469 -0.766 0.440 233 206 189
-3286.2698 4247.2729 1169.9453 0.210 -0.780 -0.589 209 124 121
-3112.0188 5173.5718 786.5643 0.449 -0.888 -0.096 201 160 154
-2509.0713 5726.2026 199.0845 0.143 -0.853 0.501 126 77 60
-2464.9177 5723.8857 167.9852 0.802 -0.525 0.285 113 64 47
-2443.5366 5776.6094 137.9223 0.374 -0.679 0.631 131 83 69
-2429.1917 5767.7817 130.0687 0.407 -0.655 0.636 131 84 72
-2482.0757 6063.9014 85.5804 -0.478 -0.795 0.374 98 65 56
-2269.4641 5683.8970 38.6037 0.130 -0.981 0.143 107 75 67
-2015.6957 5246.5908 -21.9964 -0.003 -0.984 -0.177 194 163 160
-2004.3643 5241.4233 -28.7035 -0.317 -0.937 -0.144 195 164 168
-1994.3246 5239.6982 -35.4410 -0.104 -0.984 -0.147 143 114 118
-1953.9247 5283.9141 -76.8072 0.167 -0.594 -0.787 194 168 172
-1947.0865 5317.7070 -91.1395 0.545 -0.400 -0.737 164 147 150
-1876.7584 5303.2114 -137.6638 0.019 -0.960 0.281 248 234 241
-1732.0957 5425.2344 -275.6708 0.970 -0.208 -0.129 249 237 241
-4311.0352 2790.5840 2300.6414 0.392 -0.330 -0.859 184 184 176
-3834.1750 2583.5869 2016.5344 0.408 -0.835 -0.369 188 188 181
-3414.3555 2372.0652 1774.6327 0.336 -0.809 -0.483 189 191 186
-4483.6670 3807.5396 2139.0361 0.985 -0.171 -0.012 13 13 11
-3177.4043 2791.5571 1486.8187 -0.210 -0.698 0.684 16 20 10
-2977.3787 2627.5400 1389.3157 0.625 -0.617 -0.477 23 21 9
-2957.2905 2616.7971 1377.9154 0.900 -0.388 0.199 35 8 7
-2940.8936 2609.5159 1368.1923 0.968 -0.230 0.105 72 15 22
-2939.8235 2616.9409 1365.3398 0.970 -0.220 0.100 131 49 64
-2944.7131 2630.1506 1365.1405 0.940 -0.251 0.231 184 69 93
-2942.2202 2636.2629 1361.6355 0.940 -0.251 0.231 203 66 82
-2939.3044 2641.9805 1357.9379 0.949 -0.243 0.199 213 57 65
-2931.3040 2642.7532 1351.9794 0.983 -0.106 0.151 217 53 61
-2887.3474 2633.8887 1322.9225 -0.200 -0.797 0.570 182 43 44
-2862.7988 2618.1648 1309.7196 0.765 -0.509 0.396 160 36 40
-2842.2725 2606.3198 1298.3142 -0.066 -0.886 0.460 151 59 64
-2823.9744 2596.6028 1287.9104 -0.114 -0.922 0.370 162 101 109
-2805.0564 2586.1880 1277.2577 0.332 -0.942 0.045 172 123 133
-2795.7249 2585.2966 1270.8112 0.321 -0.943 0.091 189 147 157
-2792.1733 2590.1895 1266.8889 0.310 -0.947 0.087 176 143 150
-2790.5244 2597.0103 1263.7906 0.799 -0.338 -0.498 160 136 144
-2784.8167 2599.7485 1258.9258 0.807 -0.465 -0.363 165 149 156
-2775.6458 2598.9712 1252.5624 0.783 -0.547 -0.297 176 170 174
-2777.6287 2661.3999 1236.4597 0.661 -0.595 -0.456 51 102 119
-2792.6265 2685.7471 1240.3878 0.125 -0.539 -0.833 33 90 109
-2805.0979 2707.5894 1243.2059 0.141 -0.450 -0.882 23 91 118
-2803.2656 2714.5901 1239.9255 0.141 -0.450 -0.882 17 92 130
-2786.0886 2705.5217 1230.1444 0.486 -0.382 -0.786 18 90 137
-3256.6750 3316.0217 1396.4720 -0.365 -0.674 0.642 54 30 20
-3180.1833 3286.6240 1349.8307 0.544 -0.342 0.766 61 44 36
-3148.0642 3272.7495 1330.6755 0.598 -0.329 0.731 51 34 22
-2809.6064 3204.8655 1106.8389 0.988 -0.076 0.136 182 138 120
-2900.4043 3349.3726 1131.4318 -0.204 -0.857 0.473 193 146 127
-2887.8516 3402.8174 1107.4196 0.511 -0.735 0.445 205 160 133
-2964.9529 3671.7610 1087.2495 -0.252 -0.881 0.400 197 173 160
-3570.8472 4497.1162 1290.3633 -0.527 -0.724 0.445 213 190 177
-3525.5134 4452.5273 1270.3474 -0.513 -0.723 0.463 223 200 188
-3369.7568 4275.5938 1208.2401 -0.460 -0.772 0.439 244 220 207
-3332.8145 4240.9600 1191.4513 -0.309 -0.947 0.085 237 220 197
-3290.4373 4227.9619 1164.6882 -0.356 -0.931 0.075 198 164 141
-3306.7449 4370.0205 1136.5106 0.592 -0.232 -0.772 249 132 143
-2356.7151 3175.0002 790.2057 0.012 -0.926 0.378 206 174 163
-3120.9468 5174.4722 777.3353 0.544 -0.828 -0.136 202 161 155
-3057.3328 5242.6621 712.5396 0.866 -0.160 0.475 202 162 156
-2816.0032 5770.9102 391.0519 0.975 -0.097 0.201 192 140 125
-2389.9480 5305.2783 216.0126 0.462 -0.680 -0.570 160 103 85
-2224.0708 5597.7524 14.8633 0.274 -0.939 0.207 180 148 142
-2214.3601 5598.9727 7.5518 0.274 -0.939 0.207 196 164 158
-2204.6399 5600.1318 0.2507 0.267 -0.940 0.211 192 160 154
-2201.6873 5619.2036 -7.2223 0.032 -0.971 0.236 198 166 160
-2014.1519 5247.5034 -37.4579 -0.470 -0.876 -0.110 215 184 188
-2002.7980 5242.2505 -44.1313 -0.470 -0.876 -0.110 184 153 158
-1964.1628 5291.4521 -85.6704 0.359 -0.881 -0.307 175 148 152
-1882.8922 5299.1792 -146.1635 0.025 -0.963 0.269 251 236 243
-1162.0872 3693.8342 -212.7730 0.704 -0.140 0.696 250 238 243
-4299.2300 2794.6560 2279.0886 0.283 -0.606 -0.743 183 180 171
-4292.9810 2807.5393 2270.9683 0.274 -0.298 -0.914 177 174 165
-4292.6685 2815.9871 2268.3552 0.381 -0.141 -0.914 184 181 172
-3420.8267 2372.6016 1769.2245 0.336 -0.809 -0.483 189 191 186
-4494.1045 3439.3972 2236.3325 0.728 -0.613 -0.305 179 178 173
-4515.2217 3467.2483 2243.5823 0.567 -0.592 -0.573 148 147 142
-3259.0496 2764.2305 1542.5729 0.786 -0.554 -0.274 47 47 45
-3050.4160 2683.1624 1416.0492 -0.122 -0.992 0.040 14 26 8
-2987.2771 2631.6272 1385.3961 0.628 -0.572 -0.528 18 24 8
-2959.1931 2613.2793 1370.4678 0.893 -0.392 0.220 36 18 12
-2951.1106 2613.9822 1364.4790 0.830 -0.478 0.288 84 28 37
-2950.5781 2621.9314 1361.8495 0.851 -0.470 0.233 149 55 75
-2948.9124 2628.8149 1358.7094 0.852 -0.469 0.235 189 63 88
-2946.3865 2634.8872 1355.1825 0.849 -0.474 0.235 205 58 78
-2946.1106 2643.1597 1352.6453 0.851 -0.472 0.231 216 51 66
-2934.8455 2640.7644 1345.2531 0.962 -0.229 0.150 222 50 60
-2899.5210 2614.8447 1327.2795 0.262 -0.913 0.312 220 51 58
-2904.9404 2628.6487 1327.2577 -0.062 -0.716 0.695 215 55 60
-2884.4314 2617.0481 1315.8472 -0.116 -0.804 0.583 196 56 54
-2866.0483 2607.4524 1305.3927 -0.030 -0.796 0.605 172 52 45
-2845.4211 2595.5615 1293.9797 0.785 -0.564 0.257 145 49 39
-2826.8704 2585.6370 1283.4980 0.303 -0.897 0.322 116 61 57
-2813.3706 2580.6538 1275.2369 -0.007 -0.991 0.134 123 95 101
-2803.7271 2579.4663 1268.6648 -0.011 -0.992 0.123 122 102 111
-2799.2915 2583.4604 1264.3578 0.321 -0.943 0.091 133 116 127
-2796.1162 2588.7234 1260.5947 0.567 -0.798 0.204 151 139 152
-2778.5471 2596.4436 1245.8258 0.857 -0.506 0.097 173 175 197
-2775.1345 2601.4900 1241.9539 0.857 -0.506 0.097 172 194 214
-2788.1194 2666.5967 1232.8413 0.557 -0.423 -0.715 31 105 142
-2825.0815 2722.6182 1243.4742 0.147 -0.373 -0.916 8 96 135
-2817.3972 2723.5527 1237.7053 0.409 -0.449 -0.794 1 98 138
-2806.2153 2720.8120 1230.4705 0.470 -0.659 -0.587 1 96 147
-3028.6250 3217.6748 1249.2634 0.764 -0.268 0.587 133 106 86
-3009.6060 3228.1619 1232.6731 0.681 -0.232 0.694 85 56 46
-2928.1865 3375.7422 1132.6091 0.256 -0.810 0.528 183 126 88
-2927.1711 3385.9697 1128.9893 0.137 -0.576 0.806 187 125 88
-2912.6670 3391.0962 1117.1494 0.167 -0.696 0.698 196 140 105
-2901.1238 3399.8804 1106.3961 0.660 -0.642 0.392 206 154 119
-2879.1277 3430.5925 1081.9532 0.688 -0.560 0.461 201 160 137
-3001.7756 3685.7139 1097.6545 -0.203 -0.896 0.395 192 171 159
-2968.9990 3668.3101 1079.0978 -0.216 -0.889 0.404 205 191 191
-2947.6384 3665.6067 1064.5610 -0.185 -0.969 0.162 230 214 212
-2980.1250 3721.2454 1072.0961 -0.095 -0.914 0.393 232 219 216
-3301.1125 4246.8560 1153.3733 0.526 -0.843 0.113 183 101 97
-2355.9731 3165.8533 782.0739 0.317 -0.662 0.679 211 178 169
-2361.8086 3208.7903 774.1100 -0.264 -0.960 -0.094 226 189 174
-3079.0183 5475.2954 646.8394 0.920 -0.292 0.260 204 165 159
-2999.2961 5412.5757 607.4703 0.975 -0.184 0.125 204 165 163
-2855.2236 5786.6655 398.4619 0.999 0.038 0.008 197 148 141
-2448.5022 5721.2466 125.6141 0.909 -0.333 -0.251 109 58 35
-2416.8018 5910.0825 49.4974 0.809 -0.289 0.512 132 93 72
-2383.2578 5852.2510 41.8251 0.517 -0.683 0.515 132 92 72
-1972.1316 5292.5825 -94.3893 0.487 -0.804 -0.341 176 145 150
-1960.0140 5284.9429 -100.9087 0.606 -0.558 -0.568 204 177 182
-1703.8926 4879.0786 -169.5879 -0.044 -0.128 -0.991 255 240 245
-4307.3398 2804.0483 2270.2871 -0.052 -0.438 -0.897 172 169 160
-4311.5947 2824.3770 2267.5376 0.144 -0.160 -0.977 184 181 172
-3836.9998 2592.4363 1994.2737 0.551 -0.729 -0.407 194 195 187
-3825.4397 2592.0205 1986.1265 0.604 -0.254 -0.755 181 182 176
-3824.8870 2599.6826 1983.5481 0.599 -0.259 -0.758 174 177 170
-3423.5518 2370.3052 1761.9370 0.310 -0.843 -0.439 188 190 185
-3897.3882 2736.6768 1996.3558 0.691 -0.528 -0.493 184 186 181
-4481.7349 3423.0002 2218.6311 0.601 -0.638 -0.482 179 178 173
-4503.5654 3451.3459 2226.1641 0.546 -0.678 -0.492 148 147 142
-4422.0693 3691.5906 2099.4409 0.048 -0.609 0.791 29 29 29
-3326.2336 2802.1980 1569.2957 0.781 -0.608 0.142 12 12 12
-3315.4363 2801.2930 1561.8331 0.810 -0.579 0.093 16 16 16
-3345.2263 2864.6072 1565.0941 0.907 -0.375 0.190 32 31 27
-2984.9783 2624.0916 1376.0349 0.646 -0.592 -0.482 18 23 8
-2965.9646 2614.4194 1365.1954 0.860 -0.465 0.209 39 24 17
-2951.5374 2625.9666 1351.5896 0.157 -0.966 0.203 161 47 71
-2903.8643 2613.6943 1320.9985 0.264 -0.931 0.252 192 42 51
-2894.5281 2621.5420 1312.0868 -0.121 -0.816 0.565 166 42 45
-2873.9551 2609.8328 1300.7130 -0.136 -0.818 0.560 147 45 41
-2844.0981 2588.8767 1285.3353 0.282 -0.809 0.515 121 50 38
-2834.7212 2588.0334 1278.8706 0.282 -0.809 0.515 95 64 55
-2823.9524 2585.7847 1271.8114 0.254 -0.804 0.537 92 86 86
-2812.6787 2583.0002 1264.5438 0.047 -0.985 0.167 75 73 79
-2805.8862 2584.6521 1259.2162 0.398 -0.900 0.180 67 69 79
-2807.5964 2654.8335 1240.4429 -0.030 -0.594 -0.804 39 109 145
-2822.3115 2722.8794 1231.5767 0.543 -0.658 -0.522 2 96 138
-3264.8538 3332.3901 1374.3434 0.217 -0.604 0.767 46 35 31
-2927.5244 3367.1746 1123.2325 0.164 -0.855 0.491 183 119 74
-2843.9028 3287.0688 1086.2646 0.138 -0.794 0.593 186 122 80
-2862.9756 3333.1702 1086.7670 0.661 -0.623 -0.418 186 128 91
-2902.2556 3393.4045 1097.6912 0.660 -0.642 0.392 186 129 92
-2865.6370 3405.5122 1068.0580 0.688 -0.723 0.063 207 161 135
-2811.9751 3407.2034 1029.2063 0.135 -0.990 -0.029 198 163 143
-2805.8325 3411.0256 1023.7251 0.245 -0.961 -0.129 199 168 149
-2807.2300 3448.3767 1014.0823 0.781 -0.619 -0.080 212 202 207
-2991.0925 3726.8132 1066.2162 0.073 -0.864 0.497 228 221 223
-3305.7363 4155.9321 1168.9298 0.132 -0.833 0.538 229 222 221
-3303.1902 4239.4351 1143.3173 0.549 -0.817 0.178 187 100 109
-3086.3499 5105.4746 741.5159 0.136 -0.845 0.517 208 169 164
-3077.3713 5608.8857 591.6627 -0.203 -0.455 -0.867 199 159 157
-3045.9648 5638.5137 560.7645 0.022 -0.520 -0.854 195 151 148
-2862.2046 5436.4585 486.9408 -0.682 -0.403 -0.611 200 155 152
-2402.4529 5824.9761 47.5077 0.434 -0.775 -0.460 138 97 75
-2309.2820 5749.7021 2.3352 0.452 -0.591 0.668 142 105 86
-2236.5334 5587.9897 -3.6065 0.174 -0.917 -0.358 179 141 131
-1966.6210 5282.3052 -109.5051 0.609 -0.557 -0.565 212 184 191
-1963.1511 5298.8979 -116.7139 0.598 -0.565 -0.569 196 169 176
-3844.4631 2593.2341 1988.4886 0.162 -0.550 -0.819 194 195 187
-3836.7803 2595.6699 1982.3062 0.106 -0.308 -0.945 181 182 176
-3836.6399 2619.8621 1975.2625 0.133 -0.429 -0.893 198 201 194
-3846.3186 2635.1843 1977.7728 0.161 -0.392 -0.906 194 197 190
-3855.9236 2650.5183 1980.2271 0.715 -0.149 -0.683 188 191 184
-3433.5298 2366.0535 1760.4011 0.317 -0.853 -0.415 194 196 191
-3428.8557 2369.9592 1755.9442 0.317 -0.853 -0.415 188 190 185
-3331.4221 2801.3713 1562.5829 0.758 -0.642 0.111 12 12 10
-3324.0427 2812.5002 1554.1219 0.788 -0.418 0.452 46 46 44
-3387.3286 2925.3833 1566.8915 -0.370 -0.910 -0.189 15 12 3
-3002.7285 2635.6230 1375.5598 0.582 -0.510 -0.634 20 23 8
-2992.5425 2634.4194 1368.6353 -0.112 -0.988 -0.108 33 23 13
-2979.3652 2630.3311 1360.4038 -0.098 -0.995 0.008 67 28 29
-2906.6394 2611.0212 1314.0400 0.264 -0.931 0.252 142 25 34
-2903.0676 2616.0049 1310.0603 -0.088 -0.887 0.454 132 17 26
-2878.1907 2608.5991 1294.4307 -0.177 -0.816 0.550 100 25 22
-2859.3579 2598.5388 1283.8770 -0.071 -0.798 0.599 84 33 24
-2845.9861 2593.7900 1275.6962 -0.054 -0.965 0.256 83 67 58
-2828.6482 2585.0652 1265.8259 -0.079 -0.968 0.237 86 94 89
-2817.2908 2582.2083 1258.5398 -0.135 -0.990 -0.037 46 64 64
-2810.2561 2583.6211 1253.1135 0.030 -0.997 -0.070 20 47 51
-2808.8364 2667.9045 1227.9098 -0.003 -0.578 -0.816 22 117 172
-2799.6650 2675.9585 1219.0525 -0.020 -0.584 -0.811 11 105 159
-2785.8726 2670.4521 1210.7888 0.086 -0.548 -0.832 7 94 143
-2796.4871 2707.9766 1207.5947 0.857 -0.513 0.048 3 93 150
-2984.6064 3061.3179 1240.4457 -0.289 -0.945 -0.151 56 47 42
-2871.4089 3335.8948 1080.8469 0.684 -0.618 -0.387 172 108 67
-2863.2146 3394.4998 1058.1782 0.682 -0.725 0.093 207 153 120
-2841.2827 3401.6096 1040.4843 0.137 -0.984 -0.111 204 159 132
-2833.5088 3403.3689 1034.4310 0.137 -0.984 -0.111 203 158 130
-2825.8960 3405.3210 1028.4374 0.135 -0.990 -0.029 210 163 135
-2818.7627 3407.8774 1022.6124 0.245 -0.961 -0.129 219 176 148
-2811.6643 3410.4705 1016.8018 0.245 -0.961 -0.129 226 187 160
-2773.9565 3408.5881 990.4293 -0.197 -0.829 0.523 223 216 218
-2746.5776 3396.2632 974.4258 -0.209 -0.860 0.465 226 222 226
-3335.5603 4214.2930 1160.0092 -0.233 -0.943 -0.236 237 224 223
-3357.2476 4257.7324 1163.0201 -0.162 -0.986 0.038 234 215 213
-3313.2505 4242.7900 1135.9072 0.185 -0.940 0.286 177 102 118
-3295.8696 4234.0146 1126.0208 0.152 -0.944 0.293 188 91 115
-3304.3904 4260.2461 1124.5735 0.777 -0.617 0.125 193 77 106
-3258.4595 4241.9663 1097.0381 0.639 -0.730 -0.244 213 91 112
-3248.0332 4257.2407 1085.2128 0.633 -0.725 -0.269 238 153 159
-3289.7720 4329.8013 1094.1768 0.692 -0.721 0.031 229 171 167
-3258.8120 4302.0010 1080.0590 0.200 -0.845 -0.495 213 177 165
-2303.4209 3234.9082 704.4470 -0.002 -0.997 -0.083 149 104 89
-2944.8406 5056.8452 639.3209 0.097 -0.715 -0.693 206 168 165
-2655.8535 5635.0093 267.1243 -0.113 -0.337 -0.935 190 128 115
-2580.6169 5492.7695 254.2513 -0.440 -0.758 0.482 180 118 105
-2191.9771 4797.6792 176.3714 0.659 -0.603 -0.449 163 101 80
-2207.4153 4854.4224 171.1039 -0.314 -0.945 -0.093 163 101 80
-2440.6951 5438.4380 169.9801 0.524 -0.842 -0.124 164 102 81
-2455.2649 5595.3550 135.3416 0.414 -0.226 -0.882 161 100 79
-2469.6711 5731.6499 106.5051 0.493 -0.866 -0.083 150 99 75
-2341.0376 5755.8115 7.7620 0.459 -0.591 0.664 135 94 72
-2247.1960 5594.6191 -12.9502 0.594 -0.790 -0.151 179 142 132
-1847.7432 5432.3096 -251.4626 -0.021 -0.342 -0.939 250 235 240
-3857.7927 2598.3064 1985.6368 0.134 -0.563 -0.815 192 193 185
-3848.8325 2616.0105 1974.1353 0.156 -0.349 -0.924 178 181 174
-3850.8735 2625.6462 1972.8036 -0.012 -0.477 -0.879 191 194 187
-3440.3220 2366.8250 1755.1467 -0.154 -0.763 -0.627 194 196 191
-3333.4385 2797.6785 1554.4414 0.762 -0.637 0.118 16 17 12
-3332.0396 2805.3010 1551.2408 0.795 -0.396 0.460 18 19 14
-3400.8674 2932.1040 1563.6158 -0.393 -0.899 -0.190 17 14 7
-3107.4753 2720.8335 1415.6781 -0.566 -0.824 0.025 25 23 12
-3060.7769 2685.3074 1392.6802 -0.526 -0.834 -0.165 24 25 11
-3022.6047 2657.6550 1373.4802 -0.449 -0.871 -0.199 31 27 15
-3002.6963 2647.2327 1362.3102 -0.438 -0.883 -0.169 47 25 19
-2986.9983 2640.7549 1352.9995 -0.434 -0.884 -0.176 60 17 18
-2845.8835 2588.3208 1267.6262 -0.079 -0.992 0.096 79 76 69
-2834.8708 2585.8560 1260.4934 -0.073 -0.971 0.228 77 94 86
-2823.2705 2582.7734 1253.1201 -0.162 -0.987 0.018 43 72 67
-2814.1094 2582.0786 1246.7946 -0.074 -0.996 0.041 12 54 54
-2843.9075 2689.4221 1236.9900 0.273 -0.453 -0.849 24 126 187
-2840.8845 2703.9421 1230.6385 0.266 -0.441 -0.857 14 115 178
-2838.6160 2710.4575 1227.1389 0.293 -0.432 -0.853 13 108 164
-2833.1423 2722.5742 1219.7363 0.094 -0.537 -0.838 16 95 143
-2806.9133 2713.0972 1203.7904 0.340 -0.928 0.154 8 96 156
-2981.7363 3061.6138 1227.5801 -0.316 -0.942 -0.111 63 53 51
-2965.2144 3053.5088 1218.1526 -0.112 -0.987 0.117 67 57 55
-2881.5000 3340.6521 1075.4999 0.439 -0.442 -0.783 172 103 56
-2863.4202 3386.8401 1049.2666 0.679 -0.728 0.096 197 135 94
-2852.6848 3396.4724 1038.8339 0.729 -0.432 -0.531 199 143 106
-2849.3022 3403.8206 1034.2998 0.150 -0.983 -0.102 200 144 108
-2835.7974 3409.9651 1022.9023 0.145 -0.968 0.205 230 174 136
-2828.0940 3411.8096 1016.8810 0.257 -0.966 -0.005 244 188 151
-2820.8723 3414.2615 1011.0275 0.271 -0.963 -0.002 251 201 168
-2798.9785 3409.4846 996.8109 0.260 -0.912 0.318 236 218 215
-2771.8206 3409.4495 977.4734 0.113 -0.899 0.422 229 217 219
-2754.4993 3398.5347 968.2890 0.127 -0.874 0.469 227 217 216
-2740.8474 3392.3555 960.3496 0.449 -0.865 0.224 229 220 216
-2721.9050 3379.1216 950.6807 0.722 -0.691 -0.033 234 221 219
-3319.8069 4241.4209 1127.3422 0.203 -0.914 0.352 192 147 161
-3308.5269 4240.8940 1119.4583 0.203 -0.914 0.352 210 148 169
-3300.7805 4245.1104 1112.7207 0.321 -0.899 0.298 218 142 167
-3296.7476 4328.8760 1085.6310 0.697 -0.716 0.044 224 168 163
-3273.1108 4311.2822 1073.8783 0.619 -0.750 -0.234 216 175 165
-2208.7524 3385.5635 583.2418 0.055 -0.975 -0.214 205 174 169
-3021.8994 5140.2061 655.2688 0.291 -0.632 0.718 206 168 165
-2965.2410 5098.4604 626.9734 0.242 -0.733 -0.636 203 165 162
-2761.6240 5143.0063 469.0357 0.919 -0.225 0.323 198 153 150
-2640.8650 4948.3901 439.2692 0.191 -0.864 -0.466 200 155 152
-2587.7795 5490.3042 244.7823 -0.439 -0.760 0.480 182 120 107
-2230.1650 5582.2505 -36.5688 -0.028 -0.929 -0.369 196 159 151
-1876.8702 5168.9307 -168.7693 0.116 -0.676 0.728 254 241 248
-3868.2336 2601.2566 1981.3054 0.226 -0.416 -0.881 190 191 183
-3863.7104 2606.0298 1976.6990 0.119 -0.338 -0.934 185 186 180
-3862.7737 2613.4358 1973.8765 0.115 -0.359 -0.926 172 175 168
-3864.6082 2631.0420 1970.0542 -0.012 -0.477 -0.879 191 194 187
-3863.3325 2638.2690 1967.0427 0.166 -0.670 -0.724 193 196 189
-3869.3140 2650.8918 1967.6206 0.760 -0.146 -0.634 188 191 184
-3459.4089 2354.5940 1762.4119 0.443 -0.805 -0.393 181 184 177
-3451.1663 2363.2195 1754.0388 0.443 -0.805 -0.393 194 196 191
-3436.4094 2366.9714 1742.4526 0.247 -0.963 0.112 194 196 191
-3093.6599 2693.6743 1403.5890 -0.641 -0.767 -0.027 39 23 18
-3048.0249 2676.3967 1376.1686 -0.524 -0.852 0.009 30 31 18
-3023.3311 2661.5032 1362.9456 -0.448 -0.882 -0.149 37 28 19
-3008.5994 2656.0103 1354.0692 -0.311 -0.802 -0.510 39 19 14
-3000.0349 2656.3691 1347.8744 -0.322 -0.789 -0.523 45 7 9
-2976.7673 2651.1199 1332.8572 0.036 -0.913 -0.406 29 4 4
-2860.6260 2589.0637 1268.3380 -0.178 -0.984 -0.010 42 37 32
-2850.2434 2587.2598 1261.4802 -0.178 -0.984 -0.010 66 78 68
-2838.6008 2584.1826 1254.0972 -0.164 -0.986 -0.004 68 86 77
-2829.6436 2583.7239 1247.8611 -0.162 -0.987 0.018 44 70 68
-2819.7007 2582.2651 1241.2155 -0.074 -0.996 0.041 14 57 63
-2806.2756 2577.3118 1233.1112 0.691 -0.719 0.074 0 56 74
-2803.9587 2583.3992 1229.6909 0.810 -0.453 -0.372 12 80 111
-2797.5688 2593.8623 1222.1003 0.812 -0.393 -0.432 24 117 161
-2839.8088 2723.7153 1214.3260 0.856 -0.493 -0.153 29 95 150
-2839.2085 2732.0164 1211.4818 0.857 -0.485 -0.176 22 98 158
-3022.7258 3161.8877 1216.8096 0.339 -0.516 0.787 20 10 7
-2866.5481 3382.8816 1041.3998 0.679 -0.728 0.096 185 114 66
-2858.2932 3395.6226 1031.8197 0.729 -0.432 -0.531 186 118 72
-2841.0200 3408.6157 1015.7534 0.386 -0.875 0.291 221 154 108
-2834.7239 3412.2637 1010.2139 0.386 -0.886 0.256 233 167 120
-2826.8835 3413.9268 1004.1541 0.386 -0.886 0.256 242 179 136
-2801.7332 3404.9697 988.8777 0.253 -0.914 0.317 235 203 188
-2781.1206 3401.7002 975.1720 0.178 -0.866 0.467 243 216 203
-2768.8530 3397.4519 967.6854 0.184 -0.870 0.457 235 209 198
-2755.7263 3392.0264 959.9309 0.166 -0.871 0.462 231 206 195
-2744.7148 3389.3193 952.8888 0.343 -0.906 0.249 238 213 198
-2742.2117 3409.5920 945.2056 0.642 -0.755 -0.136 231 221 212
-3285.4014 4170.7686 1109.8274 -0.674 -0.711 0.199 212 200 198
-3251.5522 4139.8154 1094.7701 -0.605 -0.795 0.039 218 198 198
-3297.6829 4304.6553 1079.5748 0.711 -0.701 0.047 225 160 157
-3298.7480 4321.1069 1075.5417 0.669 -0.735 0.113 223 166 160
-2310.0139 3124.2463 720.9553 0.216 -0.758 0.615 144 107 89
-2282.2761 3106.5090 706.3955 0.934 -0.292 0.203 128 89 72
-2264.0571 3401.7781 607.4614 0.014 -0.998 -0.057 198 165 159
-2183.8047 3361.0039 562.2661 0.748 -0.663 0.033 212 179 174
-3047.3203 5131.0327 660.9096 0.071 -0.684 0.726 148 110 107
-3017.9761 5118.6440 643.6501 0.077 -0.686 0.724 208 170 167
-2976.2185 5103.4663 618.3755 0.250 -0.731 -0.635 198 160 157
-2942.0591 5061.9307 606.1791 -0.054 -0.954 -0.293 202 163 158
-2927.8286 5055.9473 597.8021 -0.067 -0.961 -0.267 202 163 158
-2889.4822 5045.4126 573.6011 0.541 -0.754 -0.372 203 164 159
-2658.3748 4967.4429 431.9626 0.053 -0.919 -0.391 186 141 138
-3064.7925 5806.8120 476.5561 -0.637 -0.365 -0.679 122 74 72
-2681.8267 5630.5791 255.5428 -0.121 -0.906 0.405 205 143 130
-2596.8562 5492.0596 235.4548 -0.428 -0.761 0.487 188 126 113
-2524.6570 5770.8657 102.9287 0.104 -0.384 -0.918 171 110 89
-2459.6589 5692.8369 79.4289 -0.042 -0.708 0.705 160 110 85
-2431.8550 5702.9106 56.7239 -0.555 -0.754 -0.352 156 106 81
-2328.1533 5707.2842 -18.2927 -0.405 -0.473 -0.782 117 76 56
-2267.8640 5632.4365 -39.3701 -0.311 -0.898 -0.311 187 150 142
-2056.1965 5335.5513 -103.4394 -0.574 -0.593 -0.565 220 185 189
-4364.1611 2824.0400 2257.0767 0.719 -0.645 -0.259 166 163 154
-4352.3223 2903.6016 2225.3406 0.455 -0.147 -0.878 182 182 172
-3882.6296 2607.0706 1978.9146 0.212 -0.397 -0.893 191 192 184
-3878.6084 2620.3303 1972.1716 0.120 -0.349 -0.930 172 175 168
-3893.4382 2639.3328 1977.1250 0.014 -0.366 -0.931 176 179 172
-3873.3918 2640.9456 1962.4230 0.160 -0.701 -0.695 193 196 189
-3454.9097 2361.7065 1747.2750 0.517 -0.846 0.127 193 195 190
-3447.7837 2371.1824 1739.4380 0.480 -0.869 0.121 194 196 191
-3280.5815 2687.4978 1527.9915 -0.241 -0.956 0.169 35 35 34
-3364.1162 2904.9873 1523.5013 -0.609 -0.786 -0.107 21 18 11
-3067.1975 2689.1492 1376.0463 -0.565 -0.823 0.061 32 36 22
-3021.0789 2662.5154 1351.1219 -0.341 -0.800 -0.494 28 23 14
-3009.4087 2659.9329 1343.5958 -0.158 -0.981 -0.114 32 12 12
-3002.0967 2661.4917 1337.9485 -0.171 -0.977 -0.124 19 10 11
-2985.6367 2654.2454 1328.3903 0.002 -0.932 -0.363 12 10 16
-2867.6836 2590.6377 1263.3209 -0.107 -0.992 -0.070 33 39 39
-2858.5735 2590.0986 1257.0126 -0.107 -0.992 -0.070 56 69 60
-2846.5112 2586.6299 1249.4679 -0.243 -0.963 0.117 60 71 65
-2824.4631 2581.6282 1235.2850 -0.182 -0.978 0.101 20 55 71
-2812.5693 2578.2109 1227.8448 0.719 -0.690 0.090 1 56 84
-2809.1692 2583.2178 1223.9631 0.719 -0.689 0.095 6 81 120
-2918.5457 3038.7937 1167.9922 0.150 -0.579 0.802 16 12 11
-2961.9070 3117.9480 1175.5566 0.043 -0.519 0.854 17 12 10
-2889.9067 3369.7368 1050.6085 0.525 -0.518 0.675 191 110 54
-2844.3120 3404.8113 1007.9587 0.361 -0.897 0.254 188 111 56
-2836.2380 3406.1782 1001.8270 0.255 -0.967 -0.007 197 120 66
-2825.7092 3404.3833 994.8800 0.315 -0.949 -0.016 202 126 76
-2812.0386 3398.5125 986.8983 0.173 -0.968 0.183 201 141 100
-2800.4541 3395.2698 979.6266 0.108 -0.984 0.144 203 150 121
-2792.1426 3396.2161 973.4493 -0.085 -0.986 0.146 207 160 132
-2754.8853 3382.8423 950.9263 -0.137 -0.989 0.059 230 184 155
-2750.6736 3389.0356 946.1204 0.436 -0.866 0.245 237 190 160
-2749.5737 3411.1333 938.8592 0.451 -0.858 -0.248 238 208 191
-3299.6875 4194.2656 1099.6627 -0.695 -0.719 0.016 226 201 192
-2364.0942 3137.5178 745.4875 -0.737 -0.676 0.013 188 155 148
-2329.6067 3133.2563 722.2578 -0.169 -0.976 -0.137 103 67 51
-2323.2339 3135.3606 717.1172 0.009 -0.973 -0.230 104 67 50
-2226.8787 3320.8523 594.3247 0.306 -0.936 -0.174 209 174 166
-2225.6995 3331.4114 590.3911 0.218 -0.926 -0.308 202 172 164
-2235.1836 3359.0833 589.0076 0.332 -0.900 -0.282 196 166 158
-2165.9641 3386.2590 531.9055 0.598 -0.800 0.048 207 173 166
-3048.8931 5119.2954 650.3641 0.092 -0.680 0.727 133 95 92
-3020.3215 5108.2505 633.3232 0.079 -0.685 0.725 168 130 127
-3011.6211 5112.4956 625.9026 0.083 -0.630 0.772 183 145 142
-3004.0591 5118.7563 618.6990 0.420 -0.594 0.686 202 164 161
-2979.9844 5095.5815 608.4071 0.247 -0.814 -0.526 216 178 175
-2961.5251 5082.2471 599.2153 0.320 -0.712 -0.625 204 165 160
-2938.4448 5080.1167 583.4576 -0.185 -0.899 -0.398 204 165 160
-2832.4082 5044.2397 518.7140 -0.479 -0.716 -0.508 203 163 161
-2819.7209 5080.4658 499.0845 0.224 -0.524 -0.822 196 156 154
-2803.5989 5070.2148 490.6472 0.170 -0.244 -0.955 196 156 154
-2804.6147 5092.2983 484.8918 0.189 -0.340 -0.921 197 156 154
-2754.8408 5098.8232 447.6486 -0.621 -0.784 -0.013 189 144 141
-2767.4045 5143.6738 443.4130 0.872 -0.249 0.421 168 123 120
-2668.9033 4972.8018 423.6082 0.150 -0.923 -0.354 148 103 100
-2575.5811 4830.1895 399.1916 -0.397 -0.861 -0.317 181 133 131
-2563.0542 5738.7437 123.8481 -0.416 -0.509 -0.754 175 114 93
-2464.9263 5711.0215 62.3265 0.546 -0.647 0.532 160 110 85
-2085.6755 5342.5088 -98.7934 -0.500 -0.850 0.165 222 187 191
-1981.9255 5215.6104 -135.2201 0.114 -0.603 0.789 214 183 188
-1986.2626 5493.6929 -213.6949 0.937 -0.303 -0.174 245 230 235
-1834.1639 5641.7915 -365.0881 -0.263 -0.369 -0.892 232 215 223
-4375.2192 2826.8047 2252.0940 0.730 -0.613 -0.301 166 164 152
-3891.3108 2641.2114 1964.0592 -0.056 -0.478 -0.877 189 192 185
-3884.1355 2644.1157 1958.1178 0.159 -0.710 -0.686 193 196 189
-3871.9675 2643.3286 1949.7291 0.756 -0.140 -0.639 187 190 181
-3459.1475 2360.5652 1740.7599 0.514 -0.850 0.114 194 197 190
-3455.5720 2365.2856 1736.8324 0.525 -0.841 0.132 194 196 191
-3451.5969 2369.7146 1732.7079 0.500 -0.858 0.122 195 197 192
-3532.1970 2823.5500 1655.7725 -0.113 -0.737 0.667 26 23 18
-3477.4646 2785.1941 1628.3230 0.491 -0.502 0.712 31 29 24
-3464.0713 2782.3711 1619.6675 0.764 -0.277 0.583 30 29 24
-3444.8691 2774.4675 1608.3971 0.738 -0.336 0.585 29 28 25
-3056.5503 2682.2451 1360.5105 -0.510 -0.858 0.061 31 33 22
-3029.0154 2664.6738 1346.1917 -0.513 -0.857 0.054 25 25 15
-3004.0286 2657.9360 1330.4784 -0.198 -0.974 -0.106 12 15 14
-2940.5339 2630.8835 1293.4824 -0.356 -0.933 0.056 15 10 24
-2893.8149 2602.4109 1268.7913 -0.416 -0.889 0.190 14 14 26
-2879.3372 2596.6934 1260.2224 -0.368 -0.922 0.125 31 39 45
-2865.5439 2591.5928 1251.9564 -0.376 -0.921 0.104 50 60 55
-2809.4614 2569.7827 1218.6635 0.760 -0.459 -0.461 6 53 82
-2807.5444 2576.2373 1215.3988 0.760 -0.459 -0.461 16 77 118
-2844.5410 2681.8984 1210.4039 0.981 -0.085 -0.177 33 110 151
-2845.9028 2692.0432 1208.3726 0.982 -0.087 -0.168 32 102 139
-2815.4077 2704.6890 1183.0316 0.509 -0.850 -0.134 31 112 167
-3175.5208 3149.0691 1306.9243 0.220 -0.965 0.141 42 29 21
-2823.4111 3076.1255 1078.9979 0.598 -0.717 0.358 16 11 7
-2883.6873 3365.6638 1036.1884 0.599 -0.570 0.563 195 110 53
-2892.6868 3388.3315 1035.8696 0.717 -0.361 -0.597 194 109 54
-2857.6096 3402.0901 1006.9537 0.726 -0.687 -0.021 193 109 48
-2849.9448 3403.9954 1000.9604 0.396 -0.883 0.252 190 107 46
-2841.4648 3404.8496 994.7001 0.255 -0.967 -0.007 190 106 47
-2827.1624 3398.2393 986.5192 0.353 -0.933 -0.072 191 107 50
-2813.6782 3392.6108 978.6279 -0.051 -0.992 -0.116 182 106 53
-2800.6140 3387.4624 970.8926 0.025 -0.997 0.068 176 107 64
-2794.8474 3391.6775 965.5620 -0.124 -0.985 0.122 180 112 70
-2784.1187 3389.4678 958.6132 -0.124 -0.985 0.122 188 119 73
-2753.2957 3407.8723 931.3392 0.452 -0.857 -0.248 227 165 143
-2747.9170 3412.5891 926.1353 0.485 -0.844 -0.230 234 176 159
-2336.0962 3123.3816 719.7773 -0.306 -0.943 -0.132 56 22 8
-2336.5398 3135.2532 716.5852 -0.169 -0.976 -0.137 63 29 14
-2331.7769 3139.6868 711.9013 0.051 -0.971 -0.233 70 36 21
-2194.8936 3347.9746 553.4011 0.736 -0.677 0.021 198 170 165
-3065.4548 5114.2588 648.5216 0.287 -0.602 0.745 202 164 161
-3035.3250 5100.6250 631.2014 0.092 -0.680 0.727 163 125 122
-3022.4058 5097.4497 622.9858 0.085 -0.681 0.727 130 92 89
-3005.0276 5105.9038 608.1765 0.420 -0.594 0.686 172 134 131
-2960.7708 5085.9497 582.7139 -0.178 -0.929 -0.325 208 169 164
-2948.2805 5083.1904 574.6794 -0.193 -0.876 -0.442 208 169 164
-2941.1631 5090.0698 567.6050 -0.197 -0.966 -0.168 208 169 164
-2932.1709 5093.5669 560.2013 -0.148 -0.972 -0.183 203 164 159
-2920.8755 5092.8633 552.4061 -0.093 -0.911 -0.402 203 164 159
-2854.7812 5131.1240 494.2779 0.040 -0.995 -0.093 189 149 147
-2768.5374 5109.8047 439.4706 -0.621 -0.784 -0.013 167 122 119
-2767.9739 5129.2231 433.3361 0.868 -0.262 0.422 148 103 100
-2429.6196 5734.5127 14.8386 -0.559 -0.705 -0.436 153 106 83
-2414.8181 5750.5034 -0.3711 -0.530 -0.596 -0.604 149 108 86
-2391.7888 5772.5962 -23.2126 -0.414 -0.473 -0.777 148 108 83
-2381.5925 5773.6553 -30.7495 -0.405 -0.473 -0.782 146 105 83
-2373.0732 5778.9165 -38.3392 -0.405 -0.473 -0.782 164 123 103
-2308.8154 5668.9971 -51.4011 -0.233 -0.739 -0.632 182 145 135
-2328.4731 5745.9058 -60.1887 -0.357 -0.770 -0.528 187 150 142
-2323.1528 5759.1763 -67.8778 -0.358 -0.793 -0.494 193 156 148
-2146.0110 5378.9038 -81.0691 -0.541 -0.478 -0.692 197 160 151
-1950.0842 5340.8589 -208.6470 0.876 -0.480 0.047 240 224 230
-1977.4055 5446.0327 -220.3530 0.908 -0.405 -0.108 244 229 234
-4379.9604 2825.1731 2243.9250 0.730 -0.613 -0.301 172 170 158
-4376.4858 2831.4314 2239.6067 0.730 -0.613 -0.301 162 160 148
-4377.8579 2849.8103 2235.1104 0.770 -0.539 -0.343 177 175 163
-4383.7534 2915.8403 2219.6404 -0.085 -0.397 -0.914 179 179 167
-3470.5254 2328.0896 1748.6188 0.330 -0.611 -0.719 186 189 180
-3475.6201 2339.1179 1748.9417 0.782 -0.463 -0.418 192 195 186
-3475.0688 2346.0286 1746.4965 0.759 -0.488 -0.431 198 199 191
-3463.5913 2359.5791 1734.3491 0.680 -0.733 0.001 185 186 180
-3466.0598 2368.8022 1733.3516 0.866 -0.461 -0.193 191 192 186
-3463.7644 2374.4968 1730.0345 0.866 -0.461 -0.193 197 198 192
-3484.2654 2776.9736 1624.8245 -0.176 -0.801 0.572 26 18 15
-3441.8074 2766.4731 1597.9214 0.734 -0.338 0.589 29 24 17
-3437.7153 2771.6318 1593.4930 0.709 -0.359 0.607 33 28 20
-3034.5400 2673.0923 1337.6755 -0.490 -0.871 0.045 19 16 6
-2997.0500 2654.3977 1316.7230 -0.315 -0.947 -0.064 7 20 21
-2915.8303 2601.6401 1274.9758 0.701 -0.308 -0.643 14 18 25
-2905.7114 2608.6418 1265.7373 -0.374 -0.921 0.109 9 13 21
-2888.8953 2600.6814 1256.2125 -0.374 -0.921 0.109 24 33 41
-2874.0327 2594.5640 1247.5212 -0.376 -0.921 0.104 40 52 49
-2833.7065 2580.0784 1223.3110 -0.226 -0.966 0.124 30 56 68
-2812.5066 2567.4746 1212.0671 0.676 -0.525 -0.517 22 54 75
-3183.4399 3150.7817 1300.8988 0.146 -0.989 0.012 46 30 22
-2960.4080 3031.8376 1178.5480 -0.097 -0.983 0.154 21 17 6
-2965.1216 3047.0195 1177.3657 0.196 -0.913 0.358 21 18 12
-2955.5303 3046.4805 1170.7430 0.196 -0.913 0.358 14 13 11
-2824.8704 3070.9451 1071.0638 0.598 -0.717 0.358 34 28 24
-2863.5745 3401.6917 1000.0617 0.749 -0.662 -0.035 202 112 49
-2852.6423 3399.4597 992.9942 0.399 -0.881 0.255 201 114 50
-2826.1946 3389.0310 977.3922 0.341 -0.920 0.191 201 111 51
-2817.0408 3388.9385 970.9461 0.042 -0.995 0.093 196 111 51
-2808.9197 3390.1470 964.8435 0.021 -0.996 0.087 194 112 60
-2804.8562 3396.5659 960.0607 -0.065 -0.984 0.166 197 116 66
-2794.3804 3394.7139 953.2029 -0.065 -0.984 0.166 202 120 64
-2766.0996 3393.0437 933.6994 0.278 -0.960 0.033 197 117 63
-2756.3662 3403.7686 923.6262 0.646 -0.750 -0.145 201 118 77
-2949.4727 3879.7866 918.6094 0.971 -0.094 0.221 218 173 153
-2947.3704 3890.4771 913.9431 0.971 -0.094 0.221 216 174 155
-2343.4829 3137.2529 710.9042 -0.169 -0.976 -0.137 53 23 11
-2277.3801 3224.4011 638.2358 -0.034 -0.952 -0.305 212 178 169
-2229.4819 3319.4475 576.0926 -0.532 -0.813 -0.237 149 125 121
-2200.3733 3322.6377 554.5580 0.393 -0.531 -0.751 72 49 46
-2198.6121 3332.2937 550.4406 0.436 -0.492 -0.754 79 56 53
-2198.1980 3344.1763 546.6136 0.736 -0.677 0.021 90 68 64
-2185.5366 3361.4810 532.5124 0.878 -0.474 -0.064 180 153 147
-3069.4407 5106.8345 638.4908 0.550 -0.579 0.602 209 171 168
-2971.7842 5091.0718 574.1165 -0.178 -0.929 -0.325 173 134 129
-2960.2559 5090.0806 566.2584 -0.193 -0.876 -0.442 169 130 125
-2951.2898 5093.6562 558.8541 -0.197 -0.966 -0.168 167 128 123
-2942.0452 5096.7168 551.4059 -0.148 -0.972 -0.183 193 154 149
-2931.2266 5096.9087 543.6979 -0.096 -0.915 -0.392 193 154 149
-2919.2454 5094.9478 535.8080 0.297 -0.852 -0.431 193 154 149
-2871.9824 5087.7964 504.5106 -0.470 -0.755 -0.458 195 155 153
-2860.9785 5087.3848 496.8511 -0.475 -0.757 -0.449 195 155 153
-2860.4221 5126.5195 484.8177 0.033 -0.995 -0.094 178 138 136
-2851.7581 5130.5244 477.4995 0.252 -0.476 -0.843 178 138 136
-2762.9268 5145.1182 410.3372 0.702 -0.640 0.314 203 158 155
-2648.9438 5575.0938 201.8409 -0.491 -0.848 -0.198 202 143 132
-2418.9048 5792.6484 -25.5500 -0.441 -0.637 -0.633 148 107 85
-2407.8455 5791.7026 -33.0900 -0.440 -0.644 -0.626 148 108 83
-2390.2463 5801.0273 -48.3096 -0.451 -0.642 -0.620 167 126 106
-2384.9390 5814.5166 -56.0751 -0.426 -0.510 -0.747 180 143 124
-2321.9160 5681.3916 -61.0495 -0.233 -0.739 -0.632 184 146 136
-2337.0278 5773.3906 -77.7257 -0.352 -0.791 -0.500 192 155 147
-2128.8557 5416.0894 -118.6733 -0.570 -0.565 -0.596 217 183 184
-1990.7649 5328.0239 -190.1381 0.019 -0.900 -0.435 207 176 182
-1979.7854 5323.6860 -196.6125 0.067 -0.862 -0.502 223 192 199
-1950.7272 5374.7773 -232.3587 0.644 -0.577 0.502 254 241 246
-1899.0258 5471.9644 -297.8283 0.435 -0.879 -0.196 237 222 229
-4385.4038 2824.0317 2236.1133 0.742 -0.562 -0.364 172 170 158
-4388.4170 2834.7939 2235.0168 0.770 -0.539 -0.343 160 158 146
-4382.6396 2848.1814 2226.9290 0.770 -0.539 -0.343 176 174 162
-3894.4255 2585.6431 1960.9294 0.488 -0.430 -0.759 175 175 163
-3477.0322 2328.6465 1743.2627 0.435 -0.578 -0.690 188 189 181
-3479.7937 2337.9529 1742.4247 0.782 -0.463 -0.418 192 193 185
-3478.2766 2344.1448 1739.4991 0.825 -0.565 -0.014 198 200 189
-3474.3560 2348.5791 1735.4034 0.808 -0.588 0.024 188 189 181
-3465.3643 2356.6125 1726.6503 0.805 -0.593 -0.005 185 186 180
-3465.5750 2364.1382 1724.5449 0.884 -0.461 -0.078 190 191 185
-4540.5645 3395.0186 2174.6277 -0.067 -0.937 -0.343 198 199 193
-4548.3599 3411.6550 2175.1479 -0.071 -0.951 -0.302 198 199 193
-3189.5859 2752.8940 1413.2893 0.432 -0.507 0.746 54 46 38
-3178.6714 2751.4871 1406.0061 0.432 -0.507 0.746 60 51 47
-3166.5613 2748.9314 1398.2230 0.450 -0.514 0.730 61 50 48
-3156.2280 2748.0083 1391.2051 0.450 -0.514 0.730 59 50 48
-3121.5798 2732.8752 1371.2794 0.327 -0.677 0.660 33 29 25
-3110.4883 2731.1152 1363.9769 0.327 -0.677 0.660 29 24 20
-2922.2568 2602.5310 1269.6157 0.716 -0.277 -0.641 17 21 23
-2895.0552 2601.3452 1250.7690 -0.280 -0.893 0.352 25 31 36
-2844.1011 2576.6370 1222.2008 0.006 -0.935 0.355 39 57 59
-2854.8850 2663.8147 1203.7030 -0.009 -0.218 -0.976 101 132 163
-2855.3594 2672.9629 1201.2980 0.011 -0.308 -0.951 101 132 161
-2856.5898 2682.9133 1199.1864 0.007 -0.328 -0.945 95 127 156
-2899.2263 2816.3840 1189.3083 0.835 -0.498 0.235 79 132 177
-3205.5205 3167.4338 1300.3806 0.109 -0.990 -0.091 59 37 26
-2976.4495 3032.8733 1178.9806 0.699 -0.561 0.443 29 24 12
-2970.4106 3036.2388 1173.7098 0.699 -0.561 0.443 16 14 1
-2907.4270 3118.1733 1104.7097 -0.520 -0.768 0.374 31 29 25
-2968.6211 3209.6091 1120.5212 0.375 -0.470 0.799 32 32 25
-2823.6289 3389.3994 964.3228 0.435 -0.791 0.431 199 110 50
-2801.2168 3407.1987 943.1710 0.510 -0.836 0.202 202 110 52
-2796.2410 3412.4731 938.0790 0.444 -0.895 -0.051 202 110 52
-2783.4290 3407.5527 930.5085 0.384 -0.918 -0.096 202 111 52
-2772.1204 3404.5398 923.4281 0.477 -0.878 -0.043 202 110 53
-2765.9197 3408.1770 917.9617 0.477 -0.878 -0.043 203 111 56
-2591.1030 3234.7683 846.4952 -0.352 -0.925 0.141 202 111 59
-2341.3638 3126.2998 702.6907 -0.227 -0.973 -0.040 41 19 16
-2291.2295 3225.0620 637.7210 -0.034 -0.952 -0.305 212 180 168
-2286.6411 3229.9417 633.0206 -0.010 -0.940 -0.342 213 179 167
-2240.6694 3328.2178 571.1347 -0.532 -0.813 -0.237 48 38 34
-2210.1741 3329.3413 549.2715 0.394 -0.552 -0.734 16 9 6
-2207.4570 3337.4678 544.9198 0.444 -0.490 -0.750 18 10 8
-2201.8945 3341.0278 539.9269 0.743 -0.669 -0.000 18 10 8
-3085.9114 5121.0464 630.8308 -0.011 -0.648 0.762 212 175 169
-2961.4331 5097.2480 550.0891 -0.197 -0.966 -0.168 149 112 106
-2950.1155 5096.5962 542.2953 -0.193 -0.964 -0.181 151 114 108
-2936.8513 5092.3813 534.1943 -0.453 -0.872 -0.183 151 114 108
-2926.3225 5093.0620 526.5582 0.282 -0.855 -0.435 151 114 108
-2920.3193 5101.9541 519.6572 0.305 -0.841 -0.448 151 114 108
-2918.0581 5117.7183 513.3398 0.583 -0.683 -0.440 146 106 104
-2910.1406 5123.1797 506.1149 0.585 -0.693 -0.422 146 106 104
-2888.8435 5103.9951 496.8271 -0.470 -0.713 -0.520 146 106 104
-2876.9722 5102.0581 489.0273 -0.475 -0.757 -0.449 146 106 104
-2869.8623 5108.9072 481.9571 -0.464 -0.743 -0.483 162 122 120
-2868.8289 5127.0913 475.7813 0.033 -0.995 -0.094 162 122 120
-2864.2891 5138.8174 469.0648 0.252 -0.476 -0.843 163 123 121
-2770.5808 5103.3799 413.5295 -0.508 -0.778 -0.371 207 163 160
-2473.5901 5196.5933 175.9654 0.013 -0.990 -0.138 197 140 131
-2269.0735 4873.5737 128.3428 -0.234 -0.800 -0.552 187 129 114
-1585.5212 3508.3013 54.7285 0.682 -0.473 0.558 173 117 97
-2408.5483 5746.0840 -34.5231 0.813 -0.215 0.542 151 110 88
-2161.2778 5455.0347 -121.9011 -0.567 -0.572 -0.593 205 170 169
-2149.7839 5450.7227 -128.7232 -0.567 -0.572 -0.593 212 176 176
-2065.7703 5279.3755 -136.7090 -0.317 -0.911 0.263 221 185 185
-2009.9459 5360.2056 -200.3246 0.033 -0.994 -0.104 207 175 180
-2000.9104 5361.4814 -207.0850 0.046 -0.993 -0.110 224 193 198
-1906.5277 5415.5347 -289.8991 -0.163 -0.985 0.053 220 200 209
-4399.9341 2811.9036 2238.0217 0.568 -0.652 -0.502 180 176 165
-4396.8906 2818.4290 2233.9094 0.734 -0.567 -0.373 183 181 169
-3896.7791 2574.7744 1955.0100 0.485 -0.480 -0.731 171 171 159
-3902.8623 2587.1101 1955.5759 0.487 -0.434 -0.758 175 175 163
-4434.4272 2996.1809 2206.7517 0.673 -0.178 -0.718 183 185 174
-3481.4541 2327.6768 1736.8899 0.526 -0.749 -0.403 187 188 180
-3478.4636 2332.7581 1733.2502 0.521 -0.735 -0.434 193 194 186
-3476.8218 2338.8401 1730.2592 0.799 -0.480 -0.361 198 200 189
-3474.3936 2344.3584 1726.8840 0.805 -0.593 -0.005 187 188 180
-3468.1726 2347.0869 1721.6780 0.784 -0.620 0.033 176 177 169
-3464.1802 2351.4631 1717.5452 0.767 -0.641 0.028 185 186 180
-3467.6650 2361.4016 1717.0034 0.884 -0.461 -0.078 191 192 186
-4560.0996 3414.7805 2169.0601 -0.072 -0.950 -0.303 198 199 193
-3196.8340 2745.3979 1410.3694 0.505 -0.499 0.705 56 45 35
-3174.0339 2741.6768 1395.4265 0.396 -0.554 0.732 51 41 39
-2897.3367 2598.2380 1243.7228 -0.112 -0.876 0.468 24 31 33
-2882.5859 2592.2607 1235.1318 -0.159 -0.878 0.451 39 49 50
-2849.3027 2576.4336 1216.4535 0.012 -0.921 0.390 38 56 57
-2865.4338 2600.6350 1220.5209 -0.324 -0.946 0.032 38 56 62
-2813.3394 2582.6865 1189.2278 0.110 -0.709 -0.697 137 150 181
-2816.3545 2602.5183 1185.3715 0.518 -0.530 -0.671 114 127 160
-2866.8574 2670.3235 1200.5074 0.070 -0.265 -0.962 123 136 167
-2863.2852 2675.3948 1196.4611 0.154 -0.275 -0.949 130 145 174
-2868.3730 2689.2483 1195.8680 0.011 -0.308 -0.951 130 144 175
-2842.4250 2724.3330 1167.0040 0.743 -0.498 -0.448 38 109 143
-2853.6248 2753.8218 1166.0023 0.898 0.009 -0.440 74 140 186
-2875.0188 2785.1582 1171.6262 0.880 -0.455 0.135 101 154 195
-2877.6709 2797.0391 1169.9119 0.877 -0.461 0.138 75 82 97
-3111.6606 3122.2542 1236.7040 0.184 -0.413 0.892 43 19 17
-3058.2793 3075.0046 1213.3407 0.188 -0.556 0.810 48 17 13
-3026.2400 3050.4814 1198.1614 0.302 -0.573 0.761 46 20 10
-3025.9304 3070.1758 1192.0039 0.209 -0.516 0.831 55 46 35
-2990.1460 3041.2634 1175.5094 0.357 -0.635 0.685 30 24 13
-2965.8687 3034.6758 1160.3901 0.710 -0.550 0.440 17 18 7
-2960.2634 3038.5015 1155.2869 0.724 -0.513 0.462 13 14 7
-2965.9504 3199.4265 1110.7625 0.366 -0.500 0.785 32 33 26
-2812.1899 3413.3230 937.9154 0.871 -0.272 -0.410 203 110 51
-2810.9019 3423.3911 933.9714 0.871 -0.272 -0.410 203 110 51
-2796.5457 3416.5212 925.9277 0.804 -0.545 -0.238 203 110 51
-2779.3794 3405.9194 917.0297 0.379 -0.925 -0.019 203 110 51
-2323.8003 3115.6428 683.5681 0.579 -0.794 0.184 45 22 18
-2317.6980 3118.0642 678.5381 0.588 -0.788 0.180 48 24 18
-2296.7061 3224.8840 631.5325 -0.173 -0.882 -0.438 213 179 170
-2344.0515 3381.2268 617.7426 -0.377 -0.925 -0.041 205 186 177
-2315.7605 3387.3074 595.9750 0.936 -0.259 0.238 164 153 144
-2290.6340 3360.5906 586.3280 -0.278 -0.928 -0.246 155 142 134
-2254.6575 3341.3623 566.7775 -0.464 -0.849 0.255 32 23 20
-2230.5071 3315.5552 557.5441 0.246 -0.656 -0.714 27 19 16
-2233.2446 3344.7344 550.6731 0.521 -0.842 -0.140 10 5 3
-2992.2112 5098.3765 556.5822 -0.177 -0.919 -0.352 216 179 173
-2983.4792 5102.4385 549.2048 -0.190 -0.879 -0.438 207 170 164
-2970.8721 5099.5557 541.1910 -0.183 -0.959 -0.217 201 164 158
-2960.3044 5100.2778 533.5272 -0.193 -0.964 -0.181 191 154 148
-2950.2444 5101.8833 525.9547 -0.442 -0.851 -0.284 191 154 148
-2935.7302 5095.4009 517.6829 0.291 -0.847 -0.444 191 154 148
-2925.5447 5116.5361 504.1323 0.410 -0.806 -0.427 170 130 128
-2918.0005 5122.6782 496.9641 0.575 -0.707 -0.411 170 130 128
-2906.2073 5121.0229 489.1540 -0.470 -0.713 -0.520 170 130 128
-2893.4934 5117.6187 481.2224 -0.475 -0.756 -0.450 170 130 128
-2878.4895 5129.9854 466.9210 0.026 -0.995 -0.091 190 150 148
-2854.2217 5186.1250 432.8913 -0.116 -0.993 -0.037 213 169 166
-2836.6968 5193.9941 418.1699 -0.599 -0.798 -0.063 207 163 160
-2792.7810 5130.5869 406.3490 -0.513 -0.777 -0.365 207 163 160
-2460.6641 5217.8813 146.0119 -0.400 -0.826 -0.396 194 138 125
-3153.3430 6806.2461 155.0588 0.197 -0.963 0.182 193 137 124
-2260.2878 4879.7900 106.7873 -0.206 -0.829 0.521 192 136 123
-2332.2373 5613.7637 -63.8679 0.874 -0.211 0.439 180 142 121
-2325.9998 5624.0317 -71.3596 0.874 -0.211 0.439 187 149 129
-2225.1985 5523.0444 -111.9290 -0.269 -0.897 0.351 191 155 142
-1997.9028 5358.2656 -222.3885 0.014 -0.992 -0.126 237 207 213
-1890.5764 5690.5942 -398.2345 0.746 -0.557 -0.366 255 242 251
-4413.6177 2816.4338 2234.3030 0.489 -0.319 -0.812 179 175 164
-3478.5259 2335.8684 1722.5695 0.454 -0.714 -0.533 199 201 190
-3475.8652 2341.2051 1719.0778 0.306 -0.854 -0.421 186 187 179
-3468.2954 2342.9319 1713.2296 0.333 -0.792 -0.512 177 178 170
-3280.7180 2738.3369 1461.2401 0.248 -0.623 0.742 62 38 22
-3186.1040 2738.7168 1394.5819 0.355 -0.643 0.679 54 39 34
-3178.3359 2740.2156 1388.6635 0.309 -0.677 0.668 28 18 16
-2900.4595 2595.9561 1237.0353 -0.212 -0.901 0.379 24 31 31
-2853.6479 2575.3914 1210.3569 -0.105 -0.967 0.232 38 57 57
