ply
format ascii 1.0
element vertex 786
property float x
property float y
property float z
property float nx
property float ny
property float nz
property uchar diffuse_red
property uchar diffuse_green
property uchar diffuse_blue
end_header
-3735.7490 5540.7866 1515.8411 0.948 -0.220 0.230 201 154 126
-3708.0574 5582.6880 1480.5195 0.332 -0.592 0.734 208 159 127
-3691.2261 5575.3892 1469.1654 0.788 -0.501 0.359 206 157 126
-3674.1335 5583.8613 1452.7317 0.824 -0.478 0.304 202 157 132
-3664.6299 5603.0698 1439.1191 0.813 -0.491 0.314 175 133 111
-3635.2378 5610.5679 1413.0427 0.605 -0.396 0.691 138 93 70
-3625.6814 5629.9326 1399.3392 0.258 -0.721 0.644 129 85 57
-3617.5813 5634.8887 1391.2609 0.494 -0.718 0.490 133 90 56
-3606.3274 5635.2988 1382.0361 0.522 -0.705 0.480 129 85 46
-3598.3291 5640.4038 1373.9941 0.534 -0.721 0.441 141 97 57
-3544.0718 5611.5293 1339.0432 0.606 -0.446 0.659 184 140 103
-3426.7124 5656.8081 1230.1874 0.884 -0.408 0.227 151 114 88
-3456.2998 5772.0410 1218.5364 0.850 -0.185 -0.493 124 88 63
-3410.4512 5736.4746 1192.4490 0.562 -0.825 0.054 127 98 80
-3402.5068 5741.8164 1184.3776 0.386 -0.922 -0.035 116 89 72
-3392.3499 5743.7104 1175.5817 -0.288 -0.566 -0.773 109 81 67
-3340.7849 5879.7651 1091.8958 0.868 -0.355 0.346 19 9 3
-3284.4458 5918.8491 1034.2838 0.868 -0.281 0.410 98 81 71
-3283.2515 5935.9224 1028.0480 0.868 -0.283 0.408 87 70 60
-3186.9573 5850.2666 976.6402 0.407 -0.465 0.786 65 47 37
-3160.4712 5824.3271 963.2348 0.366 -0.837 0.406 81 63 53
-3146.2949 5819.1562 953.3703 0.475 -0.839 0.266 57 39 29
-3079.2529 5856.7476 887.5665 0.842 -0.539 -0.008 69 50 36
-2858.3123 5976.2490 672.0594 0.409 -0.870 0.274 91 79 68
-2846.9319 5975.3721 663.1296 0.534 -0.487 0.691 83 69 57
-2834.1733 5971.7944 653.9196 0.529 -0.478 0.701 98 82 69
-2733.2158 5879.8042 600.6968 0.851 -0.255 -0.460 83 65 53
-2844.1838 6209.3794 588.6731 0.056 -0.696 0.716 77 57 46
-2833.3552 6210.1162 579.6912 0.120 -0.674 0.729 69 49 38
-2792.8855 6173.2920 558.3408 0.193 -0.614 0.766 69 49 38
-2642.5952 5889.3379 524.4921 0.707 -0.365 0.606 69 49 38
-2629.6360 5884.3789 515.5460 0.812 -0.288 0.508 67 44 36
-2471.3503 5769.9663 422.8982 -0.518 -0.583 -0.626 55 37 27
-2461.6006 5770.8613 414.7399 -0.519 -0.585 -0.623 55 37 27
-2471.9138 5814.7778 409.5210 -0.519 -0.594 -0.615 57 39 29
-2462.4146 5838.4287 394.5406 -0.394 -0.914 -0.098 57 39 29
-2190.5383 5607.7817 245.9411 0.085 -0.954 0.288 51 33 23
-2330.9666 6203.6260 175.5404 0.442 -0.594 0.672 51 33 23
-1834.7001 5188.7114 87.6266 -0.486 -0.807 -0.336 63 32 27
-1788.4208 5202.6196 45.9189 0.984 -0.139 0.107 209 167 168
-1781.4143 5251.8906 25.0453 0.640 -0.645 0.417 177 129 131
-1822.3488 5406.3418 10.4615 -0.430 -0.807 -0.405 193 149 153
-1606.7233 5548.6440 -207.7869 0.174 -0.969 -0.173 46 20 18
-1783.0548 6304.7432 -298.6301 0.938 -0.138 -0.318 128 72 57
-1590.1305 6184.2852 -417.4152 -0.610 -0.389 -0.690 187 55 58
-1576.7064 6204.4463 -434.4913 -0.591 -0.397 -0.702 209 81 82
-1543.8038 6258.5459 -477.7911 -0.561 -0.407 -0.721 248 80 92
-1525.6495 6262.5405 -493.7010 -0.527 -0.388 -0.756 249 81 92
-1558.9227 6420.1079 -515.4404 0.357 -0.492 -0.794 250 82 92
-1493.7987 6359.6445 -549.4255 -0.067 -0.826 -0.559 255 72 88
-1308.5311 5724.1440 -503.0336 0.722 -0.692 -0.006 250 82 93
-1289.8325 5718.8174 -516.5063 0.692 -0.722 -0.008 254 134 129
-1205.6677 5456.1592 -503.4698 0.179 -0.467 -0.866 239 143 133
-1545.5807 6999.0977 -704.9531 0.108 -0.740 0.664 238 146 135
-1530.8085 6981.9849 -711.6132 -0.148 -0.700 0.699 238 146 135
-1500.3511 6943.1699 -724.2546 0.111 -0.787 0.607 235 147 133
-1487.7397 6934.1860 -731.6771 0.146 -0.802 0.580 236 148 134
-1470.8080 6950.6265 -750.4404 0.578 -0.814 0.058 235 148 133
-100.3303 3665.1267 -844.2075 0.264 -0.666 0.697 255 69 94
-3467.2585 3558.7351 1898.9449 -0.298 -0.749 0.592 100 96 87
-3368.6160 3475.9846 1845.0431 -0.304 -0.750 0.587 234 230 220
-4580.9033 4976.1396 2357.1548 -0.399 -0.916 0.038 228 221 205
-4587.4043 4994.9580 2356.5493 -0.440 -0.898 0.018 228 222 208
-4555.3862 4974.9761 2336.9138 -0.429 -0.903 0.009 222 216 202
-4537.2808 4968.9502 2324.1697 -0.343 -0.846 -0.407 213 209 197
-4447.8799 5260.6982 2161.2166 0.541 -0.840 0.031 164 133 105
-3926.4131 5207.6533 1756.6715 -0.326 -0.671 -0.666 184 143 111
-3929.7390 5225.8203 1753.7048 -0.331 -0.682 -0.652 185 144 112
-3929.5837 5239.7861 1749.2345 0.279 -0.656 -0.701 183 142 110
-3932.9536 5258.1621 1746.2384 0.273 -0.655 -0.704 182 141 109
-3991.6729 5463.3730 1729.8053 0.137 -0.610 -0.781 174 129 96
-4124.7471 5647.4844 1779.9729 -0.115 -0.825 -0.553 173 131 97
-4024.7024 5535.6553 1733.9860 -0.145 -0.875 -0.462 166 127 96
-4035.0288 5564.1724 1733.4517 -0.028 -0.929 -0.370 159 123 96
-4038.4590 5583.9961 1730.0536 -0.027 -0.929 -0.370 150 116 88
-3985.8557 5547.2842 1699.0020 -0.304 -0.809 0.503 146 111 83
-3941.6973 5505.6523 1676.2996 -0.470 -0.745 0.472 151 116 88
-3892.1770 5456.8032 1651.5132 -0.231 -0.623 0.747 159 124 96
-3856.9326 5426.2075 1632.5746 -0.291 -0.644 0.707 166 131 103
-3807.5012 5376.9106 1607.9994 -0.291 -0.644 0.707 135 102 77
-3818.3511 5451.7939 1593.4623 0.923 -0.150 0.353 102 70 49
-3796.6885 5438.4810 1580.1132 0.779 -0.229 0.584 91 59 38
-3737.7593 5483.2920 1518.5905 0.897 -0.173 0.407 109 67 45
-3735.6160 5496.0444 1512.8923 0.895 -0.176 0.411 133 91 68
-3709.4463 5555.2954 1473.3279 0.537 -0.612 0.581 199 153 120
-3689.9202 5560.3047 1456.0037 0.823 -0.481 0.303 174 125 93
-3683.2073 5567.0581 1448.4823 0.823 -0.481 0.303 166 120 92
-3663.1748 5620.2964 1415.7440 0.507 -0.798 0.324 146 101 78
-3655.0344 5625.1919 1407.6483 0.504 -0.803 0.318 121 76 53
-3647.7366 5631.2959 1399.8567 0.502 -0.798 0.333 91 49 26
-3627.2971 5618.6055 1387.3015 0.258 -0.721 0.644 79 35 5
-3613.8811 5615.8970 1377.3115 0.437 -0.782 0.444 95 53 15
-3603.0212 5616.8301 1368.2527 0.437 -0.782 0.444 132 89 45
-3578.6252 5598.1914 1354.3535 0.743 -0.374 0.556 150 108 61
-3578.0967 5630.6519 1343.8275 0.740 -0.376 0.558 184 140 100
-3542.0554 5594.8325 1325.8710 0.606 -0.446 0.659 189 146 104
-3475.4668 5597.0239 1271.4235 0.817 -0.409 0.407 99 62 35
-3436.6550 5727.1396 1199.6042 0.892 -0.208 -0.402 120 84 59
-3437.7263 5746.3818 1194.4824 0.893 -0.206 -0.401 121 88 67
-3416.7146 5731.5293 1182.1379 0.562 -0.825 0.054 120 90 72
-3413.6934 5744.5044 1175.6617 0.436 -0.690 0.578 114 86 69
-3406.8071 5751.5156 1167.9204 0.443 -0.673 0.593 109 82 65
-3396.3835 5753.0166 1159.0369 0.696 -0.589 0.409 94 65 49
-3379.5356 5744.4258 1148.1061 0.650 -0.517 -0.557 92 63 45
-3354.8003 5795.1299 1112.3591 0.177 -0.468 0.866 40 28 17
-3249.1108 5882.0356 999.9843 0.400 -0.506 0.765 62 44 34
-3240.2590 5886.1841 991.5464 0.393 -0.504 0.769 61 43 33
-3210.1677 5854.6196 977.0701 0.429 -0.466 0.774 59 41 31
-3196.7229 5850.9023 967.3709 0.429 -0.466 0.774 55 37 27
-3152.2698 5813.4785 943.1211 0.613 -0.786 -0.083 72 54 44
-3130.2915 5910.0620 895.3265 0.839 -0.530 0.128 82 63 49
-3119.0654 5910.0200 886.2753 0.874 -0.464 0.147 69 50 36
-3090.6892 5879.9033 872.7333 0.229 -0.641 0.732 83 64 50
-3060.9758 5847.2007 858.9162 0.053 -0.645 0.762 80 61 47
-3051.6731 5850.2534 850.4551 0.364 -0.577 0.731 85 68 56
-2861.9600 5965.5264 661.4114 0.492 -0.565 0.662 69 56 45
-2845.1067 5954.1108 651.3552 0.536 -0.470 0.702 68 51 40
-2833.9673 5953.6079 642.5174 0.536 -0.470 0.702 89 71 59
-2823.4080 5954.1963 633.8082 0.529 -0.478 0.701 106 88 76
-2735.4067 5866.3721 590.0772 0.853 -0.261 -0.452 91 71 60
-2761.3066 5959.7178 581.9481 0.476 -0.830 0.291 90 70 59
-2755.8423 5970.2749 574.2514 0.302 -0.608 0.735 89 69 58
-2924.1187 6327.5083 598.9810 -0.555 -0.691 0.464 89 69 58
-2856.0657 6214.1377 579.3046 0.113 -0.676 0.728 90 70 59
-2840.8762 6206.1440 569.5271 0.113 -0.676 0.728 82 62 51
-2675.6099 6093.1816 471.2308 0.842 -0.531 0.096 69 47 36
-2641.2834 6066.4883 451.8194 0.729 -0.346 0.590 63 44 32
-2491.5466 5816.1890 408.7901 -0.434 -0.810 -0.395 62 44 32
-2440.7400 5794.7920 374.4241 -0.551 -0.823 -0.140 57 39 27
-2295.6279 5740.1069 274.2697 0.252 -0.757 -0.603 53 35 25
-2349.3792 6175.4150 182.2377 0.464 -0.573 0.676 39 21 12
-2343.7180 6187.1050 174.0297 0.625 -0.564 0.539 43 25 15
-2333.8391 6188.6621 165.5688 0.460 -0.582 0.671 51 33 23
-2072.9182 5626.5386 129.7804 0.356 -0.730 0.583 57 39 29
-1936.0071 5312.9565 116.7953 0.280 -0.863 -0.420 57 39 29
-1906.7031 5306.4922 95.1455 0.582 -0.492 0.647 67 36 31
-1819.2408 5109.6831 85.7567 -0.174 -0.838 -0.517 68 37 32
-1788.3629 5250.5083 17.0117 0.985 -0.145 0.093 169 125 127
-1628.9692 5539.2974 -201.5351 -0.226 -0.914 -0.336 253 249 240
-1787.8879 6292.4370 -307.5351 0.938 -0.138 -0.318 106 62 43
-1610.4369 6292.7622 -450.9156 -0.448 -0.457 -0.768 248 145 138
-1469.8566 6346.5884 -581.1708 0.032 -0.817 -0.576 255 124 124
-1576.0331 6956.7017 -685.2581 0.485 -0.807 -0.337 240 152 140
-1554.6498 6997.9722 -715.3636 0.062 -0.742 0.667 242 154 142
-1537.5389 6971.5015 -720.9439 -0.104 -0.702 0.704 242 154 142
-1526.1617 6968.0366 -729.0521 -0.157 -0.700 0.697 242 154 142
-1509.5565 6943.0054 -734.6722 0.134 -0.807 0.575 239 157 140
-1495.8152 6929.4370 -741.5458 0.148 -0.789 0.596 239 157 141
-1479.0015 6946.2852 -760.3636 0.581 -0.813 0.040 238 157 140
-1257.0533 6416.8228 -774.8456 -0.277 -0.607 -0.745 223 125 112
-4696.8784 5070.1470 2404.9641 -0.489 -0.803 0.341 226 217 202
-4625.7734 5011.3867 2366.0483 -0.419 -0.895 0.155 219 212 196
-4596.4243 4994.2524 2347.7532 -0.419 -0.896 0.147 213 207 192
-3861.7158 5158.8711 1703.6569 0.385 -0.863 -0.327 185 144 112
-3898.0691 5274.8145 1696.6190 -0.643 -0.766 0.020 186 141 108
-4030.3406 5515.1626 1727.9236 0.401 -0.847 -0.348 175 133 99
-4007.7900 5501.7212 1713.9531 0.388 -0.854 -0.347 170 130 99
-4025.3115 5539.2578 1716.3131 0.614 -0.674 -0.411 158 122 94
-4019.8264 5547.5801 1709.2805 0.503 -0.744 -0.439 150 116 88
-4007.0601 5546.5933 1699.2948 0.503 -0.746 -0.437 151 116 87
-3989.2881 5539.1431 1687.2993 0.349 -0.899 -0.263 144 109 79
-3929.7725 5477.7964 1658.5402 -0.397 -0.787 0.472 141 106 77
-3912.3369 5470.4922 1646.7700 -0.491 -0.752 0.440 140 105 77
-3866.1306 5425.8052 1623.5201 -0.535 -0.704 0.467 140 105 77
-3806.7534 5363.7007 1595.1102 -0.256 -0.629 0.734 131 97 72
-3734.7715 5466.4600 1504.8429 0.897 -0.173 0.407 112 70 48
-3695.6895 5555.1138 1445.5293 0.884 -0.261 0.389 123 76 43
-3690.1062 5563.4229 1438.4215 0.884 -0.261 0.389 112 65 37
-3686.3411 5574.3008 1431.9744 0.741 -0.531 0.410 111 66 39
-3659.7134 5601.8901 1401.8508 0.820 -0.441 0.364 113 68 44
-3651.7310 5623.3901 1388.6725 0.519 -0.788 0.333 99 56 31
-3627.8789 5605.8506 1374.9373 0.506 -0.303 0.807 106 63 31
-3565.2373 5581.7314 1331.9847 0.713 -0.235 0.660 163 120 75
-3480.6799 5590.8882 1260.9253 0.812 -0.408 0.417 98 61 34
-3442.6106 5721.7505 1189.1940 0.892 -0.208 -0.402 102 65 42
-3441.5452 5737.6509 1183.3491 0.892 -0.208 -0.402 96 62 41
-3418.0747 5719.0283 1170.2612 0.558 -0.829 0.050 95 64 45
-3413.0657 5728.8643 1163.1378 0.499 -0.856 0.135 105 75 58
-3403.7065 5731.9780 1154.6141 0.435 -0.640 0.633 113 84 67
-3283.4106 5756.1118 1050.0386 0.621 -0.471 0.627 58 42 29
-3282.1367 5827.3799 1026.6652 0.929 -0.217 0.300 85 69 55
-3281.7065 5845.2490 1020.7156 0.924 -0.321 -0.210 84 68 54
-3280.7144 5862.2847 1014.5739 0.443 -0.870 -0.218 74 58 44
-3272.9805 5868.2559 1006.4648 0.443 -0.870 -0.218 63 47 33
-3265.2405 5874.2319 998.3495 0.443 -0.870 -0.218 51 35 21
-3241.6074 5853.7515 985.7130 0.393 -0.501 0.771 42 26 15
-3227.7783 5849.4917 975.8966 0.393 -0.501 0.771 42 26 15
-3188.4534 5802.4263 958.9418 0.561 -0.474 0.679 47 32 20
-3157.8237 5788.3276 938.6621 0.493 -0.810 0.316 48 32 21
-3103.4880 5828.0464 882.3913 0.865 -0.479 -0.151 79 60 46
-3059.4348 5828.2456 846.8036 0.047 -0.645 0.763 56 38 25
-2967.2893 5820.1123 775.0463 0.995 -0.096 -0.018 47 32 23
-2864.2122 5952.1943 650.5090 0.428 -0.586 0.688 30 17 7
-2843.4863 5933.3628 639.7001 0.531 -0.476 0.701 43 24 13
-2832.3484 5932.8057 630.8929 0.531 -0.476 0.701 75 55 43
-2786.7441 5907.2378 602.1339 0.383 -0.592 0.709 100 75 64
-2734.5679 5847.0771 578.9213 0.863 -0.244 -0.442 100 74 64
-2742.0073 5946.0288 553.8945 0.160 -0.656 0.738 100 79 64
-2336.2800 5529.9312 357.1767 -0.525 -0.825 0.208 59 40 27
-2325.8525 5528.3452 349.2649 -0.541 -0.812 0.220 59 40 27
-2298.6401 5727.7241 264.8053 0.273 -0.773 -0.572 54 35 25
-2334.0896 5923.5796 231.9822 -0.320 -0.501 0.804 37 21 14
-1805.7052 5208.8760 29.9793 -0.041 -0.873 0.485 184 144 146
-1869.8165 5612.3833 -44.8395 0.691 -0.712 0.124 255 253 255
-1637.4537 5649.9707 -244.0061 0.857 0.069 -0.510 91 55 59
-1705.3737 5945.5996 -281.9284 0.827 0.090 -0.555 103 65 48
-1765.8237 6164.6582 -301.8662 0.881 0.067 -0.469 105 64 48
-1785.5134 6257.5127 -315.1025 0.868 0.066 -0.492 104 65 48
-1566.6311 6385.0449 -531.6001 -0.473 -0.331 -0.817 192 62 65
-1478.5986 6347.4702 -590.8094 0.063 -0.773 -0.631 252 135 133
-1460.9399 6391.3086 -618.7950 0.408 -0.453 -0.793 243 159 147
-1352.2030 6627.4702 -780.5304 -0.570 -0.762 0.308 248 156 145
-309.1303 4059.0991 -816.3704 0.137 -0.698 0.703 255 152 133
-3499.8489 3592.3140 1891.2615 -0.370 -0.741 0.561 226 217 206
-4263.2822 4594.0469 2189.6055 -0.244 -0.959 0.142 225 216 199
-4741.3130 5104.5840 2413.2930 -0.443 -0.824 0.353 220 211 194
-4645.9746 5021.8125 2362.6616 -0.511 -0.854 0.092 214 206 189
-4608.4932 5008.9116 2336.5503 -0.342 -0.899 -0.273 209 202 185
-4671.3608 5173.5908 2335.1492 -0.564 -0.749 0.348 118 101 85
-4627.6177 5312.0679 2256.1624 0.853 -0.360 0.378 161 131 107
-4010.5857 5462.8135 1711.5721 0.177 -0.984 0.001 175 133 98
-4025.5547 5496.7637 1712.9006 0.397 -0.850 -0.347 176 134 99
-4017.1345 5501.2314 1704.7073 0.388 -0.854 -0.347 177 137 105
-4014.8540 5513.5107 1698.9905 0.382 -0.883 -0.274 161 125 94
-4004.7607 5515.8760 1690.1140 0.384 -0.862 -0.329 150 115 85
-3997.6121 5521.9995 1682.4216 0.384 -0.862 -0.329 158 122 91
-3990.4570 5528.1284 1674.7224 0.384 -0.862 -0.329 136 99 67
-3946.9905 5487.5566 1652.5343 -0.404 -0.843 0.356 131 94 63
-3728.7795 5430.2153 1494.9055 0.886 -0.156 0.436 90 55 31
-3720.3948 5434.3428 1486.8483 0.884 -0.157 0.439 113 78 54
-3497.3730 5601.7427 1254.3317 0.755 -0.445 0.482 119 84 60
-3440.4661 5703.9834 1176.1930 0.898 -0.209 -0.386 77 42 20
-3407.6882 5723.5146 1143.6222 0.426 -0.646 0.633 136 97 77
-3486.0659 5863.0513 1162.6571 0.650 -0.577 0.494 144 105 86
-3385.5410 5724.3408 1125.5237 0.741 -0.516 -0.429 162 122 103
-3365.8560 5728.9473 1108.2139 0.745 -0.516 -0.422 123 86 65
-3360.1602 5737.7690 1100.8389 0.573 -0.482 0.663 136 102 82
-3357.9495 5752.1333 1094.5198 0.321 -0.491 0.810 147 114 95
-3292.3372 5719.3779 1052.0254 0.305 -0.496 0.813 78 45 26
-3284.4761 5724.7173 1044.0071 0.617 -0.474 0.629 105 73 54
-3284.7000 5834.6460 1009.4521 0.922 -0.325 -0.210 113 97 77
-3284.7664 5853.3569 1003.5935 0.395 -0.918 -0.012 116 101 81
-3254.4080 5821.9722 989.0598 0.548 -0.492 0.677 113 98 78
-3225.7100 5811.6738 969.2004 0.523 -0.500 0.690 61 51 33
-3207.3743 5799.7910 958.1875 0.538 -0.467 0.702 54 44 26
-3187.8652 5785.8413 946.8828 0.561 -0.474 0.679 51 43 25
-3176.8735 5786.0615 937.9603 0.561 -0.474 0.679 50 42 24
-3167.7585 5789.4180 929.5587 0.742 -0.456 0.491 46 38 20
-3161.6365 5797.8271 921.9708 0.756 -0.463 0.462 60 52 35
-3151.1399 5798.8540 913.1924 0.742 -0.456 0.491 67 59 42
-3118.4319 5799.7383 886.5701 0.865 -0.479 -0.151 69 51 39
-3108.9438 5821.4448 872.0695 0.865 -0.479 -0.151 60 40 30
-3117.7161 5855.7539 868.2936 0.790 -0.613 0.032 58 38 29
-3069.0059 5828.8130 837.5751 0.047 -0.645 0.763 42 25 17
-3063.3401 5838.1978 830.0467 0.381 -0.511 0.770 34 23 14
-3047.4119 5829.5586 819.9478 0.395 -0.540 0.743 31 22 13
-2976.7334 5801.1108 772.0121 0.998 -0.063 0.014 27 19 10
-2965.7573 5800.9019 763.2380 0.995 -0.095 -0.020 27 19 11
-2857.9414 5922.7104 637.9142 0.436 -0.588 0.681 24 14 6
-2838.7466 5906.7720 627.4909 0.534 -0.474 0.700 45 26 11
-2827.6953 5906.3032 618.7382 0.534 -0.474 0.700 101 80 62
-2805.6411 5905.3677 601.2714 0.534 -0.474 0.700 114 81 65
-2788.5981 5893.1909 591.3926 0.383 -0.592 0.709 123 86 71
-2738.1262 5920.2832 542.1819 -0.196 -0.924 0.329 114 81 58
-2724.3298 5914.1060 533.0221 -0.196 -0.924 0.329 112 82 58
-2715.5596 5917.8936 524.7617 -0.187 -0.921 0.341 108 78 54
-2670.3918 5912.5981 490.0569 0.543 -0.538 0.645 103 76 51
-2635.5461 5927.9390 457.1448 0.615 -0.473 0.630 97 69 45
-2343.6162 5720.5942 287.5406 0.742 -0.413 -0.528 68 50 30
-2340.4434 5735.6621 280.2240 0.742 -0.413 -0.528 67 45 30
-2407.0432 5999.9434 250.3565 -0.329 -0.500 0.801 62 39 24
-2266.8550 5935.9019 157.6845 0.811 -0.584 0.037 48 27 18
-1842.7329 5027.0137 103.2851 -0.441 -0.722 -0.533 56 33 25
-1896.2404 5221.1162 85.0479 0.983 -0.167 0.074 76 48 44
-1894.9467 5239.5566 78.1792 0.984 -0.161 0.077 68 39 36
-1819.5343 5203.1323 28.9513 -0.079 -0.880 0.468 173 153 152
-1833.7980 5470.2881 -43.9760 0.520 -0.695 0.497 255 253 254
-1652.2080 5562.8530 -219.4773 -0.118 -0.908 -0.402 254 253 252
-1622.8330 5554.3662 -240.4543 0.067 -0.776 -0.627 80 54 63
-1491.4342 6363.8511 -602.0626 0.072 -0.776 -0.627 255 154 155
-1460.9110 6358.1519 -624.8451 0.402 -0.462 -0.790 246 170 163
-1482.9933 6558.8281 -670.4694 -0.278 -0.917 0.287 245 171 163
-1274.5322 6336.4761 -768.1056 0.591 -0.486 -0.644 237 154 147
-1176.3225 6492.5815 -896.5297 -0.339 -0.651 0.680 227 135 119
-1148.5381 6449.4590 -905.2815 -0.094 -0.994 0.058 228 136 120
-106.0910 3630.5488 -854.1551 0.379 -0.739 -0.557 255 73 98
-3476.8142 3564.5564 1869.8037 -0.370 -0.741 0.561 219 209 199
-3296.4102 3406.4956 1775.0167 -0.295 -0.707 0.643 223 215 202
-4364.0249 4661.9565 2234.0447 -0.287 -0.954 0.091 221 212 195
-4273.9644 4595.7397 2182.6851 -0.244 -0.959 0.142 219 210 193
-4292.3525 4625.1484 2188.1128 -0.067 -0.998 0.019 213 204 187
-4756.4736 5109.7339 2407.1501 -0.440 -0.826 0.353 214 205 188
-4671.5488 5037.5503 2361.8218 -0.505 -0.858 0.092 211 202 185
-4635.9824 5014.3574 2340.5972 -0.505 -0.858 0.092 209 200 183
-4477.3945 4891.6177 2252.1121 0.607 -0.756 0.247 209 200 185
-4726.2847 5219.6104 2347.8813 -0.565 -0.746 0.352 190 173 157
-4131.4136 4834.5781 1991.9714 0.705 -0.649 -0.286 174 143 115
-1812.6061 2489.3489 873.4899 -0.347 -0.934 -0.081 181 146 118
-3568.8735 4566.7173 1624.7606 0.936 -0.336 0.103 185 148 119
-3573.2229 4583.7969 1622.8209 0.933 -0.341 0.115 184 147 118
-3724.7983 4824.6538 1668.0559 0.646 -0.712 0.277 188 147 117
-4014.0828 5470.0088 1695.2673 0.292 -0.905 0.309 175 134 98
-3999.0588 5466.0488 1684.4429 0.239 -0.962 0.135 166 126 93
-3954.3928 5469.5088 1647.4126 0.226 -0.967 0.116 123 84 53
-3939.2114 5465.1797 1636.5795 0.229 -0.962 0.145 118 82 50
-3849.5017 5394.7266 1586.8507 -0.378 -0.794 0.477 133 98 66
-3826.9958 5380.5298 1573.2677 -0.353 -0.786 0.508 133 98 68
-3775.1067 5403.0098 1524.3710 0.426 -0.904 -0.031 110 76 48
-3724.3721 5396.4224 1485.6582 0.897 -0.207 0.390 132 98 73
-3721.0198 5407.2124 1479.5260 0.901 -0.156 0.404 104 70 45
-3589.2939 5540.2280 1331.2146 0.528 -0.287 0.799 198 157 115
-3549.6753 5516.0254 1307.0520 0.626 -0.257 0.737 179 138 93
-3435.5637 5664.8262 1167.8831 0.889 -0.219 -0.403 105 70 48
-3415.9180 5721.6543 1133.9860 0.327 -0.706 0.628 165 124 104
-3389.2800 5733.1636 1108.8940 0.609 -0.559 0.563 140 99 79
-3379.4539 5735.5186 1100.2401 0.602 -0.559 0.570 130 92 71
-3348.6472 5740.4287 1073.8962 0.300 -0.442 0.846 141 104 85
-3328.4895 5726.3486 1062.1649 0.097 -0.533 0.840 111 74 55
-3341.4216 5764.8242 1060.3165 0.238 -0.505 0.830 95 58 39
-3324.0427 5755.1201 1049.4270 0.238 -0.505 0.830 111 74 55
-3299.8630 5734.4316 1036.5647 0.615 -0.470 0.634 100 64 45
-3277.2798 5734.1431 1018.4908 0.984 -0.128 -0.124 129 105 85
-3284.1887 5763.4121 1014.7288 0.929 -0.208 0.307 129 107 86
-3279.4597 5773.9556 1007.5677 0.929 -0.208 0.307 129 108 89
-3276.1401 5805.2109 994.9455 0.920 -0.217 0.327 116 98 78
-3282.5437 5834.1797 990.8727 0.945 -0.268 0.189 111 94 74
-3231.5120 5787.2427 964.7686 0.402 -0.382 0.832 72 53 34
-3205.5471 5781.2300 945.7972 0.527 -0.474 0.705 65 54 38
-3187.2800 5769.3442 934.8879 0.561 -0.474 0.679 54 44 27
-3177.8088 5772.0688 926.4018 0.741 -0.458 0.490 48 38 21
-3137.5325 5797.6382 885.8627 0.878 -0.470 0.088 75 60 47
-3131.1985 5805.7192 878.1945 0.886 -0.456 0.087 73 57 44
-3107.7847 5784.5693 866.0950 0.896 -0.408 0.174 58 40 30
-3102.1367 5793.7900 858.6161 0.896 -0.408 0.174 81 63 53
-3103.2649 5814.7368 852.8539 0.282 -0.581 0.763 67 49 39
-3035.6526 5773.5815 811.5715 0.101 -0.564 0.820 47 37 28
-3021.6204 5768.0884 802.0334 0.124 -0.553 0.824 49 40 31
-2992.4980 5812.9414 764.3262 0.978 -0.046 0.204 26 19 11
-2795.6304 5889.2285 581.6783 0.148 -0.831 0.536 126 84 70
-2641.1401 5650.1279 533.5395 0.986 -0.120 -0.115 134 81 69
-2739.4485 5904.9722 531.4734 -0.215 -0.957 0.195 121 84 61
-2714.0547 5896.8833 513.6226 -0.271 -0.950 0.157 118 82 58
-2671.4668 5875.2544 486.2521 0.634 -0.409 0.656 115 81 57
-2672.2590 5898.1753 479.5913 0.543 -0.538 0.645 111 79 54
-2638.1333 5914.7974 446.8485 0.609 -0.484 0.628 105 73 48
-2597.2805 6051.4844 370.4650 -0.627 -0.774 0.089 90 62 40
-2568.7927 6013.3179 359.7022 -0.531 -0.846 -0.046 89 62 40
-2419.6909 5802.8921 306.7677 0.107 -0.393 0.913 73 54 35
-2326.2246 5685.1929 269.0607 0.784 -0.606 0.135 72 50 34
-2301.5249 5696.1265 245.7113 0.784 -0.619 0.045 73 50 34
-2347.4463 5821.9810 242.5770 0.063 -0.586 -0.807 67 44 28
-1903.7638 5136.3550 103.9924 -0.330 -0.642 -0.693 60 37 29
-1881.0381 5144.1343 83.2351 0.991 -0.114 -0.069 61 38 30
-1878.0028 5157.8628 76.4223 0.991 -0.118 -0.061 82 54 51
-1817.3363 5200.5542 14.0298 -0.041 -0.873 0.485 203 190 190
-1627.7765 5546.0317 -248.4518 -0.106 -0.833 -0.543 134 109 120
-1794.1531 6230.3740 -332.5196 0.831 0.066 -0.553 160 110 109
-1510.6233 6404.0137 -615.8750 -0.041 -0.807 -0.589 255 162 162
-1507.7087 6430.0200 -626.5001 -0.130 -0.768 -0.627 254 162 163
-1231.2502 6034.8188 -723.0452 0.598 -0.660 -0.454 243 164 157
-1242.9689 6368.0605 -819.7250 -0.429 -0.901 -0.066 240 148 141
-3254.9856 3369.9619 1742.3544 -0.219 -0.763 0.608 221 215 201
-4454.4531 4695.9253 2280.5608 -0.316 -0.942 0.117 227 218 201
-4442.4102 4695.5811 2270.9961 0.166 -0.967 0.195 228 219 202
-4438.8960 4703.5386 2265.6196 0.396 -0.904 0.162 223 214 197
-4324.4795 4614.2173 2202.3579 -0.214 -0.975 0.059 216 207 190
-4336.7925 4637.5347 2204.7688 -0.255 -0.966 0.049 216 207 190
-4306.9341 4630.6367 2182.9946 -0.065 -0.998 0.005 206 197 180
-4709.6157 5065.6577 2366.9290 -0.509 -0.845 0.165 208 199 182
-4903.4604 5376.9995 2422.7698 -0.663 -0.746 0.069 229 213 197
-4748.6040 5232.1055 2344.8491 -0.663 -0.746 0.069 213 194 177
-3699.5562 4771.7847 1649.7588 0.613 -0.785 0.090 187 148 117
-3720.5095 4809.2485 1654.5724 0.588 -0.730 0.349 188 147 117
-3739.8696 4845.0093 1658.6526 0.347 -0.912 0.221 188 147 117
-3945.3833 5342.0649 1664.2848 0.123 -0.811 -0.572 176 134 96
-4001.5068 5441.9810 1677.3164 0.178 -0.984 0.007 174 133 97
-4005.9414 5462.5215 1674.2889 0.196 -0.980 0.019 145 106 71
-3963.6719 5424.0464 1652.6749 0.036 -0.981 0.191 111 75 43
-3950.7559 5422.5869 1642.7668 0.036 -0.981 0.191 87 52 20
-3929.8167 5425.8247 1624.9060 0.163 -0.979 0.122 104 65 32
-3938.6384 5452.1265 1623.5547 0.275 -0.950 0.151 106 70 38
-3910.5522 5431.1650 1607.7162 -0.293 -0.815 0.501 105 68 39
-3776.6536 5392.6567 1512.5002 0.438 -0.836 -0.330 94 60 32
-3770.0220 5399.0464 1505.1226 0.438 -0.836 -0.330 149 115 88
-3741.2949 5391.3062 1484.5275 0.438 -0.871 -0.223 100 65 43
-3728.4363 5389.3765 1474.8162 0.666 -0.666 0.336 74 40 17
-3724.7883 5492.5742 1438.7762 0.889 -0.219 0.402 168 124 89
-3726.1724 5510.1865 1434.2374 0.906 -0.224 0.359 157 114 80
-3685.5408 5470.3057 1414.3903 0.751 -0.156 0.642 117 71 38
-3492.3508 5583.4043 1222.9009 -0.011 -0.909 0.416 76 40 14
-3486.0562 5590.7959 1215.4724 -0.093 -0.927 0.364 82 48 23
-3468.0251 5717.1860 1160.4366 0.865 -0.260 -0.428 160 125 103
-3443.4475 5731.9756 1135.9467 0.878 -0.456 0.145 179 138 118
-3418.0637 5710.4131 1122.4720 0.327 -0.706 0.628 181 140 120
-3387.0703 5732.7026 1090.4215 0.553 -0.498 0.668 139 99 79
-3374.1199 5730.1533 1080.8353 0.550 -0.499 0.670 162 124 105
-3360.4624 5726.4521 1071.0509 0.311 -0.443 0.841 163 125 106
-3343.7397 5717.8677 1060.3705 0.300 -0.442 0.846 153 115 96
-3308.2625 5697.2319 1038.4895 0.293 -0.490 0.821 94 56 37
-3283.0239 5692.5889 1019.7034 0.678 -0.472 0.564 100 63 44
-3271.5107 5691.9810 1010.6490 0.960 -0.220 -0.173 99 64 44
-3269.3486 5706.3857 1004.2906 0.960 -0.220 -0.173 119 91 72
-3275.0564 5733.5605 1000.1575 0.937 -0.234 -0.259 130 103 84
-3273.0945 5748.4727 993.7969 0.937 -0.234 -0.259 128 102 85
-3273.5042 5767.3115 988.0818 0.939 -0.237 -0.251 127 102 85
-3274.1738 5786.6743 982.4075 0.912 -0.327 -0.247 95 71 53
-3259.8594 5781.6392 972.5232 0.557 -0.524 0.645 96 73 55
-3219.5833 5752.2202 949.6052 0.500 -0.477 0.723 109 85 68
-3195.7378 5731.2021 937.1915 0.364 -0.407 0.837 98 80 65
-3171.5415 5764.6221 907.0308 0.738 -0.458 0.496 46 32 16
-3168.6672 5778.3882 900.3051 0.756 -0.460 0.466 48 32 17
-3162.1147 5786.0229 892.5913 0.285 -0.426 0.859 55 40 25
-3144.7732 5775.4409 882.0547 0.101 -0.473 0.875 76 60 48
-3052.1394 5710.8638 828.3536 0.695 -0.331 0.638 58 40 30
-3007.7612 5804.3911 762.6948 0.977 -0.064 0.205 26 19 11
-2799.3525 5878.9023 571.3593 0.197 -0.814 0.546 128 84 71
-2479.6707 5914.6450 303.0681 -0.521 -0.849 0.091 83 59 42
-2312.0750 5700.8726 237.0115 0.792 -0.610 0.041 80 57 41
-2358.6211 5827.7319 233.7048 0.059 -0.591 -0.804 74 51 35
-2156.0122 5587.8652 147.8914 0.771 -0.611 -0.180 33 16 8
-2174.4421 5653.6631 141.5876 0.760 -0.608 -0.228 33 16 8
-2237.0505 5871.6816 121.9377 0.704 -0.448 0.552 59 39 30
-1917.8060 5152.2334 96.2883 -0.325 -0.624 -0.711 70 47 39
-1834.7103 5203.8413 12.9739 -0.063 -0.877 0.476 242 227 225
-1824.1345 5198.9238 6.0553 -0.060 -0.882 0.468 244 232 232
-1781.9625 5201.1011 -28.5231 0.724 -0.577 0.379 254 250 249
-1671.2396 5573.4502 -236.9369 -0.113 -0.907 -0.406 254 253 253
-1799.0765 6218.8403 -341.2989 0.831 0.066 -0.553 175 125 126
-1538.1326 6512.2930 -645.0836 0.532 -0.708 -0.464 254 170 168
-1516.5468 6582.2324 -684.8640 0.096 -0.995 -0.007 242 172 164
-1472.1305 6525.2510 -702.2651 -0.155 -0.889 0.432 242 172 164
-1286.2590 6355.8652 -797.2446 0.997 -0.023 -0.070 226 147 140
-1287.2250 6401.3306 -811.0555 0.994 -0.039 0.107 233 154 147
-1187.2637 6464.2998 -911.5644 -0.339 -0.657 0.674 237 147 136
-1040.5774 6104.4512 -913.9567 -0.386 -0.777 0.497 230 130 115
-4486.2559 4706.3823 2287.2976 -0.470 -0.879 0.077 224 215 198
-4464.9009 4697.0752 2273.1716 -0.377 -0.915 0.146 224 215 198
-4449.3931 4693.3813 2261.9229 0.163 -0.968 0.193 224 215 198
-4442.9590 4698.4854 2255.1104 0.391 -0.907 0.158 219 210 193
-4348.5918 4640.2007 2198.2351 -0.275 -0.958 0.080 209 200 183
-4305.6270 4609.2163 2173.7778 0.001 -0.982 0.190 207 198 181
-4292.2905 4607.2744 2163.7051 0.001 -0.982 0.190 204 195 178
-4293.7251 4619.9102 2160.7715 -0.195 -0.942 -0.274 204 195 178
-4801.8169 5276.0522 2356.3396 -0.606 -0.768 0.208 215 198 182
-4353.7861 4903.5010 2117.2888 -0.105 -0.949 -0.298 167 142 120
-4348.5044 4910.2437 2110.8713 -0.104 -0.945 -0.310 165 139 116
-4336.1182 4909.5835 2101.1465 -0.136 -0.954 -0.267 174 148 125
-3902.9194 4570.0103 1863.3352 0.684 -0.637 0.355 183 152 124
-3979.5466 4998.9868 1786.1473 -0.034 -0.441 0.897 190 153 124
-3523.9133 4495.1587 1583.4326 0.903 -0.339 0.264 189 152 123
-3704.1782 4767.0698 1640.1720 0.613 -0.785 0.090 183 144 113
-3673.0959 4755.4272 1618.9963 0.334 -0.616 0.713 188 147 117
-3473.3435 4590.7686 1511.9504 0.104 -0.819 0.564 193 148 117
-3461.5979 4588.7871 1503.1669 0.113 -0.820 0.561 193 147 117
-3863.1169 5227.5312 1618.8496 0.286 -0.876 -0.388 179 136 101
-3990.5884 5401.3726 1664.9316 0.224 -0.974 -0.014 176 133 98
-4006.9951 5451.6626 1661.8392 0.211 -0.977 0.030 145 105 71
-3971.5540 5421.8828 1643.0292 0.036 -0.981 0.191 118 82 50
-3957.7798 5419.3472 1632.7969 -0.334 -0.932 0.142 97 62 30
-3940.5894 5412.4375 1621.2377 -0.348 -0.928 0.133 92 56 24
-3929.2595 5412.9307 1611.9877 -0.367 -0.922 0.119 102 63 30
-3778.6982 5398.1074 1495.9753 0.438 -0.836 -0.330 142 108 81
-3772.0632 5404.5044 1488.5836 0.438 -0.836 -0.330 119 85 60
-3760.5183 5404.4028 1479.3533 0.431 -0.865 -0.258 70 35 13
-3734.3904 5384.8716 1464.7029 0.678 -0.655 0.334 61 27 5
-3724.3115 5386.6250 1456.0493 0.593 -0.658 0.464 89 55 30
-3704.2820 5467.4399 1413.8541 0.888 -0.232 0.397 140 97 63
-3668.7451 5434.5078 1395.9865 0.847 -0.227 0.481 111 65 32
-3564.7212 5462.8315 1303.3658 0.888 -0.297 0.350 172 129 97
-3559.3716 5471.1899 1296.3717 0.649 -0.274 0.710 193 149 118
-3532.6968 5449.2534 1282.0601 0.902 -0.211 0.377 201 158 126
-3527.7566 5458.1606 1275.2169 0.902 -0.211 0.377 183 140 108
-3504.2629 5488.7275 1246.4855 0.927 -0.208 0.311 181 139 107
-3491.9731 5536.0776 1221.3184 0.972 -0.111 0.210 119 87 64
-3489.5381 5565.5186 1209.8474 0.731 -0.451 0.513 107 71 45
-3481.2004 5569.8350 1201.7623 0.731 -0.451 0.513 92 58 33
-3497.9788 5611.3389 1201.8082 -0.059 -0.832 0.551 87 52 30
-3449.1548 5622.8618 1158.9088 0.894 -0.235 0.381 168 133 111
-3477.5183 5699.8960 1156.7646 0.857 -0.268 -0.440 196 161 139
-3476.5881 5715.8008 1150.8770 0.864 -0.264 -0.429 183 148 126
-3410.3171 5684.0098 1107.9805 -0.110 -0.846 0.521 182 141 121
-3364.1643 5699.8960 1065.8140 0.648 -0.512 0.564 168 130 111
-3347.1116 5690.7988 1055.0723 0.551 -0.456 0.699 169 131 112
-3282.6458 5712.8203 996.2287 0.933 -0.236 -0.271 83 49 32
-3282.8123 5731.0405 990.4725 0.939 -0.235 -0.251 87 54 37
-3284.5527 5751.8979 985.1268 0.946 -0.236 -0.222 83 51 36
-3282.4124 5766.5811 978.6627 0.946 -0.236 -0.222 81 50 34
-3281.3110 5783.0264 972.4631 0.832 -0.448 0.328 98 67 51
-3074.6208 5715.1616 828.5610 0.244 -0.425 0.872 68 50 40
-2964.6699 5693.0000 747.5049 0.241 -0.512 0.824 29 22 14
-2941.0176 5670.0933 735.9321 0.271 -0.509 0.817 26 19 11
-2822.1096 6118.7168 495.5034 0.200 -0.980 -0.016 137 88 68
-2601.6218 5699.6528 454.0591 0.701 -0.675 -0.228 136 88 68
-2439.0269 5656.3770 337.5888 0.471 -0.527 0.708 110 69 49
-2805.6050 6679.1948 301.0811 0.167 -0.779 -0.604 92 63 45
-2799.6633 6691.9131 292.2024 0.146 -0.779 -0.610 85 61 45
-2306.5288 5669.6494 226.9873 0.417 -0.743 -0.523 84 61 45
-2366.7554 5826.6172 224.5693 0.066 -0.592 -0.804 79 56 40
-1901.9279 5096.3237 87.6846 -0.616 -0.773 0.150 80 57 49
-1850.7870 5203.7407 11.9277 -0.528 -0.793 0.306 238 212 211
-1799.7625 5161.6909 -15.4193 0.941 -0.243 0.235 253 247 247
-1796.1898 5174.4580 -22.4131 0.941 -0.242 0.236 254 250 249
-1814.4509 5243.6372 -30.1238 0.657 -0.599 0.458 254 250 249
-1667.4430 5565.6079 -252.1571 0.046 -0.966 -0.253 254 249 251
-1656.5356 5559.5767 -258.9591 -0.056 -0.852 -0.520 247 237 243
-1803.9838 6207.3442 -350.0494 0.831 0.066 -0.553 117 67 68
-1696.8386 6545.2075 -545.2358 -0.511 -0.443 -0.737 245 169 163
-1548.3367 6443.7383 -631.5869 -0.323 -0.392 -0.861 255 177 173
-1553.5609 6537.3599 -657.6592 0.469 -0.677 -0.568 255 177 173
-1540.1490 6600.4565 -688.8169 -0.474 -0.850 0.228 244 174 166
-1197.9391 5754.2593 -689.8513 0.540 -0.287 -0.791 244 170 161
-1273.5500 6224.9849 -781.3505 0.958 -0.048 -0.281 239 160 153
-1287.3467 6324.4570 -802.4362 0.997 -0.023 -0.070 231 152 145
-1183.7274 6407.8560 -912.5354 -0.373 -0.788 0.489 240 151 137
-1159.1293 6563.4175 -982.5587 0.828 -0.560 0.019 230 135 120
-1152.2511 6576.7036 -992.3723 -0.091 -0.996 -0.004 231 132 116
-4047.5447 4243.8232 2070.9351 0.164 -0.585 0.794 226 217 200
-4479.5005 4702.2280 2267.7866 -0.377 -0.915 0.146 218 209 192
-4450.5566 4685.5439 2250.0261 0.100 -0.948 0.302 219 210 193
-4434.7666 4681.5381 2238.6777 0.400 -0.908 0.122 214 205 188
-4439.0244 4697.0239 2237.0461 0.391 -0.907 0.158 207 198 181
-5090.2993 5344.4736 2548.0796 0.640 -0.735 0.223 207 198 181
-4596.1953 4994.3618 2266.1562 0.854 -0.508 -0.110 205 196 181
-4807.2339 5219.2559 2362.0269 0.961 -0.115 -0.251 204 196 183
-4796.7222 5221.5439 2352.8584 0.954 -0.145 -0.264 205 196 181
-4777.8179 5215.3257 2339.7346 0.856 -0.279 -0.434 210 198 184
-4775.4062 5225.7993 2334.3911 0.848 -0.284 -0.448 220 204 189
-4774.0811 5237.4136 2329.5466 0.848 -0.284 -0.448 203 187 171
-4363.8232 4904.1772 2109.3176 -0.138 -0.962 -0.234 150 126 103
-4352.6582 4904.8032 2100.1665 -0.138 -0.962 -0.234 177 151 128
-4337.0308 4900.7642 2088.9587 -0.194 -0.981 -0.023 167 141 118
-4322.8677 4898.2148 2078.4392 -0.194 -0.981 -0.023 174 148 125
-4307.2427 4894.1030 2067.2578 -0.189 -0.982 -0.020 174 150 126
-4306.8218 4905.9214 2063.0715 -0.117 -0.993 -0.016 175 149 126
-3872.2952 4851.9473 1732.4434 -0.002 -0.443 0.896 193 158 130
-3643.4978 4673.2075 1607.3098 0.538 -0.529 -0.656 157 118 89
-3996.4050 5411.4067 1649.6914 0.466 -0.872 -0.148 171 129 94
-3997.2083 5442.1099 1640.3357 -0.393 -0.914 0.098 136 100 68
-3975.7800 5429.9824 1627.1138 -0.382 -0.903 0.194 126 91 59
-3933.5405 5391.3950 1605.8325 -0.208 -0.750 0.627 122 86 54
-3959.6882 5439.4624 1611.1310 -0.234 -0.825 0.514 115 76 43
-3929.1677 5415.5708 1594.4547 -0.308 -0.812 0.495 99 63 31
-3873.9695 5374.7954 1563.5018 -0.370 -0.800 0.472 107 72 40
-3787.5359 5397.3765 1486.8842 0.431 -0.858 -0.278 131 97 70
-3780.5593 5403.3188 1479.3580 0.431 -0.858 -0.278 86 52 27
-3744.2244 5385.5308 1456.0344 0.583 -0.648 0.490 81 47 22
-3674.4453 5414.0908 1390.8157 0.898 -0.225 0.378 151 108 74
-3646.7859 5407.2568 1370.8767 0.896 -0.228 0.381 152 107 74
-3569.8357 5456.9727 1293.0211 0.864 -0.216 0.455 168 124 95
-3559.2256 5457.8682 1284.2273 0.886 -0.280 0.369 171 127 101
-3550.1770 5460.9614 1275.9688 0.917 -0.396 -0.042 196 152 127
-3545.9585 5470.9233 1269.3438 0.918 -0.395 -0.042 183 139 116
-3541.8760 5481.1182 1262.7520 0.918 -0.395 -0.042 148 104 80
-3533.9182 5485.8062 1254.8483 0.898 -0.389 0.204 120 76 51
-3517.1565 5477.8589 1244.0045 0.890 -0.372 0.263 163 119 94
-3519.8313 5497.8354 1239.6420 0.121 -0.630 0.768 189 146 121
-3491.0093 5521.1274 1208.9598 0.972 -0.111 0.210 122 90 65
-3502.2068 5553.9053 1207.2576 0.903 -0.241 0.357 138 104 79
-3494.3054 5710.9536 1149.7778 0.783 -0.340 0.521 186 151 129
-3568.7483 5876.6294 1155.4744 0.790 -0.600 0.122 199 161 140
-3561.8750 5884.0669 1147.5442 0.790 -0.600 0.122 189 148 128
-3355.3210 5671.5244 1051.2445 0.684 -0.570 0.455 182 145 126
-3346.5969 5675.3984 1042.9918 0.684 -0.570 0.455 179 142 123
-3315.2883 5678.9185 1016.7563 -0.360 -0.907 0.218 175 138 119
-3302.8901 5676.9512 1007.4618 -0.366 -0.902 0.228 164 127 108
-3304.9280 5697.8887 1002.2757 0.556 -0.815 -0.161 151 114 95
-3283.4473 5699.2222 984.6278 0.885 -0.201 -0.420 127 89 74
-3289.1904 5726.3140 980.4069 0.885 -0.215 -0.413 118 79 64
-3282.2903 5733.2012 972.6343 0.882 -0.214 -0.420 104 64 52
-3284.1047 5754.1885 967.2532 0.934 -0.229 -0.274 92 52 39
-3284.3049 5772.6729 961.3936 0.905 -0.332 -0.265 91 51 39
-3211.3103 5708.2397 923.8843 0.462 -0.809 -0.363 124 87 75
-3193.4482 5733.4468 901.3611 0.683 -0.512 0.521 112 83 72
-3165.7971 5724.2046 882.2129 0.727 -0.195 0.659 99 70 60
-3154.7888 5724.2051 873.3913 0.839 -0.198 0.507 91 63 52
-3148.7344 5732.4824 865.8438 0.727 -0.195 0.659 76 48 37
-3136.7380 5730.7998 856.7786 0.285 -0.426 0.859 63 36 25
-3121.3452 5723.3506 846.8698 0.277 -0.424 0.863 65 45 35
-3103.7322 5712.0674 836.4304 0.246 -0.422 0.872 67 49 39
-3087.6362 5703.2598 826.4005 0.244 -0.425 0.872 69 51 41
-3070.1831 5692.0537 816.0640 0.248 -0.429 0.869 70 52 42
-3050.1199 5676.2827 805.1228 0.326 -0.576 0.750 47 29 19
-3024.6843 5651.1597 792.9222 0.205 -0.593 0.779 38 20 10
-3014.0178 5651.2710 784.3384 0.324 -0.565 0.758 38 20 10
-2882.5256 5551.1240 711.5837 0.379 -0.489 0.786 26 19 11
-2869.6526 5546.7827 702.6819 0.379 -0.489 0.786 26 19 11
-2859.6274 5816.5337 606.7947 0.336 -0.351 0.874 24 17 9
-2666.1167 5831.8809 446.7271 0.361 -0.610 -0.705 137 86 67
-2628.2776 5776.9019 434.3106 0.668 -0.417 0.616 137 86 67
-2385.4434 5849.0669 216.2131 0.363 -0.931 -0.029 92 69 53
-2230.2734 5791.6724 110.5607 0.891 -0.438 0.121 63 43 34
-1910.2026 5119.0615 73.1313 -0.565 -0.792 0.231 72 49 41
-1893.0789 5203.8467 31.7961 0.801 -0.452 0.391 255 231 227
-1889.9634 5217.6685 24.7980 0.772 -0.488 0.408 252 224 221
-1882.7678 5221.4629 17.7961 -0.205 -0.840 0.502 253 223 223
-1800.0814 6168.7905 -356.9937 0.847 0.065 -0.528 206 156 157
-1723.0428 6365.2144 -482.7004 0.653 -0.441 -0.615 222 154 151
-1691.6777 6393.7666 -517.1337 -0.437 -0.588 -0.680 248 180 177
-1707.9141 6732.7407 -614.5214 -0.282 -0.507 -0.815 255 178 174
-1675.5885 6804.3154 -663.7360 0.088 -0.954 0.288 255 182 177
-1261.9584 6063.7124 -753.9948 0.708 -0.607 -0.361 252 173 166
-1153.3346 6401.8066 -951.1520 -0.594 -0.713 0.374 234 145 129
-4025.0945 4214.3901 2048.7466 0.018 -0.732 0.682 220 211 194
-4500.4810 4713.5088 2265.4507 -0.467 -0.880 0.091 212 203 186
-4458.1802 4683.9795 2241.2844 -0.329 -0.936 0.128 212 203 186
-4756.5146 5107.5898 2341.0623 -0.424 -0.905 0.036 204 195 178
-4724.9053 5088.6060 2321.9929 -0.397 -0.916 0.050 204 195 178
-4715.2642 5091.4746 2313.3354 -0.413 -0.907 0.078 205 196 179
-4605.1040 4993.5522 2257.2998 0.846 -0.521 -0.114 206 196 180
-4733.4922 5134.9067 2313.6736 0.765 -0.456 -0.454 204 196 182
-4783.5317 5198.0117 2333.0168 0.948 -0.142 -0.284 206 196 181
-4779.6973 5206.9858 2327.0034 0.951 -0.143 -0.274 208 195 179
-4782.5063 5222.7183 2324.0901 0.948 -0.142 -0.284 196 180 164
-4696.2754 5173.6357 2271.1807 -0.562 -0.781 0.273 168 151 135
-4603.7334 5091.7505 2223.9832 -0.511 -0.790 0.338 167 151 135
-4305.3472 4894.5850 2049.8660 -0.200 -0.979 -0.042 175 149 126
-4290.3765 4891.1123 2039.0237 -0.164 -0.984 -0.073 175 149 124
-4084.7925 4994.2168 1840.6581 -0.060 -0.889 0.454 187 153 126
-4071.1035 4991.6846 1830.5332 0.417 -0.771 0.481 187 153 126
-3707.9946 4677.2944 1643.0782 0.042 -0.449 0.893 185 146 115
-3646.6614 4667.0137 1597.3644 0.533 -0.513 -0.673 156 117 86
-3696.6514 4737.9854 1614.0867 0.515 -0.857 0.018 168 127 97
-1444.1653 2166.0884 655.2021 -0.264 -0.947 0.182 191 149 115
-1437.3767 2163.1895 650.7202 -0.272 -0.945 0.181 188 148 113
-1415.6504 2152.6648 636.7849 -0.388 -0.832 0.396 188 145 110
-3957.2173 5335.8765 1626.4542 0.206 -0.916 -0.345 177 134 99
-3973.1548 5414.5620 1613.3921 -0.195 -0.736 0.648 155 120 90
-3944.1038 5392.7061 1597.3129 -0.195 -0.736 0.648 150 114 82
-3918.2517 5374.7578 1582.5116 -0.202 -0.700 0.684 134 95 64
-3932.8564 5408.1196 1583.2538 -0.137 -0.704 0.697 116 80 48
-3876.8792 5366.4287 1552.1323 -0.137 -0.704 0.697 124 89 57
-3805.1191 5318.5640 1510.4052 0.820 -0.571 -0.044 125 92 61
-3811.2788 5356.1450 1503.0043 0.753 -0.615 -0.236 139 106 75
-3797.6240 5353.2925 1493.0120 0.750 -0.653 0.099 115 82 51
-3783.2097 5364.3521 1477.8469 0.626 -0.595 0.505 115 81 53
-3781.3440 5376.9106 1472.2332 0.593 -0.616 0.518 114 80 53
-3751.7632 5368.0518 1451.4653 0.506 -0.536 0.676 83 48 26
-3638.6453 5414.3516 1345.7416 0.956 -0.101 0.276 137 92 59
-3642.4541 5466.4595 1331.6930 0.875 -0.249 0.416 186 141 108
-3633.5056 5469.7998 1323.4353 0.885 -0.233 0.403 198 153 120
-3629.4075 5479.8970 1316.8424 0.978 -0.089 0.191 188 143 110
-3627.0916 5492.5244 1310.8457 0.978 -0.089 0.191 182 137 104
-3625.1206 5505.6904 1304.9486 0.933 -0.249 0.260 175 130 98
-3566.4387 5454.9844 1274.6204 0.892 -0.294 0.343 157 112 89
-3559.0281 5476.3291 1261.6860 0.891 -0.405 0.207 166 120 103
-3547.6975 5476.2114 1252.6562 0.893 -0.390 0.224 140 95 77
-3535.8569 5475.3433 1243.4648 0.898 -0.389 0.204 116 71 52
-3508.5298 5599.2417 1180.9419 -0.012 -0.831 0.556 191 157 132
-3490.0696 5588.6973 1169.6272 -0.010 -0.824 0.567 199 165 140
-3483.4490 5595.6104 1162.0603 -0.075 -0.813 0.578 200 165 143
-3508.3833 5683.4927 1153.1814 0.900 -0.213 0.380 186 151 129
-3512.5569 5706.8999 1148.8416 0.731 -0.348 0.586 191 156 134
-3529.0723 5766.4263 1142.5283 0.558 -0.647 0.520 192 157 135
-3525.1284 5777.9502 1135.5907 0.555 -0.650 0.519 196 158 137
-3573.9380 5869.7070 1144.5486 0.788 -0.603 0.125 198 157 137
-3567.0369 5877.0762 1136.6074 0.788 -0.603 0.125 191 150 130
-3572.8618 5903.9351 1132.4569 0.607 -0.647 0.462 186 145 125
-3376.6938 5672.8071 1051.2916 0.607 -0.525 0.596 134 93 73
-3348.5889 5663.9800 1031.6945 0.684 -0.570 0.455 181 144 125
-3331.6628 5654.9917 1021.0970 0.302 -0.441 0.845 180 143 124
-3315.9099 5700.5498 993.5415 0.554 -0.813 -0.179 179 144 124
-3288.0723 5674.0630 979.9525 0.938 -0.256 -0.233 172 136 117
-3292.3179 5698.5615 975.3125 0.933 -0.236 -0.271 179 136 122
-3291.7004 5715.4126 969.2894 0.935 -0.234 -0.267 180 136 123
-3288.1240 5727.5981 962.4288 0.935 -0.239 -0.261 172 127 114
-3288.9614 5746.9507 956.7491 0.934 -0.229 -0.274 165 119 109
-3289.2659 5765.5454 950.8918 0.903 -0.328 -0.278 146 100 90
-3160.5266 5700.1699 869.3076 0.727 -0.195 0.659 102 67 57
-3152.0303 5704.2896 861.1560 0.727 -0.195 0.659 91 56 47
-3143.5325 5708.4097 853.0031 0.727 -0.195 0.659 80 45 36
-3129.8379 5703.8193 843.5488 0.825 -0.170 0.538 68 35 26
-3122.8376 5710.4355 835.7754 0.844 -0.176 0.507 65 43 32
-3101.9739 5693.6699 824.5785 0.256 -0.430 0.866 63 43 32
-3073.2046 5681.7441 805.4663 0.290 -0.563 0.774 55 36 26
-3054.3274 5668.0215 794.8607 0.283 -0.584 0.761 47 29 19
-3032.6777 5649.4365 783.6315 0.356 -0.381 0.853 48 30 20
-3017.6072 5641.9966 774.0112 0.356 -0.381 0.853 55 37 27
-2836.6665 5756.9663 591.4758 0.363 -0.317 0.876 24 17 9
-2600.6123 5765.9814 399.5953 0.652 -0.444 0.615 142 85 68
-2581.5972 5748.2808 390.1848 0.432 -0.548 0.716 141 84 68
-2570.3435 5746.2607 381.8406 0.432 -0.548 0.716 141 84 68
-2388.5056 5682.4072 257.2602 -0.099 -0.523 0.846 115 71 58
-2366.2571 5655.6533 248.2321 -0.101 -0.521 0.848 115 71 58
-2325.9458 5675.4375 209.4783 0.293 -0.514 0.806 93 70 54
-2277.8103 5722.2368 155.5987 -0.321 -0.511 0.798 36 22 13
-2257.1162 5788.3438 117.3462 -0.433 -0.714 0.551 34 16 8
-2073.0542 5446.1138 82.3233 -0.681 -0.625 0.382 62 39 31
-1888.3358 5216.6548 9.7738 -0.205 -0.800 0.564 254 222 223
-1881.1267 5220.4048 2.7738 -0.528 -0.793 0.306 253 224 223
-1672.3647 5560.6924 -275.9566 -0.275 -0.939 -0.205 253 246 253
-1775.5172 6037.6963 -349.9087 0.856 0.070 -0.512 211 163 163
-1803.2354 6152.2090 -365.2973 0.848 0.065 -0.526 213 163 164
-1656.9061 6086.6157 -460.8880 0.729 -0.555 0.401 222 155 153
-1682.6699 6235.3477 -489.0685 0.659 -0.561 0.502 239 171 168
-1696.9347 6348.5962 -514.8095 -0.413 -0.519 -0.748 248 180 177
-1275.4363 6086.6411 -766.2001 0.812 -0.277 -0.514 252 173 166
-1123.6802 5773.6372 -784.9567 -0.435 -0.703 0.562 243 173 158
-1112.2729 5837.3359 -814.9864 -0.270 -0.768 0.581 237 168 153
-1129.2563 5994.1250 -852.8375 0.652 -0.715 0.253 239 164 149
-1177.8583 6525.3823 -988.2492 -0.467 -0.829 0.309 241 149 134
-1174.3605 6554.7090 -1000.6710 0.659 -0.744 0.110 241 146 131
-503.9780 4397.8008 -829.5038 0.502 -0.818 -0.282 233 76 86
-374.2455 4043.4653 -817.0732 -0.475 -0.871 0.123 254 25 70
-4045.3772 4215.7437 2050.7344 0.018 -0.732 0.682 214 205 188
-4020.3984 4201.9897 2035.3145 0.018 -0.732 0.682 216 204 188
-4471.3589 4687.7769 2235.2102 -0.329 -0.936 0.128 208 196 180
-4793.2861 5121.6216 2349.1355 -0.086 -0.996 0.005 206 194 178
-4768.4775 5109.5454 2333.2969 -0.429 -0.903 0.037 206 194 178
-4743.1089 5096.8306 2317.2222 -0.429 -0.903 0.037 206 194 178
-4686.6538 5065.4233 2282.4771 -0.464 -0.874 0.143 208 195 179
-4721.3286 5112.6729 2294.5762 0.733 -0.451 -0.510 208 196 180
-4779.9150 5184.1987 2317.7642 0.952 -0.144 -0.270 207 195 178
-4774.8335 5191.8730 2311.1658 0.927 -0.144 -0.346 190 174 158
-4631.1533 5109.7236 2223.4717 -0.525 -0.795 0.303 167 148 131
-4469.9385 4957.2798 2144.9963 -0.511 -0.856 -0.073 157 138 121
-4446.7437 4945.7612 2130.2632 -0.505 -0.863 -0.002 170 149 130
-4332.2290 5208.0161 1952.0459 -0.274 -0.928 0.252 184 150 123
-3677.3416 4632.1519 1618.9197 0.042 -0.449 0.893 175 136 105
-3640.4600 4649.8970 1583.5741 0.600 -0.542 -0.588 154 115 84
-3323.4668 4404.9048 1411.1713 -0.473 -0.821 0.321 199 152 119
-1450.5665 2169.5107 652.9832 -0.319 -0.938 0.134 197 156 124
-1439.3141 2161.1775 646.7431 -0.324 -0.931 0.169 190 150 115
-1398.0468 2126.5896 625.1895 -0.339 -0.832 0.440 187 147 112
-3890.6702 5241.3584 1588.0773 -0.299 -0.954 -0.032 177 134 100
-3962.2310 5359.4194 1606.2548 0.027 -0.748 0.663 177 137 104
-3951.2100 5360.2446 1597.1727 0.022 -0.746 0.665 174 137 107
-3931.1333 5349.6660 1584.6215 0.022 -0.746 0.665 166 131 101
-3914.0159 5357.3965 1568.3839 -0.207 -0.703 0.680 152 113 82
-3885.5088 5335.9614 1552.6825 -0.159 -0.712 0.684 136 99 70
-3887.1594 5367.4961 1543.5787 -0.232 -0.828 0.511 143 108 78
-3819.7429 5296.0581 1513.3036 0.474 -0.612 -0.633 164 129 99
-3817.6125 5352.2134 1493.0398 0.753 -0.615 -0.236 124 90 62
-3813.8228 5362.1763 1486.7175 0.744 -0.646 0.169 91 57 29
-3804.1008 5364.4526 1478.1941 0.673 -0.627 0.392 78 45 14
-3791.5740 5363.0586 1468.6418 0.543 -0.522 0.658 105 71 43
-3787.3008 5372.4443 1462.1239 0.533 -0.525 0.664 98 64 37
-3749.6699 5353.0034 1438.4705 0.516 -0.536 0.668 105 70 48
-3636.5959 5398.8418 1332.9370 0.956 -0.101 0.276 147 104 72
-3630.2268 5405.5625 1325.6245 0.886 -0.243 0.394 161 118 86
-3629.0222 5419.4160 1320.0826 0.888 -0.219 0.404 167 124 92
-3622.7224 5426.2920 1312.7744 0.884 -0.231 0.407 177 134 102
-3620.1082 5453.9819 1301.5322 0.969 -0.101 0.224 180 137 105
-3622.9490 5473.7036 1297.2844 0.977 -0.091 0.192 175 132 100
-3620.7336 5502.3633 1286.0409 0.933 -0.249 0.260 149 104 79
-3619.5347 5532.7188 1275.0492 0.925 -0.258 0.278 109 63 49
-3558.2444 5462.0884 1249.4038 0.896 -0.385 0.221 109 62 51
-3551.0039 5467.7500 1241.7451 0.884 -0.391 0.257 104 58 45
-3533.2166 5458.4023 1230.6169 0.883 -0.401 0.245 98 52 37
-3485.7395 5535.5239 1167.1763 0.700 -0.294 0.651 204 170 145
-3471.1914 5530.6255 1157.1667 0.696 -0.287 0.658 204 170 145
-3465.1116 5538.1528 1149.8190 0.701 -0.283 0.655 202 168 143
-3398.4329 5521.8506 1101.9097 0.958 -0.177 0.225 197 162 140
-3395.9331 5568.2227 1084.5841 0.929 -0.229 0.290 200 162 141
-3399.7991 5590.9546 1080.1608 0.945 -0.210 0.252 198 157 137
-3468.0852 5729.1680 1089.0598 0.235 -0.665 0.709 190 149 129
-3389.8438 5678.7012 1043.2004 0.614 -0.517 0.596 156 115 95
-3373.3491 5670.5737 1032.7021 0.631 -0.514 0.582 185 147 128
-3352.8232 5656.1006 1021.0792 0.634 -0.487 0.601 181 143 124
-3340.6758 5707.2412 994.4659 -0.365 -0.889 0.278 179 141 122
-3318.9753 5690.6743 982.5961 0.577 -0.800 -0.165 176 139 120
-3312.9675 5698.8604 975.0882 0.665 -0.731 -0.150 175 137 118
-3311.0598 5713.5986 968.6918 0.672 -0.725 -0.152 178 134 118
-3308.1973 5726.8857 962.0121 0.665 -0.732 -0.150 177 130 118
-3296.7227 5726.4438 952.9862 0.406 -0.910 -0.084 176 128 116
-3289.2749 5732.4443 945.0496 0.410 -0.909 -0.076 176 127 115
-3280.3745 5736.1187 936.7209 0.450 -0.893 -0.029 167 117 106
-3186.9937 5710.5601 870.5273 0.803 -0.271 0.531 109 70 62
-3144.0479 5675.7988 847.6891 0.839 -0.162 0.520 101 62 53
-3119.7974 5689.9800 823.6181 0.844 -0.176 0.507 113 88 76
-3098.1882 5671.9536 812.3036 0.278 -0.416 0.866 101 78 66
-3021.2693 5632.8896 763.7323 0.364 -0.373 0.853 75 57 47
-2673.1914 5769.1738 440.4596 0.662 -0.682 -0.310 161 96 82
-2667.1965 5777.9170 432.7779 0.657 -0.697 -0.289 161 96 82
-2683.7749 5873.6519 414.3862 0.627 -0.628 -0.461 155 94 79
-2505.4941 5720.8125 322.4003 0.732 -0.628 0.266 141 83 69
-2466.6829 5681.8569 304.2534 0.760 -0.600 0.251 140 83 69
-2312.1624 5520.2695 234.1510 0.267 -0.478 0.837 125 77 65
-2401.9387 5869.7676 190.3918 -0.120 -0.513 0.850 92 69 53
-2399.0459 5886.0640 182.6932 -0.053 -0.508 0.860 92 69 53
-2404.7278 6086.8418 120.8718 0.423 -0.846 0.324 33 16 6
-2241.7937 5755.9414 100.0072 -0.409 -0.732 0.545 46 24 16
-1952.5326 5143.0659 71.3677 -0.566 -0.775 0.280 62 39 31
-1938.8295 5131.2295 64.3268 -0.569 -0.774 0.278 68 43 36
-1926.0729 5121.5181 57.3400 -0.568 -0.771 0.289 119 94 87
-1909.9891 5145.1885 36.6602 0.679 -0.259 -0.687 228 199 196
-1863.9812 5180.8369 -11.8980 -0.206 -0.759 0.618 251 225 223
