ply
format ascii 1.0
element vertex 790
property float x
property float y
property float z
property float nx
property float ny
property float nz
property uchar diffuse_red
property uchar diffuse_green
property uchar diffuse_blue
end_header
-2964.1377 2603.6855 1097.5656 -0.503 -0.838 -0.214 54 55 49
-2917.5366 2579.1221 1077.0630 -0.495 -0.852 -0.169 67 57 53
-2889.1426 2562.0093 1065.1525 -0.510 -0.798 -0.320 78 62 59
-2862.0054 2554.6731 1051.3251 0.888 -0.224 -0.401 92 67 61
-2869.8152 2570.6909 1051.5360 0.889 -0.350 -0.294 90 65 58
-2849.6504 2659.5042 1015.7175 0.994 0.058 -0.094 168 154 141
-2838.3884 2666.9343 1007.1406 0.842 -0.540 0.012 158 140 127
-2996.2893 2878.6367 1041.7970 0.720 -0.336 0.607 168 96 62
-2854.2693 3015.3503 921.9822 -0.071 -0.799 0.597 153 73 43
-2414.9915 3164.8369 625.4666 -0.493 -0.863 -0.108 150 107 84
-2401.1958 3157.4526 619.4276 -0.529 -0.692 -0.491 154 111 87
-2336.5500 3136.4199 587.4521 -0.552 -0.565 -0.613 144 100 76
-2411.8013 3481.9761 537.6689 -0.434 -0.799 0.417 80 35 9
-2291.0901 3327.1313 509.2793 -0.172 -0.956 -0.237 45 15 1
-2280.5459 3323.4470 504.1327 0.292 -0.462 -0.837 29 5 0
-2278.1965 3332.0227 500.4395 -0.122 -0.839 -0.531 18 1 0
-2155.5762 3252.9707 450.3989 -0.141 -0.745 -0.652 21 19 16
-2298.6895 5387.5718 -44.6303 -0.416 -0.774 -0.477 149 112 86
-2328.4355 5624.5488 -91.5106 0.166 -0.026 -0.986 171 141 122
-2079.8562 5547.5342 -215.5112 -0.356 -0.305 -0.884 191 167 168
-1975.9357 5336.7549 -218.9582 -0.300 -0.247 -0.922 227 212 213
-1947.9362 5941.7515 -399.2182 0.785 -0.307 -0.538 243 226 234
-1720.4672 5416.1543 -389.3589 0.573 -0.675 0.464 245 229 239
-1728.5186 5469.0537 -399.0013 0.694 -0.670 0.266 246 230 240
-1690.4873 5536.4561 -439.4303 0.525 -0.758 0.387 225 185 199
-4529.5151 2735.7412 1962.4734 0.823 -0.296 -0.486 103 105 92
-4167.8608 2583.4961 1793.7677 -0.334 -0.212 -0.918 132 136 129
-4120.7939 2562.5017 1772.1338 -0.388 -0.175 -0.905 135 137 130
-4442.1201 2827.5874 1886.6311 0.626 0.053 -0.778 150 153 140
-4461.9121 2860.5847 1889.1385 -0.065 0.096 -0.993 149 152 140
-4615.3354 3056.4783 1924.9056 -0.410 -0.562 -0.718 133 133 119
-4171.5376 2852.9231 1722.4429 0.899 -0.274 -0.341 140 137 122
-3396.1646 2588.3638 1343.8801 0.684 -0.531 0.500 54 46 29
-3383.2046 2587.0935 1336.6934 0.766 -0.613 -0.194 65 43 18
-3445.4651 2691.2571 1344.4818 -0.572 -0.795 -0.202 79 31 16
-3284.6208 2624.3625 1269.2283 0.307 -0.882 -0.357 106 69 46
-3161.6365 2531.7693 1222.9883 0.955 -0.192 -0.224 114 67 40
-3244.6843 2618.3545 1247.6527 0.955 -0.294 0.037 136 66 35
-3037.3447 2610.9844 1129.1429 0.439 -0.833 -0.338 60 41 25
-3031.8030 2615.0330 1124.8177 0.266 -0.647 -0.715 62 38 24
-3029.4143 2621.8933 1121.5587 0.340 -0.940 -0.013 60 40 23
-3010.8054 2614.2419 1112.8284 0.141 -0.968 0.210 53 48 35
-2915.4016 2581.4509 1066.3141 -0.510 -0.843 -0.174 77 61 59
-2883.5144 2561.0942 1053.3297 -0.477 -0.815 -0.329 88 65 64
-2882.2080 2568.7034 1050.4957 0.320 -0.670 -0.669 89 65 60
-2878.3828 2574.0093 1046.8256 0.319 -0.676 -0.665 83 59 51
-2874.4282 2579.2014 1043.1111 0.325 -0.697 -0.639 76 52 45
-2865.2441 2597.3176 1032.8333 0.419 -0.699 -0.580 95 72 61
-2850.0942 2655.0957 1008.2732 0.994 0.058 -0.094 171 155 142
-2840.0920 2663.7190 1000.1081 0.826 -0.533 0.182 159 139 126
-2871.7585 3081.2056 904.6828 0.082 -0.964 0.253 145 85 39
-2826.8704 3063.2822 883.4778 0.818 -0.575 0.021 171 100 57
-2741.7183 3020.2234 845.7222 -0.683 -0.725 0.082 172 95 49
-2319.4832 2893.2444 634.9138 -0.138 -0.801 0.583 182 102 49
-2422.6018 3145.8320 625.9824 0.935 -0.086 0.343 121 74 53
-2371.5112 3155.1543 593.7435 -0.495 -0.463 -0.735 150 104 84
-2386.0613 3435.9817 525.6304 -0.395 -0.799 0.453 119 65 28
-2280.9121 3304.3564 500.3998 -0.081 -0.992 0.102 81 42 12
-2301.7925 3347.5784 500.7520 0.249 -0.259 -0.933 52 18 0
-2251.8774 3357.4795 469.0384 -0.271 -0.952 -0.139 14 11 6
-2163.0945 3245.0798 448.0789 -0.146 -0.729 -0.669 16 12 7
-2179.0657 3281.7288 447.3698 -0.146 -0.590 -0.794 20 19 16
-2217.9993 5156.6865 -41.2260 -0.266 -0.910 0.320 155 119 92
-2314.6335 5408.9268 -53.8319 -0.413 -0.783 -0.465 155 118 93
-2327.1240 5485.0918 -67.3387 0.271 0.002 -0.963 154 118 94
-2323.1873 5546.1680 -86.2801 0.308 0.039 -0.951 162 127 103
-2364.7407 5671.5547 -96.3145 0.165 -0.024 -0.986 166 133 112
-2173.4204 5434.2202 -142.8107 0.473 -0.672 0.570 182 151 148
-2113.7600 5305.1846 -142.3063 0.569 -0.755 0.326 187 156 153
-2125.7817 5627.9326 -223.3190 -0.326 -0.268 -0.906 204 175 175
-2050.9231 5450.2192 -218.3764 -0.435 -0.283 -0.855 197 173 175
-2046.8503 5463.7661 -224.4374 -0.461 -0.308 -0.832 200 180 182
-2028.6674 5513.3721 -248.5322 -0.592 -0.397 -0.702 242 227 227
-1968.4603 5925.7910 -395.9787 -0.066 -0.289 -0.955 250 235 242
-1718.9059 5416.9521 -402.2959 0.476 -0.850 0.227 239 222 232
-4672.1816 3068.7505 1942.2474 0.722 -0.172 -0.670 134 134 122
-4274.9019 2920.9382 1752.4785 -0.032 -0.768 0.640 143 136 123
-4238.2109 2905.2786 1735.5033 -0.032 -0.768 0.640 140 137 121
-3389.8728 2588.0413 1330.7172 0.775 -0.603 -0.191 65 41 21
-3465.0789 2702.5027 1342.9161 -0.539 -0.817 -0.203 73 36 17
-3230.6628 2620.2021 1229.5938 0.867 -0.497 -0.022 128 69 38
-3045.7498 2613.8564 1124.1329 0.296 -0.757 -0.582 67 44 23
-3039.7278 2617.4900 1119.6449 0.266 -0.647 -0.715 69 44 24
-3039.3716 2626.1660 1117.0582 0.317 -0.848 -0.424 67 45 22
-3013.8062 2612.3308 1106.0323 0.141 -0.968 0.210 61 50 33
-2897.7170 2569.5417 1050.4695 -0.463 -0.815 -0.348 89 65 62
-2888.7310 2570.1218 1045.1007 -0.348 -0.866 -0.359 85 64 57
-2883.7854 2574.3989 1041.0602 0.365 -0.731 -0.576 75 54 47
-2882.4526 2582.0156 1038.1980 0.356 -0.683 -0.638 70 49 40
-2871.7935 2589.8743 1029.8624 0.413 -0.701 -0.581 76 56 45
-2869.1055 2596.2659 1026.5508 0.409 -0.713 -0.569 101 80 69
-2853.5588 2653.5999 1001.8088 0.995 0.044 -0.095 172 153 139
-2840.6799 2659.4368 992.7411 0.808 -0.520 0.276 162 138 123
-2858.0674 2817.6213 959.4254 0.089 -0.728 -0.680 94 49 16
-2776.1392 3053.2173 847.2953 -0.689 -0.720 0.080 173 96 50
-2280.1208 3295.6313 493.2298 -0.061 -0.990 0.124 113 58 15
-2211.0740 3299.3132 452.1904 0.019 -0.981 0.191 12 11 6
-2192.3340 3282.5303 445.9303 -0.045 -0.723 -0.690 14 12 8
-2197.1018 3301.9255 443.3736 -0.139 -0.614 -0.777 21 20 18
-2564.7268 5741.0479 -12.6425 0.738 -0.458 -0.495 179 142 119
-2313.4829 5389.5269 -61.8634 -0.331 -0.873 -0.359 159 124 103
-2340.0615 5569.7783 -95.9045 0.407 0.067 -0.911 162 127 107
-2074.1643 5594.7661 -256.9112 -0.423 -0.634 -0.648 243 226 229
-2031.4211 5552.3999 -270.0684 -0.124 -0.979 -0.160 244 225 227
-2006.4106 5507.7422 -272.3168 0.245 -0.888 -0.389 239 224 227
-1702.3070 5531.9941 -455.2714 0.003 -0.153 -0.988 225 186 199
-4452.5298 2988.3552 1825.0956 -0.004 -0.729 0.684 142 133 119
-4234.8511 2878.2305 1729.6252 0.745 -0.320 -0.585 148 140 128
-3451.6379 2687.2046 1329.4822 -0.424 -0.905 0.024 65 38 25
-3212.5359 2582.8044 1220.0446 0.833 -0.250 -0.494 109 59 48
-3215.5098 2594.1660 1218.6282 0.836 -0.231 -0.498 111 58 39
-3181.8174 2610.5686 1194.6193 -0.433 -0.891 -0.140 141 68 29
-3167.8872 2607.7166 1187.3517 -0.282 -0.932 -0.225 144 71 31
-3129.5547 2674.1680 1146.8457 -0.338 -0.887 -0.316 100 57 35
-3046.7307 2619.1204 1114.1492 0.269 -0.679 -0.683 85 48 28
-3059.6179 2639.5764 1115.9546 -0.162 -0.634 -0.756 77 45 22
-2988.6406 2585.2856 1089.8992 0.014 -0.999 0.044 66 49 30
-2882.2466 2577.2236 1030.6053 0.614 -0.591 -0.524 59 41 32
-2867.1746 2598.7119 1015.9594 0.591 -0.618 0.519 135 117 108
-2866.4431 2661.1274 998.3090 0.572 0.100 -0.814 166 144 130
-2885.4163 2688.4924 1001.7264 -0.131 -0.949 0.288 166 141 124
-2842.1641 2656.0330 985.6765 0.851 -0.513 0.110 159 129 110
-2884.2324 2743.1973 985.9427 0.615 -0.246 -0.749 171 103 55
-2892.4138 2760.6638 985.8525 0.650 -0.173 -0.740 170 96 50
-2878.8540 2814.0747 963.2698 0.459 -0.641 -0.615 68 27 1
-2872.1519 2816.9744 958.5942 0.266 -0.700 -0.663 75 31 1
-2866.3330 2820.7578 954.1852 0.115 -0.758 -0.643 98 49 17
-2866.1875 2830.3057 951.4658 -0.324 -0.924 -0.202 123 65 31
-2757.3936 3047.0659 828.7305 -0.633 -0.745 0.212 186 100 48
-2292.3948 2917.5750 595.6004 0.036 -0.602 0.798 169 103 57
-2301.7925 3380.9724 473.1310 0.005 -0.674 0.739 45 17 4
-2256.8665 3325.2322 462.5388 0.106 -0.613 0.783 30 10 1
-2215.2412 3298.0254 445.9798 0.019 -0.981 0.191 17 12 9
-2204.5886 3293.7126 441.0106 -0.063 -0.672 -0.738 16 13 12
-2189.8132 3282.9797 435.4296 -0.074 -0.682 -0.727 18 17 15
-2241.3899 3399.5996 433.0636 0.853 -0.033 -0.521 33 32 30
-2523.1702 5230.5864 90.6189 0.113 -0.944 -0.310 194 154 146
-2415.0764 5661.3203 -90.7708 0.271 0.008 -0.963 167 135 116
-2308.4338 5429.5234 -88.4548 0.445 0.096 -0.890 157 124 106
-2249.0356 5566.6230 -160.6412 0.565 -0.719 0.405 174 143 139
-2170.7388 5392.3809 -157.8209 0.474 -0.624 0.622 173 144 140
-2062.8577 5209.2437 -169.6516 0.705 -0.668 0.240 196 167 163
-2071.4089 5568.1060 -263.7577 -0.326 -0.926 0.190 218 198 202
-1903.7299 5739.3955 -407.9909 0.832 -0.457 0.314 250 233 243
-1753.4305 5679.4468 -478.3503 -0.005 -0.160 -0.987 229 189 202
-4554.8252 2887.9314 1900.1281 0.038 0.097 -0.995 42 71 77
-4499.7759 2984.8157 1841.4778 0.000 -0.814 0.581 136 132 118
-4231.5386 2871.3816 1718.2843 0.777 -0.305 -0.550 148 141 131
-3891.6311 2737.0349 1559.5659 0.425 -0.770 -0.476 132 183 226
-3606.0483 2692.8838 1407.1306 0.508 -0.821 -0.260 132 179 215
-3478.8154 2695.1978 1333.1129 0.468 -0.884 0.022 62 37 25
-3464.1362 2692.7222 1325.3348 -0.368 -0.911 0.188 61 40 26
-3299.8071 2614.5276 1252.2798 -0.513 -0.833 -0.208 133 151 181
-3233.6377 2578.1289 1224.2273 -0.359 -0.665 -0.655 100 116 124
-3211.3909 2595.2305 1206.6487 0.842 -0.237 -0.485 99 53 43
-3249.6987 2645.2397 1214.8540 -0.485 -0.840 -0.246 126 63 35
-3255.5742 2659.2708 1214.3462 -0.255 -0.855 -0.451 140 72 35
-3188.7927 2611.9949 1188.9611 -0.509 -0.843 -0.175 145 77 42
-3115.5396 2657.1921 1134.1654 -0.567 -0.752 -0.337 109 56 35
-2841.4683 2650.5432 977.9548 0.828 -0.547 0.125 161 123 99
-2856.2969 2683.1316 977.4573 0.527 -0.596 -0.605 169 109 65
-2886.2048 2740.1125 978.8824 0.688 -0.174 -0.705 176 109 60
-2890.8977 2754.1213 977.6988 0.560 -0.296 -0.774 172 105 58
-2888.7778 2761.4834 974.4319 0.746 -0.533 -0.399 165 98 52
-2875.9297 2815.5613 952.0057 0.782 -0.620 0.062 97 42 9
-2868.9558 2818.1738 947.2585 0.355 -0.814 -0.460 118 57 26
-2817.1958 2862.3713 905.1355 0.282 -0.238 -0.929 167 88 66
-2807.6809 2862.2312 899.6873 0.338 -0.231 -0.912 163 86 63
-2810.4426 2874.9890 897.7372 0.707 -0.350 0.614 164 85 61
-2444.6548 3448.7327 527.4677 -0.166 -0.110 -0.980 187 92 45
-2463.6899 3501.3823 523.8253 -0.142 -0.085 -0.986 168 82 32
-2339.9443 3381.3323 485.7972 0.532 -0.495 -0.687 157 74 22
-2259.3855 3321.3782 455.9873 0.107 -0.611 0.785 54 17 2
-2227.9690 3285.8201 447.7434 0.171 -0.665 0.727 34 9 2
-2226.5366 3295.6123 444.1982 0.892 -0.053 0.448 26 11 8
-2221.1804 3299.4487 440.0439 -0.029 -0.998 -0.047 21 13 12
-2218.9929 3308.1384 436.3694 -0.212 -0.959 -0.187 17 14 15
-2189.1094 3274.2498 428.5460 -0.023 -0.735 -0.677 15 14 15
-2671.7007 5334.0166 134.8904 -0.288 -0.934 -0.212 193 154 149
-2594.2944 5238.5503 116.7598 -0.214 -0.974 0.077 191 152 146
-2077.0269 5564.5171 -272.0643 -0.316 -0.932 0.178 161 139 142
-2016.4478 5472.7393 -281.5149 -0.146 -0.905 -0.401 221 200 202
-1991.3229 5427.7539 -283.5127 -0.113 -0.993 0.034 232 213 217
-1989.7097 5448.0503 -290.0789 0.805 -0.593 -0.001 233 216 222
-1986.3636 5463.6074 -296.3286 0.772 -0.634 -0.040 232 215 221
-1982.7240 5478.4219 -302.5414 -0.299 -0.952 -0.069 233 216 222
-4531.8018 2808.6174 1897.2260 -0.399 -0.193 -0.896 101 122 120
-4546.1025 2847.6475 1894.5485 -0.394 -0.193 -0.898 40 62 63
-4563.6958 2919.8220 1884.5054 0.394 -0.905 0.162 28 64 75
-4527.8418 2906.4326 1867.6232 0.447 -0.678 0.584 30 65 77
-4544.6821 2989.7742 1854.0276 -0.021 -0.884 0.468 82 100 106
-4247.5786 2878.0247 1714.3566 0.075 -0.801 0.594 148 140 128
-3610.8496 2692.1536 1400.0449 0.508 -0.821 -0.260 133 180 216
-3482.0615 2693.2952 1325.6494 0.468 -0.884 0.022 62 35 22
-3467.9329 2691.2661 1318.0897 -0.355 -0.914 0.194 57 42 25
-3321.9783 2628.2073 1251.7550 -0.512 -0.837 -0.194 141 181 211
-3290.1448 2611.1924 1238.1980 -0.485 -0.600 -0.636 128 172 188
-3178.2375 2580.8792 1182.2992 -0.442 -0.297 -0.846 101 63 47
-3145.5908 2615.5303 1153.8413 0.365 -0.748 0.554 143 80 47
-2846.5249 2650.5974 972.0278 0.875 -0.470 -0.113 162 122 101
-2892.1736 2740.9412 973.0462 0.967 -0.252 -0.033 176 110 66
-2846.6975 2705.7747 956.7130 0.645 -0.204 -0.737 171 106 62
-2882.6680 2807.5022 948.9846 0.964 -0.258 0.065 108 53 22
-2878.8579 2813.2979 945.1741 0.590 -0.722 0.362 122 63 33
-2845.9326 2867.2517 911.1638 0.236 -0.061 -0.970 171 94 66
-2844.9514 2885.9626 905.3724 0.192 -0.191 -0.963 141 79 61
-2820.3552 2870.1091 895.6539 0.361 -0.228 -0.905 134 75 56
-2280.2314 2889.3101 579.6202 0.059 -0.596 0.801 178 111 57
-2288.6030 2920.7886 575.6418 0.112 -0.575 0.810 168 114 65
-2512.9021 3552.3555 528.2238 -0.037 -0.012 -0.999 182 92 40
-2224.5601 3296.9644 433.7190 -0.066 -0.979 -0.193 20 13 12
-2186.6179 3262.8149 421.4352 0.481 -0.875 0.054 14 14 14
-2218.2517 3323.4612 422.6886 0.974 -0.015 -0.225 20 20 20
-1884.7000 3969.7197 50.3003 -0.614 -0.469 -0.635 197 158 151
-2074.9946 5565.1270 -285.9293 -0.265 -0.951 0.158 173 151 154
-1995.7524 5446.0962 -298.2562 0.713 -0.696 -0.086 239 222 228
-1990.6282 5456.6362 -304.1479 0.703 -0.706 -0.092 239 222 228
-1984.2246 5463.6187 -309.7817 0.654 -0.747 -0.114 240 223 229
-4641.3560 2894.3103 1924.3619 -0.383 -0.193 -0.903 35 60 65
-4647.7793 2908.6296 1924.0227 -0.383 -0.193 -0.903 35 62 69
-4776.1323 3001.6235 1971.5214 -0.444 -0.272 -0.854 31 63 73
-4628.0605 2926.6211 1907.6545 0.167 0.076 -0.983 18 60 79
-4552.1670 2887.4602 1875.1221 0.183 0.149 -0.972 19 61 80
-4571.3877 2920.3745 1876.8987 0.440 -0.744 0.504 32 71 88
-4452.4580 2872.3716 1822.1624 0.594 -0.757 0.272 25 68 92
-4542.4629 2983.6335 1842.5283 -0.021 -0.884 0.468 40 71 88
-3622.5986 2696.7510 1395.4519 0.311 -0.912 -0.266 132 179 217
-3488.5432 2693.9717 1319.3296 0.441 -0.897 -0.014 63 36 22
-3475.8748 2693.1218 1312.3009 -0.355 -0.914 0.194 56 44 29
-3476.0984 2711.8401 1307.1691 -0.459 -0.865 0.204 98 135 137
-2934.2598 2647.2197 1014.4932 -0.340 -0.922 0.184 104 89 82
-2886.3125 2638.4531 989.4510 0.744 -0.434 0.509 140 126 124
-2874.8259 2636.6235 983.3758 0.810 -0.400 0.430 157 138 134
-2867.4299 2638.6348 978.5677 0.709 -0.468 0.527 166 141 132
-2859.0554 2648.7419 970.9233 0.889 -0.453 0.072 164 130 112
-2873.1267 2671.3079 972.6541 0.636 -0.005 -0.772 162 123 102
-2851.3613 2705.3972 950.5880 0.635 -0.173 -0.753 150 90 52
-2883.3599 2803.0156 941.5117 0.964 -0.258 0.065 128 74 41
-2858.8137 2826.3982 920.8595 0.659 -0.676 0.329 157 104 51
-2848.8955 2825.9595 915.2929 0.617 -0.697 0.365 158 102 51
-2849.7410 2885.5281 899.0379 0.166 -0.277 -0.946 89 46 29
-2728.8118 2807.2412 851.6649 -0.123 -0.949 -0.292 122 68 31
-2285.9856 2911.1460 568.4304 0.112 -0.575 0.810 177 121 74
-2267.4570 3099.1555 504.9665 -0.429 -0.766 -0.479 135 78 52
-2255.6248 3093.5400 499.7568 -0.459 -0.743 -0.487 145 82 52
-2445.6787 3471.9543 502.4422 0.081 -0.997 0.014 175 89 40
-2190.0789 3260.5469 415.2227 0.450 -0.890 0.067 15 14 14
-2209.1606 3301.7664 414.5858 0.971 -0.048 -0.234 20 20 20
-2708.3169 5378.7856 117.2495 -0.316 -0.948 0.029 201 162 157
-2717.7102 5440.6216 105.2609 0.610 0.013 -0.793 202 163 158
-1681.6171 3713.9160 -3.8717 -0.290 -0.930 0.226 180 148 135
-1678.8455 3723.0798 -8.0369 -0.330 -0.940 0.081 180 148 137
-2293.1431 5320.6685 -104.5903 0.514 0.140 -0.846 186 154 139
-2257.2646 5606.3506 -205.4553 -0.449 -0.792 0.414 170 140 138
-2176.3752 5643.6655 -262.3452 0.981 -0.134 0.139 206 177 179
-2021.2765 5473.3701 -303.4639 -0.011 -0.998 -0.064 231 211 216
-1981.6270 5412.7031 -309.1607 -0.176 -0.959 -0.220 241 226 233
-4663.4292 2924.4832 1916.5417 0.263 -0.090 -0.961 24 59 72
-4596.8442 2953.1426 1870.3431 0.781 -0.569 0.257 19 67 86
-4416.7778 2844.3303 1798.0765 0.585 -0.786 0.200 23 72 99
-3486.3167 2696.9629 1307.3667 -0.362 -0.914 0.183 56 41 35
-3387.2566 2663.3093 1260.2023 -0.369 -0.891 -0.264 137 189 231
-3120.9194 2559.0723 1137.2822 -0.305 -0.719 0.625 107 55 29
-2907.9783 2582.5537 1008.8088 0.618 -0.785 0.042 55 40 33
-2898.2893 2582.4846 1003.2849 0.001 -0.990 0.144 57 42 35
-2940.2317 2648.0522 1008.7474 -0.350 -0.917 0.193 106 91 84
-2885.8579 2633.2969 981.8083 0.800 -0.496 0.338 140 127 126
-2881.0354 2637.7551 977.7888 0.789 -0.509 0.343 152 135 131
-2868.7285 2644.1416 968.9419 0.830 -0.509 0.227 165 137 122
-2886.1868 2669.8462 971.6645 0.918 -0.395 0.040 174 141 122
-2865.4009 2659.0896 962.8124 -0.099 -0.910 -0.402 167 130 109
-2862.8323 2665.7253 959.4670 0.682 -0.261 -0.683 163 115 85
-2897.0283 2735.6946 959.2532 0.965 -0.263 -0.018 139 84 51
-2885.7307 2762.1992 945.2967 0.684 -0.650 0.330 79 26 0
-2876.2876 2790.7847 931.8131 0.966 -0.257 -0.032 141 92 56
-2860.4241 2813.1484 916.4148 0.461 -0.753 0.469 147 104 64
-2855.7471 2827.6914 909.6277 0.817 -0.575 -0.036 130 88 49
-2916.0535 2928.9902 915.4967 0.481 0.231 -0.846 74 30 13
-2811.5579 2879.5808 869.6762 0.514 -0.359 0.779 68 38 6
-2736.3044 2809.8511 846.3312 -0.123 -0.949 -0.292 80 43 8
-2301.1187 3128.4153 507.2837 -0.577 -0.756 -0.308 112 78 59
-2268.0220 3104.1748 495.1997 -0.459 -0.743 -0.487 142 79 50
-2251.1199 3091.3811 489.1457 -0.491 -0.814 -0.310 157 86 54
-2243.1099 3309.9143 422.7866 -0.007 -0.991 -0.132 21 11 11
-2193.5605 3258.3201 409.0216 0.450 -0.890 0.067 15 14 14
-2232.5154 3329.9221 411.0689 0.958 -0.179 0.222 15 15 15
-1660.4393 3654.8643 -8.1039 -0.152 -0.987 0.051 190 158 145
-2350.5593 5485.9058 -130.8566 0.763 0.194 -0.616 184 152 137
-2271.5669 5365.5527 -142.0303 0.893 0.289 -0.346 181 153 139
-2319.4751 5504.3154 -153.8457 0.896 0.287 -0.340 181 153 141
-2100.6292 5284.0986 -216.8076 -0.550 -0.834 0.053 188 160 157
-2101.2812 5624.1836 -312.5715 -0.291 -0.282 -0.914 199 177 180
-2003.7217 5406.3066 -306.8001 -0.212 -0.334 -0.918 210 190 196
-1882.1711 5164.4150 -307.9667 -0.515 -0.727 -0.454 240 223 229
-3494.6907 2699.1458 1301.6951 -0.362 -0.914 0.183 55 42 34
-3079.2817 2580.5657 1098.3616 0.417 -0.581 0.699 112 48 30
-2979.4958 2502.8359 1063.5215 0.036 -0.816 0.577 114 48 30
-2903.1028 2582.3301 997.3241 0.004 -0.989 0.150 55 40 35
-2885.4092 2637.1516 971.6390 0.879 -0.180 -0.441 140 124 119
-2880.2515 2641.2915 967.5186 0.874 -0.141 -0.464 149 128 117
-2887.6558 2666.4395 964.5932 0.920 -0.390 0.031 178 147 125
-2870.7974 2659.4512 956.9601 -0.024 -0.929 -0.368 171 135 111
-2863.5066 2661.5581 952.2005 0.752 -0.338 -0.565 155 112 85
-2901.6003 2735.1677 953.0079 0.967 -0.253 -0.040 111 64 33
-2863.3521 2753.8677 925.8643 0.062 -0.921 -0.386 129 72 42
-2858.2864 2758.2537 921.7266 0.697 -0.108 -0.709 141 88 56
-2876.3989 2785.7639 924.2399 0.628 -0.259 -0.734 153 106 72
-2921.4114 2929.0483 909.1836 0.993 -0.045 -0.107 54 29 20
-2891.9849 2908.6206 898.2001 0.938 -0.301 0.171 53 30 23
-2821.1904 2854.8164 873.1006 0.621 -0.364 0.694 42 32 15
-2752.8196 2812.3254 846.1672 -0.111 -0.829 -0.548 56 34 3
-2730.4819 2817.6401 831.9091 -0.081 -0.966 -0.246 117 72 32
-2455.2959 2800.4160 679.7730 -0.570 -0.767 0.294 168 85 35
-2299.6670 3119.5234 500.2267 -0.461 -0.840 -0.285 95 66 50
-2286.7136 3112.5024 494.8315 0.900 -0.434 0.054 120 66 38
-2277.9414 3111.2800 490.1733 0.909 -0.416 0.003 136 73 42
-2267.1304 3107.1416 485.1807 0.669 -0.722 0.175 155 84 50
-2267.7617 3221.3132 453.0766 0.561 -0.640 0.524 184 93 41
-2257.9028 3218.4565 448.2630 0.571 -0.644 0.509 184 93 40
-2252.9934 3317.2654 417.3654 -0.044 -0.982 -0.185 17 11 10
-2205.8271 3269.4951 404.0335 0.345 -0.932 0.112 12 12 12
-2239.3313 3332.6462 405.1957 0.895 -0.182 0.407 12 12 12
-2295.7078 5642.8931 -219.5449 -0.452 -0.794 0.406 148 119 115
-2030.7607 5462.1543 -319.3432 -0.202 -0.335 -0.920 197 177 181
-1990.0466 5374.5591 -317.6692 -0.173 -0.319 -0.932 209 192 198
-2006.9019 5445.6372 -328.2617 -0.328 -0.779 -0.534 225 206 212
-1904.7084 5354.8647 -360.7670 0.097 -0.520 -0.848 233 216 224
-4425.8403 2782.5220 1797.9714 -0.528 -0.742 -0.413 12 68 95
-4358.3789 2748.5403 1769.2957 -0.535 -0.741 -0.405 12 68 96
-4254.3350 2864.6711 1676.8661 -0.199 -0.851 0.486 143 137 125
-3494.7893 2694.7495 1293.1783 -0.281 -0.855 -0.437 55 42 31
-3474.9548 2688.1870 1283.7667 -0.253 -0.828 -0.500 75 96 94
-3455.0635 2681.5022 1274.3577 -0.259 -0.866 -0.428 103 135 158
-3441.3494 2679.6946 1267.0695 -0.207 -0.883 -0.422 131 164 206
-3003.6101 2459.8337 1080.8168 -0.299 -0.716 0.631 112 70 55
-2907.7378 2582.0122 991.3084 0.029 -0.987 0.158 55 40 33
-2889.5767 2645.3643 962.8533 0.887 -0.126 -0.445 147 125 114
-2873.3022 2657.0530 950.2478 0.004 -0.990 -0.142 172 135 114
-2864.0801 2657.3083 944.9260 0.521 -0.458 -0.720 148 107 83
-2908.7493 2737.1411 947.5164 0.968 -0.250 -0.000 85 43 16
-2804.8625 2851.9263 855.5612 0.236 -0.459 -0.857 48 29 13
-2797.7209 2854.1978 850.8470 0.248 -0.436 -0.865 57 33 10
-2763.6875 2828.1072 838.9393 0.041 -0.871 -0.489 60 31 4
-2757.1941 2830.9387 834.4338 0.041 -0.871 -0.489 82 45 15
-2296.9385 3097.8618 496.1432 0.918 -0.390 0.068 58 39 30
-2285.9062 3093.5212 491.1057 0.929 -0.369 0.030 71 45 33
-2261.3418 3103.1875 474.3606 0.975 -0.120 -0.189 170 94 56
-2338.4885 3281.7292 467.2038 0.705 -0.710 0.013 186 98 48
-2332.4258 3284.7200 462.8978 0.705 -0.709 0.003 185 99 50
-2271.4856 3207.9744 450.1641 0.505 -0.862 0.028 186 98 48
-2244.8831 3203.6494 436.2606 0.506 -0.719 0.476 187 100 48
-2262.6321 3324.2129 411.8803 -0.026 -0.982 -0.185 18 9 11
-2246.4453 3335.8120 399.3504 0.886 -0.271 0.377 12 12 12
-2258.2236 3390.5154 390.4084 0.026 -0.885 0.466 23 23 23
-2250.6772 3391.1826 385.9227 0.057 -0.877 0.477 23 23 23
-1729.5314 3742.2136 -11.0783 0.236 -0.651 -0.721 199 167 154
-1698.4250 3734.1228 -26.4681 -0.109 -0.956 0.271 201 169 157
-2112.1035 4992.6299 -150.9683 0.894 0.288 -0.344 193 165 153
-2245.5671 5360.3262 -180.1725 0.890 0.274 -0.365 192 164 152
-2151.6172 5333.6548 -226.0146 -0.508 -0.838 0.201 175 146 140
-4418.6934 2862.2671 1759.6210 0.364 -0.368 -0.856 7 29 38
-3442.1760 2612.5344 1277.1560 0.046 -0.981 0.188 66 38 27
-3478.1470 2658.8279 1284.2573 0.128 -0.387 -0.913 63 36 18
-3507.2290 2700.1511 1288.8782 -0.282 -0.833 -0.476 59 39 30
-3486.2515 2692.7166 1279.1093 -0.301 -0.826 -0.476 85 89 94
-3466.4319 2686.1238 1269.7555 -0.279 -0.841 -0.464 115 128 153
-3446.4482 2679.3223 1260.3685 -0.268 -0.904 -0.332 144 160 202
-3721.1316 2929.1226 1344.4299 0.512 -0.395 -0.763 143 185 237
-3711.5227 2931.3306 1338.3405 0.498 -0.513 -0.699 141 189 234
-3851.0212 3065.3550 1378.9706 0.143 -0.330 -0.933 127 190 227
-3081.4612 2573.5776 1083.6086 0.459 -0.562 0.688 105 50 35
-3117.8711 2613.8516 1092.6908 0.383 -0.544 0.746 109 49 34
-3098.0022 2605.5452 1083.8020 0.488 -0.537 0.688 106 51 32
-2911.5015 2580.8975 985.0283 0.029 -0.987 0.158 54 41 31
-2874.2622 2644.1626 945.6910 0.177 -0.563 -0.807 182 145 129
-2878.6074 2657.3284 944.3701 -0.005 -0.990 -0.138 173 133 117
-2904.7170 2728.2830 938.7800 0.964 -0.266 -0.004 73 36 10
-2937.1934 2778.5916 942.7427 -0.422 -0.557 -0.716 94 56 30
-2927.5212 2778.6189 937.2446 -0.427 -0.556 -0.713 110 68 42
-2898.1042 2816.2722 909.7151 0.554 -0.089 -0.828 73 40 7
-2850.7959 2787.8850 891.0273 0.492 -0.821 -0.292 42 39 5
-2868.8684 2815.6826 893.2895 0.788 -0.616 0.006 37 38 13
-2784.6204 2854.5488 834.2871 -0.284 -0.548 -0.786 87 43 14
-2755.2629 2833.2344 823.7543 -0.041 -0.660 -0.750 120 69 36
-2747.1777 2834.3538 818.8428 -0.197 -0.717 -0.668 155 82 35
-2729.3191 2825.0293 811.3879 -0.107 -0.679 -0.726 164 86 35
-2401.6899 2764.4827 642.8318 0.200 -0.907 0.372 174 101 50
-2287.9131 3100.5427 481.5765 0.905 -0.423 0.055 92 38 15
-2276.2979 3106.3545 473.3116 0.711 -0.629 0.315 150 79 49
-2266.1931 3103.1880 468.4867 0.978 -0.172 -0.115 172 96 59
-2245.9011 3186.4690 433.0114 0.982 -0.183 -0.058 191 107 59
-2246.6445 3199.0139 429.8247 0.683 -0.730 -0.003 187 107 60
-2247.5835 3366.2786 382.2420 0.079 -0.856 0.511 23 23 23
-2246.8506 3377.3940 378.6284 0.086 -0.875 0.477 23 23 23
-2224.7122 3467.4775 340.1483 0.735 0.378 -0.563 41 34 35
-2240.1331 3505.0010 338.1077 0.812 0.343 -0.472 51 33 33
-1726.1206 3723.6699 -16.5656 -0.152 -0.237 -0.959 198 166 156
-1670.5343 3645.0850 -25.5123 -0.297 -0.943 -0.149 206 174 164
-2157.3884 5107.8198 -169.9314 0.359 -0.837 0.414 199 169 161
-4555.6030 2817.8774 1838.5145 0.094 -0.170 -0.981 9 57 79
-4516.4062 2802.7805 1820.6921 0.153 -0.173 -0.973 10 57 78
-4454.2671 2811.9680 1782.8550 -0.478 -0.878 -0.023 21 58 78
-4208.1177 2804.3347 1645.7107 0.682 -0.731 -0.028 148 138 123
-4251.5801 2853.8215 1655.9990 -0.174 -0.849 0.499 140 133 122
-3519.2781 2705.2253 1284.4116 -0.176 -0.872 -0.457 64 37 22
-3488.6836 2690.1909 1271.4410 -0.099 -0.939 -0.329 83 75 70
-3471.5024 2685.7112 1263.0103 -0.092 -0.927 -0.364 104 102 111
-3461.9888 2687.2991 1257.1649 -0.099 -0.920 -0.380 132 138 154
-3750.1865 2977.9910 1336.2206 0.141 -0.322 -0.936 134 188 228
-3758.9917 2995.3533 1336.1821 0.263 -0.092 -0.960 129 179 213
-3739.4031 2989.4817 1326.7913 -0.279 -0.947 0.158 110 145 170
-3074.6033 2563.2632 1073.7397 0.450 -0.565 0.691 90 55 43
-2916.4241 2572.0667 981.6426 0.281 -0.912 0.299 54 42 27
-2911.7825 2576.6055 977.7018 0.239 -0.939 0.246 49 37 22
-2908.6033 2617.9124 963.9512 0.008 -0.727 -0.687 134 126 113
-2882.4429 2647.1741 940.6751 0.206 -0.541 -0.815 179 136 127
-2884.6262 2658.2808 938.6979 -0.008 -0.991 -0.135 150 104 94
-2877.3125 2660.3760 933.9511 0.187 -0.547 -0.816 110 70 52
-2923.4893 2836.4634 909.1483 0.390 -0.132 -0.911 55 32 13
-2899.7483 2822.3467 899.7920 0.833 -0.404 -0.378 51 37 13
-2808.7148 2864.7573 835.9852 -0.267 -0.529 -0.805 100 50 21
-2769.6118 2843.0579 820.1257 0.040 -0.678 -0.734 140 82 44
-2753.1221 2835.3015 813.0344 -0.194 -0.843 -0.502 165 89 42
-2741.8733 2833.0415 807.3199 -0.077 -0.723 -0.687 171 91 40
-2667.8882 2763.7402 785.4848 0.154 -0.599 -0.785 175 94 39
-2404.7415 2762.5603 636.8508 0.205 -0.905 0.372 172 100 49
-2326.2231 2678.7720 616.6406 -0.526 -0.816 0.239 175 104 53
-2297.0144 2653.2222 607.4966 -0.100 -0.688 0.719 178 107 56
-2258.9578 2906.0383 512.8077 0.918 0.063 0.392 62 32 20
-2315.7966 3088.4900 492.1998 -0.208 -0.755 0.622 139 132 125
-2304.9370 3106.4233 480.8635 0.224 -0.834 0.505 57 30 25
-2267.7598 3098.5669 462.0891 0.978 -0.172 -0.115 166 90 53
-2252.0103 3245.9536 410.5316 0.852 -0.289 -0.436 51 20 6
-2207.0613 3213.8596 394.3699 0.997 -0.045 0.055 13 9 4
-2247.6438 3483.1313 339.4404 0.939 -0.226 0.260 26 26 28
-4441.1572 2868.3645 1747.6335 0.742 0.253 -0.620 19 24 18
-4415.7427 2861.4414 1735.2980 0.499 0.083 -0.863 19 25 20
-4420.0122 2874.2612 1733.9785 0.490 0.080 -0.868 32 36 30
-4319.7056 2886.2788 1673.8457 0.338 -0.811 0.477 146 138 126
-3477.9033 2677.1960 1259.3751 0.919 -0.282 0.277 92 76 67
-3474.4248 2683.5903 1255.5507 0.923 -0.277 0.266 108 100 104
-3545.1729 2749.2437 1276.3942 0.465 -0.229 -0.855 131 134 143
-3545.3728 2758.8018 1273.7260 0.465 -0.229 -0.855 142 158 174
-3765.6289 2995.7742 1329.1379 0.269 -0.093 -0.959 132 174 207
-3743.5112 2987.8496 1318.9554 -0.230 -0.945 0.234 112 144 171
-3729.4846 2986.4912 1311.4308 -0.342 -0.930 0.139 91 112 130
-2918.9294 2569.8237 975.0035 0.299 -0.912 0.281 58 44 26
-2914.8164 2574.8372 971.2225 0.241 -0.940 0.241 51 38 20
-2849.4182 2532.4062 946.6426 0.466 -0.884 0.043 76 63 45
-2913.5996 2617.9031 958.0047 0.022 -0.695 -0.719 133 122 106
-2890.7834 2659.3604 933.0593 -0.003 -0.991 -0.131 120 67 65
-2886.4861 2664.3352 929.1855 0.187 -0.547 -0.816 77 37 21
-2957.4009 2807.1921 927.6594 -0.450 -0.537 -0.713 92 49 38
-2913.1443 2773.3518 912.5172 -0.182 -0.482 -0.857 84 40 31
-2891.3848 2761.3938 903.7104 0.731 -0.216 -0.647 75 35 27
-2890.4524 2769.8887 900.7123 0.773 -0.521 -0.362 64 32 24
-2928.9546 2817.4741 908.6060 0.813 -0.345 -0.469 54 31 22
-2919.8979 2818.0776 903.3167 0.852 -0.372 -0.368 48 33 21
-2831.3591 2758.1223 870.7701 0.913 -0.336 0.230 31 34 25
-2857.6548 2813.1230 869.6140 0.821 -0.571 -0.003 37 27 18
-2826.7583 2878.2942 833.2063 -0.331 -0.577 -0.747 129 68 32
-2813.4282 2874.1135 826.8961 -0.332 -0.602 -0.726 142 82 40
-2779.1907 2847.8105 815.2178 0.040 -0.678 -0.734 154 91 44
-2768.5420 2846.2781 809.6512 -0.195 -0.712 -0.674 173 94 44
-2752.1382 2838.5916 802.6257 -0.077 -0.723 -0.687 176 95 42
-2682.4624 2774.0391 782.0673 0.113 -0.607 -0.787 177 94 40
-2333.5142 2682.0537 611.8054 -0.526 -0.816 0.239 172 102 56
-2303.5029 2655.6179 602.5521 -0.141 -0.716 0.684 177 107 61
-2287.3547 2645.5403 596.3666 0.998 0.049 0.045 174 104 58
-2254.0771 2913.8342 499.5123 0.921 0.067 0.385 60 34 26
-2274.1787 3259.6831 410.2316 0.092 -0.041 -0.995 50 23 19
-2287.9299 3303.5898 405.2206 0.149 -0.012 -0.989 10 1 0
-2325.5286 3371.4941 406.6919 0.289 0.149 -0.946 8 7 2
-2248.7678 3376.9409 361.7657 0.322 -0.858 0.399 22 22 22
-2192.1753 3374.4875 330.5257 0.907 0.238 -0.348 15 19 22
-2113.8059 5121.7109 -222.1085 -0.008 -0.982 -0.189 206 176 174
-4540.5264 2829.3723 1803.5360 -0.277 -0.949 -0.152 4 36 49
-4507.5972 2818.1301 1788.2822 -0.321 -0.931 -0.173 6 35 47
-4443.0122 2796.1184 1758.3533 -0.252 -0.915 0.316 8 36 48
-4342.8711 2750.4897 1715.3121 -0.491 -0.841 -0.228 2 30 42
-4474.0151 2885.7251 1749.5918 0.502 0.126 -0.855 21 23 20
-4313.8354 2877.7659 1661.7185 0.369 -0.797 0.479 138 131 121
-4227.1099 2828.1018 1627.4128 -0.050 -0.794 0.605 130 124 112
-4247.3745 2861.7600 1628.9757 -0.137 -0.758 0.638 78 88 92
-3769.6787 3014.5024 1315.2751 -0.284 -0.775 0.564 83 106 125
-3037.4954 2592.3184 1026.4969 0.615 -0.361 0.700 78 52 37
-2920.8833 2567.0879 968.2119 0.299 -0.912 0.281 67 50 32
-2917.2285 2572.5085 964.5675 0.241 -0.940 0.241 60 44 26
-2898.8611 2662.2542 927.9631 -0.007 -0.985 -0.173 90 44 41
-2931.0359 2757.5669 918.1919 -0.113 -0.448 -0.887 74 44 28
-2918.7771 2773.8325 906.5290 0.792 -0.231 -0.565 66 39 31
-2875.7515 2759.7278 886.4271 0.856 -0.442 -0.269 40 30 19
-2824.2915 2727.3450 866.9242 0.844 -0.534 0.043 31 32 18
-2793.8560 2857.9031 811.5815 -0.298 -0.576 -0.761 156 90 42
-2785.4697 2858.8074 806.5944 -0.295 -0.576 -0.763 172 93 41
-2340.8235 2685.3438 606.9580 -0.526 -0.816 0.239 167 95 48
-2234.0303 2880.9719 489.5754 0.923 0.066 0.380 62 33 23
-2262.3950 3121.5342 435.1564 -0.432 -0.871 -0.234 193 104 35
-2299.4719 3277.7827 410.3148 0.034 -0.035 -0.999 42 13 7
-2185.0681 3355.3435 323.1947 0.897 -0.368 0.246 15 19 22
-2229.5583 3463.2927 316.6611 0.800 0.357 -0.483 37 33 37
-4453.2065 2798.4475 1752.0626 -0.298 -0.912 0.282 5 27 36
-4359.0850 2747.2312 1714.2715 0.927 -0.364 0.085 8 30 38
-4318.1924 2730.2424 1696.3038 0.420 0.042 -0.907 3 25 32
-4496.2329 2895.9946 1747.5232 0.577 0.150 -0.803 28 29 24
-3753.7446 2935.9272 1318.7642 -0.556 -0.555 -0.619 64 100 134
-3366.6565 2762.3352 1152.4431 0.108 -0.817 -0.567 176 158 148
-2974.2693 2593.2517 981.8188 -0.433 -0.899 -0.058 86 65 48
-2963.3560 2592.2290 975.9905 -0.397 -0.915 -0.074 82 60 44
-2950.0391 2588.9934 969.4633 -0.380 -0.923 -0.056 75 54 37
-2933.2170 2582.5225 961.9196 -0.380 -0.923 -0.056 69 48 31
-2913.8650 2671.6858 924.8135 0.216 -0.555 -0.804 80 46 39
-2913.2966 2698.5095 916.6011 0.993 -0.095 0.069 61 41 25
-2894.3032 2707.8335 903.1901 0.996 -0.051 0.069 51 27 13
-2923.7888 2773.7039 900.3671 0.804 -0.240 -0.544 47 39 28
-2962.1326 2988.5129 858.6921 -0.210 -0.044 -0.977 155 82 53
-2415.9971 2749.8052 622.2051 -0.469 -0.744 0.477 150 76 29
-2325.7129 2671.3315 594.5901 -0.232 -0.757 0.610 166 94 46
-2287.1062 3072.4856 454.8631 0.979 -0.050 -0.197 154 85 64
-2284.5632 3090.7668 448.0554 0.981 -0.068 -0.180 171 95 62
-2330.1462 3315.2905 407.5877 0.011 -0.049 -0.999 31 4 0
-2191.4465 3357.5278 317.2601 0.671 -0.725 -0.156 15 19 22
-2167.3792 3331.7361 311.3324 0.962 0.090 -0.257 23 27 30
-4398.0820 2739.4343 1727.3151 0.027 -0.777 0.629 3 21 24
-4403.9624 2762.4336 1723.8031 0.217 -0.807 0.549 4 21 26
-4335.4932 2727.7808 1695.7046 0.841 -0.524 0.134 7 24 28
-4332.2979 2744.7927 1688.8807 0.391 0.054 -0.919 6 22 25
-4343.2808 2761.5542 1690.0730 0.508 0.041 -0.860 14 24 23
-4366.3545 2786.3235 1695.6683 0.584 0.055 -0.810 29 34 28
-4498.6543 2883.1221 1741.1320 0.442 0.115 -0.890 43 45 37
-4357.1978 2848.7393 1672.0701 -0.290 -0.955 -0.063 108 107 100
-3677.2754 2698.8574 1335.5670 0.935 -0.344 0.086 126 177 219
-3890.2666 3050.9492 1350.6869 -0.523 -0.836 0.166 50 95 135
-3103.8635 2686.8220 1017.9357 -0.555 -0.779 -0.292 82 55 38
-3081.2068 2675.6733 1008.5436 -0.566 -0.798 -0.207 82 55 38
-3043.6882 2651.0735 994.8072 -0.564 -0.793 -0.230 83 53 40
-2942.3569 2577.5215 959.8115 -0.379 -0.883 -0.277 81 51 38
-2970.6069 2611.9128 965.4590 -0.539 -0.760 -0.363 81 51 37
-2912.5115 2620.7822 930.2928 1.000 0.020 -0.018 110 76 69
-2921.2874 2637.8684 930.1526 0.539 -0.161 -0.827 119 83 77
-2906.4336 2641.9114 920.6359 0.874 -0.374 -0.310 98 62 56
-2900.1157 2662.9722 910.8652 0.905 -0.155 -0.396 69 47 38
-2900.5823 2718.2195 894.7784 -0.070 -0.772 0.632 46 28 17
-2816.4075 2663.9270 863.6940 0.831 -0.544 -0.118 31 33 15
-2735.0605 2628.8865 828.4967 0.611 -0.630 -0.480 26 26 8
-3059.9209 3084.2288 875.7271 -0.226 -0.059 -0.972 160 80 45
-2419.0427 2747.9146 616.2606 -0.469 -0.744 0.477 143 71 26
-2383.1580 2715.2039 605.8392 -0.526 -0.784 0.330 150 78 34
-2352.4775 2688.3860 596.5895 -0.408 -0.839 0.361 159 91 45
-2291.6348 2634.7375 578.3835 0.999 -0.023 0.026 171 102 57
-1957.1205 2415.7058 455.8203 -0.284 -0.139 -0.949 182 114 60
-2284.3408 3062.0051 447.8672 0.943 0.012 -0.332 156 76 52
-2284.4788 3073.0352 444.6807 0.968 -0.040 -0.249 162 81 52
-2275.0461 3070.8113 440.0552 0.998 0.058 -0.032 168 87 52
-2324.5742 3287.9885 403.5341 -0.134 -0.444 -0.886 42 4 0
-2207.8750 3375.4939 312.2726 0.637 -0.744 -0.203 14 18 21
-2145.8811 5496.6567 -350.1154 0.399 -0.856 -0.330 218 189 193
-2129.1057 5476.7490 -353.6212 0.430 -0.858 -0.280 216 190 193
-2126.0234 5492.7183 -360.0730 0.401 -0.622 -0.673 216 191 194
-4503.9888 2773.7830 1765.1241 0.011 -0.789 0.615 2 27 32
-4459.8267 2755.4478 1745.9086 0.003 -0.777 0.629 5 25 28
-4371.3940 2727.7261 1704.7539 0.178 -0.701 0.690 8 20 19
-4319.2593 2732.1262 1674.3196 0.459 0.003 -0.888 18 31 31
-4550.8682 2933.3271 1743.8419 0.561 0.102 -0.822 79 82 77
-4540.9971 2936.9624 1737.2457 0.039 -0.735 0.677 91 97 90
-4418.3818 2875.4155 1687.0594 -0.167 -0.911 0.378 105 108 104
-4281.3096 2832.3938 1623.2847 -0.359 -0.914 0.188 126 120 108
-3665.4504 2685.5798 1322.9176 0.958 -0.285 0.033 126 177 218
-3639.4570 2684.2595 1308.7891 -0.413 -0.889 0.196 139 174 205
-3532.1948 2693.1802 1246.2126 0.588 0.085 -0.805 71 34 17
-3493.2834 2671.7168 1230.8611 0.877 -0.080 -0.474 59 42 35
-3862.3552 3033.7520 1329.3218 -0.263 -0.776 0.574 79 127 168
-3145.2292 2592.8787 1059.8778 0.083 -0.799 0.596 184 166 153
-3101.2593 2670.7732 1012.1367 -0.022 -0.515 -0.857 72 43 27
-3094.5488 2673.8679 1007.4670 -0.107 -0.531 -0.841 75 46 30
-3070.9097 2670.8667 995.1541 -0.187 -0.594 -0.782 84 51 39
-3061.3115 2671.3040 989.6619 -0.169 -0.583 -0.795 85 50 38
-2902.7791 2651.7324 906.9208 0.443 -0.598 -0.668 77 56 46
-2905.7688 2663.5686 905.0692 0.427 -0.606 -0.671 67 48 42
-2903.5112 2716.1548 888.1612 -0.107 -0.787 0.608 39 27 20
-2813.2043 2646.9895 858.2910 0.052 -0.934 0.352 28 31 14
-2754.6184 2616.6536 834.5881 0.236 -0.610 -0.756 28 27 10
-2751.2744 2622.2688 831.0493 -0.170 -0.916 -0.364 26 21 7
-2742.5955 2622.6279 826.0939 -0.170 -0.916 -0.364 27 19 6
-2694.3623 2601.4258 805.4570 0.283 -0.942 -0.180 55 22 12
-3154.5085 3154.8191 897.8588 -0.121 0.074 -0.990 165 79 52
-2389.6743 2717.4587 600.7172 -0.522 -0.786 0.332 146 75 29
-2355.2012 2686.2424 590.7471 -0.473 -0.834 0.285 159 88 42
-2332.9778 2669.2617 583.3844 -0.351 -0.825 0.442 169 98 52
-2306.4771 2647.0686 575.1832 0.963 0.005 -0.269 170 102 55
-2211.6479 2823.1848 469.8041 -0.256 -0.807 0.533 87 37 10
-2279.0710 3124.5186 417.8096 0.887 -0.388 -0.250 194 126 73
-2374.7549 3353.4688 403.1404 -0.557 -0.602 -0.573 42 7 1
-2191.3105 3353.8101 300.5573 0.596 -0.641 -0.483 15 16 20
-4406.1108 2586.7522 1755.2151 0.401 0.047 -0.915 12 58 73
-4457.5479 2702.1125 1749.3600 0.659 0.116 -0.744 1 20 22
-4528.0972 2775.1182 1766.8252 0.120 -0.807 0.579 0 20 23
-4493.7471 2763.1282 1751.2739 0.011 -0.789 0.615 1 19 20
-4457.8940 2750.0635 1735.2067 0.008 -0.795 0.606 5 18 18
-4399.0508 2731.7639 1707.8962 0.009 -0.793 0.610 11 19 15
-4391.1309 2745.8054 1699.2827 0.599 -0.798 0.065 11 18 13
-4326.0679 2732.3899 1667.0455 0.464 0.008 -0.886 34 42 40
-4346.2563 2755.0779 1671.5061 0.484 -0.535 0.692 44 50 47
-4528.9927 2924.5063 1722.6298 0.152 -0.710 0.688 101 103 99
-4278.9419 2826.4075 1612.6600 -0.310 -0.922 0.233 92 86 75
-3609.7202 2639.2710 1295.7826 0.658 -0.748 -0.086 126 176 217
-3601.3030 2641.9458 1290.2925 0.299 -0.756 -0.583 133 176 212
-3866.7134 3021.9827 1324.4685 -0.092 -0.725 0.683 89 130 171
-3098.7563 2691.1519 995.5703 0.847 -0.382 0.370 79 44 32
-2763.3669 2647.2944 821.8250 0.407 -0.194 -0.893 49 21 15
-3088.4043 3081.2371 873.0953 0.473 -0.070 -0.878 167 78 46
-2621.1116 2902.4395 666.2302 0.297 0.082 -0.951 168 86 38
-2555.9971 2847.6423 646.3452 0.192 -0.156 -0.969 168 87 40
-2396.4504 2720.0085 595.6377 -0.520 -0.787 0.332 141 68 21
-2362.0894 2689.0015 585.7698 -0.413 -0.839 0.354 154 82 35
-2320.6492 2658.5576 571.7891 -0.042 -0.831 0.555 172 101 53
-2306.4907 2650.9314 566.1822 0.955 0.059 -0.290 173 101 54
-2220.9624 2648.2878 519.3198 0.868 -0.246 -0.431 173 106 51
-2196.0852 2806.5842 458.0994 -0.456 -0.786 0.417 93 43 16
-2284.5479 3136.4761 408.6893 0.875 -0.372 -0.310 175 110 75
-2306.0532 3246.5557 387.7372 0.532 -0.601 -0.597 42 7 1
-2293.6494 3251.6836 379.2921 0.317 -0.619 -0.718 22 1 0
-2201.3696 3361.7769 294.9391 0.601 -0.681 -0.417 15 16 20
-4408.5972 2593.5525 1743.6885 0.422 0.055 -0.905 16 53 59
-4484.2710 2733.7913 1743.5519 0.650 -0.693 0.311 1 13 12
-4488.1025 2755.4060 1739.1790 0.693 -0.663 0.284 3 14 12
-4396.3594 2725.9194 1697.0695 0.859 -0.180 -0.479 17 18 10
-4358.3613 2730.1045 1674.6960 0.538 0.126 -0.834 26 26 18
-4354.6675 2746.7874 1667.6249 0.539 -0.026 -0.842 49 50 41
-4515.9771 2921.5164 1704.6991 -0.310 -0.845 0.435 101 100 91
-4286.4580 2827.1384 1605.5511 -0.310 -0.922 0.233 38 33 25
-4246.1377 2809.4927 1588.4542 -0.287 -0.903 0.319 26 23 16
-3603.3362 2630.2192 1285.1931 -0.146 -0.867 -0.477 127 176 217
-3603.2627 2639.1643 1282.4614 -0.123 -0.848 -0.515 132 176 213
-3639.6853 2675.7678 1291.6897 -0.356 -0.931 -0.088 133 176 212
-3438.3293 2584.3430 1207.3031 -0.198 -0.946 -0.258 66 38 16
-3869.2139 3029.2532 1312.8981 -0.295 -0.754 0.587 92 136 176
-2923.4270 2599.3484 916.6697 -0.535 -0.837 0.113 112 64 61
-2896.5046 2583.3872 906.5109 -0.536 -0.844 0.008 101 54 52
-2974.0845 2889.2505 857.6108 -0.264 -0.106 -0.959 133 62 42
-2805.1541 2729.6025 811.7652 0.194 -0.648 -0.737 143 67 44
-2489.0276 2784.3667 619.6268 -0.226 -0.950 0.214 148 69 24
-2367.2808 2689.7583 580.4348 -0.494 -0.751 0.439 145 77 33
-2329.4055 2663.6060 567.2557 -0.391 -0.814 0.430 169 101 56
-2345.6716 2729.4453 556.4886 -0.099 -0.877 0.471 173 103 52
-2245.4255 2654.5386 523.3175 0.860 -0.349 -0.372 174 104 53
-2177.4221 2662.2861 483.1989 -0.337 -0.184 -0.923 166 100 48
-2206.2930 2914.5715 423.3494 0.488 0.210 -0.847 166 80 59
-2250.4971 3027.6333 413.9014 0.856 0.171 -0.487 189 108 65
-2263.9900 3089.6748 402.7360 0.393 0.141 -0.909 164 106 67
-2329.1184 3226.5366 397.7556 0.433 0.152 -0.889 68 21 3
-2314.1438 3251.0378 382.0641 0.522 -0.615 -0.591 38 7 3
-2341.5630 3302.3662 381.8597 0.217 -0.656 -0.723 22 1 1
-2342.5620 3315.5894 378.4371 0.198 -0.535 -0.821 20 2 2
-1688.9073 4721.2983 -407.6485 -0.577 -0.787 -0.219 226 194 203
-1898.8961 5762.2148 -604.0905 0.495 -0.822 0.283 226 179 189
-4446.0894 2705.7878 1719.6600 -0.298 -0.252 -0.921 11 13 9
-4436.8013 2718.9275 1710.5383 -0.321 -0.931 -0.175 10 14 10
-4385.7275 2705.5752 1686.2721 0.543 -0.826 -0.153 19 18 8
-4404.7544 2736.6792 1687.4093 0.753 -0.119 -0.647 32 29 18
-4436.0552 2766.3018 1695.7964 0.441 -0.138 -0.887 40 36 26
-4300.5771 2832.3359 1600.7434 -0.271 -0.900 0.342 37 33 28
-4196.8105 2781.2358 1558.6919 -0.100 -0.922 0.373 16 21 17
-3619.6196 2647.2378 1279.3447 -0.267 -0.863 -0.428 127 173 214
-3595.1787 2637.8110 1268.6508 -0.287 -0.933 -0.216 128 174 214
-3464.9785 2618.5264 1202.3275 0.047 0.071 -0.996 70 36 14
-3856.0173 3013.6716 1299.5258 -0.295 -0.754 0.587 127 170 202
-3179.0156 2617.1587 1044.2625 0.163 -0.843 0.513 178 158 143
-3006.3635 2643.7812 940.5278 -0.220 -0.725 0.653 82 45 33
-2899.2485 2581.3713 900.0414 -0.524 -0.851 0.039 66 46 34
-2873.1011 2583.4541 884.9208 -0.239 -0.633 -0.736 40 30 18
-2868.7852 2588.1968 881.0944 -0.293 -0.692 -0.659 36 28 15
-2493.5930 2784.1648 613.8945 -0.226 -0.950 0.214 140 64 21
-2460.1597 2755.1013 604.1563 -0.002 -0.880 0.475 134 58 15
-2332.7288 2662.2302 561.6240 -0.391 -0.814 0.430 163 103 64
-2292.4500 2687.8596 531.5502 -0.186 -0.836 0.516 169 101 54
-2246.5728 3005.0476 410.1909 0.514 -0.187 -0.837 193 106 60
-2263.7419 3050.1240 406.0725 0.679 0.083 -0.730 191 120 78
-2250.5745 3337.7080 311.7947 0.252 -0.965 0.067 14 16 15
-2227.7200 3375.1086 287.8170 0.855 -0.519 0.003 14 15 19
-1986.8048 6012.3618 -643.3406 0.473 0.028 -0.881 222 175 183
-4470.3882 2604.7505 1752.7321 -0.524 -0.669 -0.527 7 27 25
-4484.3994 2735.2283 1720.8002 0.108 -0.652 0.750 17 19 14
-4437.9082 2725.0413 1698.2017 0.192 -0.654 0.732 23 20 14
-4459.5776 2757.9006 1700.1866 0.390 -0.130 -0.912 38 34 22
-4471.3247 2775.0227 1701.4725 0.427 -0.094 -0.899 46 40 28
-3638.9426 2648.4668 1279.8890 -0.322 -0.928 -0.190 123 171 217
-3653.1848 2668.2300 1281.7512 -0.247 -0.864 -0.439 125 174 217
-3607.0420 2642.5173 1264.0663 -0.287 -0.933 -0.216 126 175 216
-3529.2976 2664.2739 1214.4803 0.045 0.045 -0.998 71 36 20
-3517.6636 2664.2705 1208.0510 0.051 0.043 -0.998 68 35 25
-3841.3950 2996.9976 1285.8044 -0.306 -0.754 0.581 125 171 205
-3823.3953 3095.5474 1245.8885 0.949 -0.165 0.267 176 156 145
-3697.7073 3011.3887 1202.0105 0.800 -0.588 0.124 174 152 139
-2910.1736 2458.7954 934.7658 0.591 -0.403 0.699 186 165 148
-3009.7573 2633.3301 936.7338 -0.193 -0.747 0.637 109 78 67
-2902.4729 2579.8025 893.7134 -0.515 -0.851 0.099 52 42 25
-2873.5483 2561.9233 883.1631 -0.517 -0.851 0.093 40 36 20
-2870.7886 2585.4927 874.4708 0.679 -0.606 -0.415 29 23 9
-2861.2188 2585.3293 869.2311 0.474 -0.767 -0.432 28 24 8
-2876.8508 2608.7163 870.7595 -0.620 -0.758 -0.201 28 25 8
-2837.2322 2779.7971 796.8391 0.370 0.136 -0.919 168 83 39
-2582.1772 2860.8782 631.2119 0.518 -0.148 -0.843 143 69 29
-2495.1895 2780.5508 607.5589 -0.159 -0.952 0.260 135 61 21
-2460.6533 2750.2683 597.6788 -0.002 -0.886 0.465 129 55 15
-2417.8037 2710.1370 586.1985 0.999 -0.030 0.038 122 50 12
-2260.7834 3007.5149 408.9841 -0.074 -0.848 -0.525 191 104 56
-2254.5510 3009.5376 404.9243 0.543 -0.254 -0.800 198 116 68
-2275.1472 3059.3137 401.1720 0.708 0.040 -0.705 186 118 76
-2214.9763 3408.6245 261.6954 0.937 -0.007 -0.350 34 37 39
-4322.8022 2584.2544 1666.7076 0.918 -0.368 -0.147 8 12 7
-4395.4775 2722.5212 1664.4989 0.880 -0.264 -0.395 58 52 38
-4405.5571 2767.1765 1656.4037 0.580 -0.039 -0.814 69 63 49
-4379.2798 2759.7744 1644.1814 -0.419 -0.822 -0.386 68 61 44
-4442.2700 2909.1978 1633.2233 -0.318 -0.831 0.456 88 80 69
-3910.1501 2659.0554 1416.3730 0.328 -0.737 -0.590 106 164 207
-3665.1782 2672.9541 1277.0876 -0.239 -0.864 -0.443 126 173 217
-3616.0957 2645.0908 1258.5498 -0.294 -0.922 -0.250 125 174 217
-3577.7651 2697.5684 1221.3778 0.421 -0.060 -0.905 72 36 21
-3573.0991 2703.1121 1217.1111 0.610 0.072 -0.789 68 36 26
-3570.3418 2710.1514 1213.4391 0.634 0.085 -0.769 70 48 41
-3872.9038 3007.0891 1289.4438 -0.227 -0.730 0.645 122 175 213
-3852.1213 3199.3059 1219.2252 -0.376 -0.753 0.540 157 136 117
-2713.3928 2290.8286 869.2528 -0.340 -0.807 0.482 179 157 143
-3225.0071 2747.4744 1011.6694 -0.290 -0.085 -0.953 177 155 141
-3002.6292 2622.3357 927.3438 -0.196 -0.748 0.634 149 120 106
-2929.7866 2582.7808 899.2831 -0.230 -0.795 0.561 101 73 60
-2888.6711 2562.6465 882.7741 -0.430 -0.889 0.156 46 34 22
-2870.6248 2554.7439 875.2422 -0.405 -0.898 0.173 27 21 8
-2848.6248 2560.3726 861.3945 0.321 -0.823 -0.469 24 15 5
-2840.4792 2749.9368 798.9525 -0.222 -0.445 -0.868 161 75 34
-2649.7329 2902.4204 647.1910 0.453 0.189 -0.871 158 85 41
-2550.8726 2829.2976 615.0504 0.721 -0.284 -0.632 140 66 27
-2442.7434 2724.2747 587.5528 0.444 -0.011 -0.896 129 55 16
-2414.7085 2701.2473 579.1388 0.999 -0.023 0.037 121 50 13
-2329.3801 2647.7578 548.4554 0.954 -0.278 0.114 123 70 36
-2320.1890 2894.5925 467.9288 -0.430 -0.803 0.413 106 50 23
-2693.2776 3469.3540 497.8764 0.067 -0.641 -0.765 173 82 37
-2262.0493 2909.6379 431.2808 -0.342 -0.794 0.502 173 86 40
-2316.2583 3034.0833 423.1183 0.318 -0.524 -0.790 176 92 47
-2276.8989 3023.0920 404.7822 0.036 -0.931 -0.362 199 120 70
-2272.7349 3028.0117 400.9828 0.041 -0.928 -0.371 193 117 70
-2271.5427 3037.0286 397.5692 0.352 -0.649 -0.674 186 115 72
-2285.1733 3066.5579 396.0554 0.596 -0.012 -0.803 159 95 56
-2292.2656 3087.1970 393.6553 0.470 0.148 -0.870 127 67 36
-2411.2424 3333.3467 383.9885 0.359 0.176 -0.916 51 21 10
-2234.2896 3381.8923 271.6053 -0.343 -0.765 -0.546 13 14 18
-2248.8108 3416.7935 268.9403 0.200 -0.929 -0.312 16 17 21
-4513.8452 2735.8887 1714.4641 0.720 -0.612 -0.328 26 25 20
-4367.1338 2672.3022 1653.3513 0.876 -0.466 0.127 42 39 31
-4471.3623 2747.4949 1687.5420 0.803 -0.574 0.159 55 51 39
-4455.5220 2747.0400 1678.9734 0.928 -0.355 0.110 62 56 42
-4424.3643 2736.7996 1664.9915 0.930 -0.167 -0.328 68 62 48
-4425.1567 2893.2466 1617.3452 -0.292 -0.823 0.487 92 84 71
-3923.0081 2663.8979 1411.7736 0.357 -0.676 -0.645 102 164 208
-3626.2239 2648.4641 1253.3584 -0.260 -0.937 -0.233 125 174 217
-3632.6680 2735.7449 1230.0764 0.669 0.078 -0.739 72 36 21
-3572.7683 2707.6306 1205.7869 0.867 0.113 -0.486 71 49 41
-3567.9082 2731.4885 1195.7826 0.866 -0.448 -0.221 117 158 188
-3822.2139 3073.8787 1230.3595 0.935 -0.213 0.285 164 145 130
-3846.0417 3167.3584 1214.7292 0.969 -0.239 -0.061 145 126 109
-2879.2412 2549.5452 873.1021 -0.276 -0.842 0.464 90 73 63
-2868.4941 2548.3157 867.5717 -0.164 -0.844 0.511 67 54 45
-2444.0854 2729.8123 578.4703 0.311 -0.178 -0.933 121 50 15
-2408.2158 2706.9436 565.7792 -0.438 -0.753 0.492 108 54 20
-2306.9697 3100.8730 389.0498 0.420 0.140 -0.897 93 38 11
-2302.1428 3105.0906 385.0999 0.491 0.229 -0.841 72 22 2
-2169.3640 3443.8867 207.9797 0.040 -0.967 0.252 203 174 178
-1843.8445 5382.5977 -566.8128 0.978 0.196 0.071 228 189 194
-4331.0962 2572.6208 1653.5308 -0.448 -0.859 -0.247 12 12 14
-4518.5684 2734.7456 1706.2280 0.720 -0.612 -0.328 26 25 21
-4469.5957 2713.7253 1685.8718 0.489 -0.574 0.657 36 35 31
-4350.2676 2648.4355 1640.6182 0.870 -0.407 0.278 49 48 44
-4341.2368 2813.0830 1584.7975 0.304 -0.658 0.689 124 106 89
-4260.1724 2768.6284 1554.0863 0.061 -0.796 0.602 121 105 88
-3759.4043 2679.6223 1307.0240 -0.156 -0.874 -0.460 106 163 208
-3570.9077 2729.3884 1188.2993 0.866 -0.448 -0.221 105 147 176
-3847.2219 2966.7986 1266.4469 0.349 -0.933 -0.087 125 180 221
-3844.9292 2975.0186 1262.6503 0.299 -0.952 -0.062 119 172 209
-3841.1777 3157.9460 1204.0762 0.942 -0.169 -0.291 142 123 106
-2451.4722 2732.9741 573.4268 0.207 -0.144 -0.968 119 48 13
-2406.0530 2699.1296 558.9808 -0.334 -0.850 0.408 103 49 15
-2386.5562 2685.7290 552.4314 -0.375 -0.832 0.409 100 45 14
-2362.1125 2666.4448 544.9874 -0.340 -0.829 0.445 97 44 12
-2328.5945 2645.4434 533.0987 0.955 -0.274 0.109 96 43 9
-2320.5952 2645.1108 528.8156 0.948 -0.300 0.109 97 44 12
-2366.5369 3045.9612 430.1580 -0.469 -0.788 0.399 176 88 44
-2329.4836 3114.3284 388.7198 0.178 0.053 -0.983 77 23 0
-2511.7888 3448.8428 385.3229 0.806 0.079 -0.587 52 24 13
-2402.6655 3341.8389 358.5526 0.650 -0.071 -0.757 28 6 1
