ply
format ascii 1.0
element vertex 792
property float x
property float y
property float z
property float nx
property float ny
property float nz
property uchar diffuse_red
property uchar diffuse_green
property uchar diffuse_blue
end_header
-2530.3970 3421.7603 -134.7094 0.983 0.154 0.096 26 26 29
-2527.2432 3429.0112 -138.1335 0.986 0.153 0.066 27 26 30
-2543.5317 3519.3567 -160.7888 0.524 -0.354 0.775 50 45 50
-2515.7200 3529.0750 -173.8681 0.974 0.003 -0.229 109 80 89
-2511.4126 3535.0103 -177.2922 0.580 -0.204 0.789 115 82 90
-2505.5444 3538.8384 -180.6130 0.580 -0.204 0.789 135 102 110
-2513.7686 3561.7678 -184.8905 0.964 0.189 -0.185 171 138 146
-2539.7183 3633.0576 -198.0528 0.960 -0.249 0.130 196 165 171
-2534.0938 3637.4409 -201.4612 0.961 -0.251 0.118 199 166 169
-2484.2522 3580.7576 -201.5100 0.933 0.222 0.285 213 182 178
-2534.7720 3674.9458 -213.0559 0.961 -0.085 -0.262 202 170 166
-2536.9365 3690.2510 -217.1080 0.298 -0.460 -0.836 218 186 182
-2477.7029 3619.6160 -216.1339 0.986 -0.165 0.012 212 181 177
-2460.7454 3910.4900 -314.0565 0.078 -0.987 -0.143 218 189 185
-2452.8430 3911.5771 -317.2444 0.078 -0.987 -0.143 218 189 186
-2444.9612 3912.6616 -320.4240 0.078 -0.987 -0.143 216 187 184
-2411.6099 3900.5557 -328.6083 0.865 -0.490 0.108 221 191 188
-2341.1965 3803.4814 -323.3126 0.639 -0.665 0.388 222 192 189
-2321.3364 3862.9163 -349.2233 0.706 -0.107 -0.700 210 179 178
-2329.5571 3889.3254 -354.6004 0.705 -0.115 -0.700 206 176 175
-2331.2639 3905.3411 -359.0415 0.694 -0.132 -0.708 206 176 175
-2316.3379 3921.0349 -369.3685 0.133 -0.948 -0.288 195 166 163
-2312.9495 3928.8652 -373.0601 0.121 -0.953 -0.279 182 153 150
-2294.0637 3924.5374 -378.4924 0.213 -0.890 -0.402 193 166 163
-2285.0747 3977.1147 -398.3250 0.147 -0.972 0.183 221 192 190
-2283.6162 3988.3105 -402.3840 0.137 -0.963 0.231 218 189 188
-2277.4097 3991.4858 -405.6206 0.143 -0.961 0.235 216 187 184
-1771.1533 4372.1670 -708.0283 -0.098 -0.975 0.200 217 186 167
-1765.8926 4409.1309 -721.5901 -0.192 -0.965 0.178 207 178 160
-1799.9442 4596.8989 -768.6039 -0.295 -0.926 -0.237 163 135 125
-1729.3606 4574.9058 -787.0700 0.929 -0.300 -0.215 68 61 53
-1726.2179 4584.4639 -791.2183 0.834 -0.538 -0.125 65 58 50
-1724.9120 4598.8965 -796.2443 0.812 -0.543 -0.211 61 54 46
-1720.2797 4604.5952 -799.7108 0.892 -0.401 0.210 61 52 45
-1717.1658 4614.3306 -803.9048 0.831 -0.411 -0.374 81 71 67
-1714.1333 4624.3174 -808.1489 0.831 -0.411 -0.374 109 96 93
-2648.6865 2062.3235 329.9984 0.968 -0.204 -0.147 105 84 75
-2656.9883 2075.1365 328.9097 0.894 -0.311 -0.324 125 96 83
-2649.8855 2077.1223 325.7355 0.489 -0.614 0.620 131 99 85
-2651.4856 2085.2666 323.7264 0.490 -0.447 0.748 137 102 90
-2651.8853 2092.5840 321.5494 0.506 -0.415 0.756 141 106 94
-2663.0076 2107.5930 320.7749 0.757 -0.187 0.627 139 106 93
-3059.6926 2603.4141 305.6716 0.379 -0.426 -0.822 130 78 61
-2993.1736 2674.0059 259.4584 0.959 -0.265 -0.098 104 64 46
-3134.6904 2886.6768 242.7228 0.585 -0.228 0.779 73 41 20
-2926.1338 2827.0527 186.9138 0.697 -0.713 0.085 80 38 21
-2908.4038 2820.4121 182.6677 0.661 -0.745 0.083 80 38 21
-2920.2424 2849.9922 177.5297 0.754 -0.654 0.057 84 41 25
-2585.1492 2699.0171 105.3548 0.073 -0.918 -0.389 113 52 25
-2789.8770 3095.7747 52.8946 0.794 0.188 0.577 164 74 54
-2819.1416 3136.7219 50.3950 0.938 0.186 0.292 179 96 72
-2701.3257 3032.8728 41.1162 0.992 0.004 0.129 172 99 75
-2710.1467 3062.2686 34.9556 0.990 0.041 0.138 149 92 91
-2724.9326 3088.1594 32.0431 -0.175 -0.984 -0.013 148 92 94
-2803.2175 3321.7737 -13.9855 0.857 -0.300 0.419 139 93 95
-2822.7935 3354.8428 -17.4580 0.907 -0.201 0.370 139 96 97
-2795.3040 3356.9143 -27.9629 0.797 -0.265 -0.543 139 96 97
-2831.3345 3431.8733 -38.8230 0.823 -0.468 0.322 138 95 96
-2774.5986 3388.7854 -45.4861 -0.185 -0.979 0.090 126 83 83
-2795.0640 3423.8418 -49.2701 -0.175 -0.975 0.139 121 77 78
-2648.2285 3372.8311 -85.6989 0.946 0.242 -0.216 24 20 16
-2674.0911 3426.7329 -93.5248 0.713 0.199 0.673 7 10 3
-2649.5317 3453.3315 -110.7570 0.873 0.379 0.307 23 15 15
-2649.9946 3465.3459 -114.4006 0.349 -0.797 0.492 24 18 18
-2620.9541 3521.1045 -142.4841 0.953 0.148 -0.263 29 31 25
-2618.4858 3529.6118 -146.0659 0.960 0.137 -0.245 29 30 25
-2537.8445 3506.0710 -167.4909 0.529 -0.352 0.773 86 65 67
-2522.5847 3567.8306 -192.5403 0.865 -0.122 -0.486 184 140 143
-2529.0449 3588.4861 -196.7754 0.965 0.035 -0.260 191 147 150
-2535.2671 3608.9250 -201.0271 0.972 0.026 -0.235 196 152 155
-2469.9976 3555.1838 -207.3695 0.908 0.213 0.361 211 170 166
-2475.9543 3599.1521 -219.1768 0.912 0.221 0.346 215 173 168
-2342.0249 3798.2959 -330.3007 0.328 -0.722 0.609 221 188 182
-2298.1719 3780.4976 -340.3673 0.462 -0.698 0.547 220 186 181
-2331.2671 3898.6282 -365.9677 0.691 -0.134 -0.710 216 180 175
-2342.9265 4109.6475 -428.7003 0.981 -0.065 -0.185 223 188 185
-1826.8124 4567.1870 -758.6719 -0.304 -0.927 0.221 211 180 173
-1821.5798 4624.2832 -778.6503 -0.185 -0.976 -0.114 201 173 164
-1791.4696 4566.2954 -771.0505 -0.285 -0.936 -0.207 200 173 165
-1766.6444 4573.5210 -782.2350 0.055 -0.851 0.522 151 134 126
-1736.6738 4566.8599 -790.8598 0.929 -0.295 -0.224 113 106 100
-1730.6102 4568.7715 -793.6382 0.911 -0.261 -0.318 98 93 87
-1740.8398 4722.7393 -838.7933 0.723 -0.088 -0.685 109 83 82
-1744.6976 4751.7417 -846.6073 0.723 -0.088 -0.685 125 99 98
-2644.4822 2070.0723 319.0356 0.610 -0.454 0.650 128 96 83
-2642.7195 2075.8066 316.5808 0.505 -0.431 0.748 138 104 92
-2636.1682 2078.1453 313.5004 0.505 -0.431 0.748 145 111 99
-2635.0188 2084.3245 311.1226 0.431 -0.392 0.813 138 106 93
-3377.1575 2937.1367 304.0927 0.075 -0.607 -0.791 115 66 49
-3397.3186 2963.5593 302.8651 0.022 -0.585 -0.811 115 67 49
-2987.5525 2665.1401 251.8212 0.962 -0.259 -0.084 105 64 46
-2656.4871 2809.8308 87.7084 0.680 0.157 -0.716 171 107 82
-2685.8308 2866.9707 79.9714 0.853 0.236 -0.466 237 170 146
-2800.1870 3357.0737 -35.3527 0.802 -0.266 -0.535 145 101 102
-2821.1216 3392.0935 -39.0428 0.512 -0.123 -0.850 144 100 101
-2811.9966 3392.8591 -42.5398 0.835 -0.369 -0.409 144 100 101
-2752.3130 3346.4358 -49.0325 -0.181 -0.934 -0.309 143 99 100
-2736.2705 3338.9045 -52.3532 -0.199 -0.955 -0.218 137 93 92
-2715.5696 3358.9297 -66.1112 0.623 -0.083 0.778 113 67 67
-2665.9543 3400.0210 -96.8872 0.954 0.300 0.008 5 6 1
-2660.2893 3404.3623 -100.2895 0.744 0.005 0.668 11 13 7
-2656.5784 3411.0840 -103.7533 0.744 0.004 0.668 32 29 25
-2649.5813 3436.4067 -114.3129 0.774 0.183 0.606 56 42 45
-2643.1672 3439.8250 -117.6883 0.906 0.282 0.316 51 39 41
-2649.1523 3458.6619 -121.5539 0.855 0.239 0.461 41 30 32
-2612.8882 3458.9377 -134.5705 0.341 -0.934 0.107 25 22 18
-2531.7397 3469.2219 -166.7767 0.911 0.294 0.290 98 71 75
-2534.5884 3484.4680 -170.6168 0.596 -0.282 0.752 109 82 86
-2522.3027 3479.8357 -173.5214 0.905 0.217 0.367 112 85 88
-2526.4272 3496.8372 -177.4659 0.926 0.281 0.254 111 82 86
-2524.3286 3552.4883 -195.9384 0.466 -0.462 0.755 179 130 134
-2539.6108 3584.9595 -200.8319 0.894 -0.421 -0.152 188 139 143
-2499.7256 3542.7966 -201.6231 0.984 -0.171 -0.046 194 145 149
-2564.8716 3643.2617 -210.3949 0.530 -0.288 -0.798 197 151 153
-2270.6118 3755.7195 -351.1198 0.352 -0.545 0.761 223 186 180
-2269.7874 3792.7715 -363.2147 0.432 -0.727 0.534 217 180 174
-2295.6716 3887.0361 -384.0089 0.357 -0.629 0.691 219 184 180
-2293.4954 3896.7283 -387.8717 0.350 -0.635 0.689 219 184 180
-1769.9219 4485.8472 -762.1634 0.856 -0.489 0.167 205 178 171
-1766.5455 4494.5327 -766.1333 0.790 -0.481 0.379 205 178 171
-1761.7740 4499.7275 -769.4889 0.790 -0.481 0.379 202 175 168
-1762.7798 4519.5352 -775.4389 0.114 -0.969 0.220 196 169 162
-1760.5304 4531.1895 -779.9526 0.046 -0.897 0.440 184 159 152
-1740.1577 4548.9282 -792.8655 0.453 -0.891 -0.032 156 149 146
-1731.0979 4560.6704 -799.8353 0.862 -0.223 -0.456 142 134 129
-1729.9714 4575.4414 -804.9413 0.862 -0.223 -0.456 141 133 127
-1729.1003 4590.9575 -810.1937 0.866 -0.224 -0.448 140 132 127
-1722.3063 4590.9438 -812.6116 0.881 -0.236 -0.410 142 130 127
-1721.9514 4607.9258 -818.1466 0.801 -0.530 -0.277 147 129 125
-1745.9858 4708.2051 -841.5161 0.676 -0.159 -0.720 155 125 125
-2638.3035 2062.4949 312.2706 0.613 -0.472 0.634 104 72 61
-3021.4243 2855.7776 194.4212 0.506 -0.848 0.156 70 39 19
-2604.6946 2709.5271 93.3577 0.034 -0.928 -0.371 113 52 24
-2667.4070 2816.1970 81.4830 0.738 0.196 -0.645 184 118 94
-2670.9739 2828.9885 78.6563 0.721 0.104 -0.685 211 145 121
-2684.0386 2851.2856 76.1585 0.848 0.240 -0.473 237 171 147
-2696.0989 2978.3645 39.7842 0.639 -0.676 -0.368 182 91 75
-2680.6445 2981.8174 33.1966 0.820 -0.338 -0.462 174 98 76
-2795.4829 3346.3306 -42.6700 0.928 -0.165 -0.334 152 108 109
-2680.3674 3258.1157 -55.2910 0.952 0.028 -0.306 151 107 108
-2676.4480 3264.3240 -58.6676 0.991 -0.096 -0.091 151 105 105
-2699.5647 3323.7588 -69.4797 -0.344 -0.879 -0.331 135 89 89
-2703.1863 3338.9824 -73.0649 0.639 -0.048 0.768 133 87 87
-2659.8955 3364.9031 -96.7160 0.640 -0.239 0.731 22 5 5
-2643.2485 3355.9167 -99.7473 0.936 0.245 -0.255 15 5 3
-2664.0022 3392.1519 -103.9760 0.777 0.033 0.629 5 3 0
-2643.8335 3378.8352 -106.8715 0.769 0.003 0.639 16 17 12
-2637.1812 3381.8809 -110.2060 0.756 0.002 0.655 47 42 39
-2642.6489 3399.7546 -113.9841 0.725 0.171 0.667 95 80 83
-2640.6580 3408.5474 -117.5033 0.773 0.180 0.608 96 78 82
-2640.2297 3419.2913 -121.0921 0.774 0.183 0.606 97 79 83
-2635.5244 3424.7756 -124.5160 0.904 0.280 0.323 95 77 80
-2631.3511 3453.6665 -135.2390 -0.087 -0.956 0.279 75 58 61
-2625.4692 3457.7141 -138.6206 -0.115 -0.961 0.252 66 48 51
-2615.8416 3457.0286 -141.8171 0.341 -0.934 0.107 43 30 29
-2610.1411 3461.2656 -145.1950 0.848 -0.133 -0.514 41 27 26
-2618.1660 3482.9172 -149.2743 0.957 0.138 -0.256 37 23 22
-2614.5940 3489.9084 -152.7782 0.954 0.160 -0.252 35 22 21
-2535.2927 3456.7312 -170.2995 -0.307 -0.917 0.255 119 86 91
-2529.6992 3472.3518 -177.2811 0.568 -0.317 0.759 130 97 103
-2507.1558 3465.6560 -183.1373 0.447 -0.739 0.505 121 87 93
-2504.2451 3473.2925 -186.6128 0.433 -0.760 0.485 120 85 91
-2530.6265 3555.1055 -203.4256 0.469 -0.471 0.747 187 138 142
-2542.0671 3582.3638 -208.0866 0.894 -0.421 -0.152 191 142 146
-2508.7820 3561.0269 -213.0700 0.691 -0.046 -0.721 199 150 153
-2620.4907 3762.6833 -237.9482 0.831 -0.096 -0.549 214 171 165
-2255.6362 3776.2712 -371.7402 0.202 -0.766 0.610 217 180 174
-2248.6272 3777.7412 -374.6971 0.182 -0.762 0.622 215 180 176
-2164.3442 3703.3293 -380.7949 0.289 -0.749 0.596 223 188 184
-1850.2009 4623.8760 -786.7360 -0.267 -0.929 0.256 223 192 189
-1850.9696 4643.4072 -792.7114 -0.305 -0.948 0.093 215 186 182
-1770.2404 4460.6084 -762.8747 0.887 -0.435 0.158 211 184 177
-1770.0916 4477.2539 -768.2525 0.857 -0.490 0.157 212 185 178
-1765.2229 4482.1694 -771.5523 0.809 -0.462 0.364 212 185 178
-1759.1810 4484.1294 -774.3230 0.804 -0.474 0.358 211 184 177
-1764.1797 4513.9326 -782.0837 0.272 -0.918 0.289 211 184 177
-1764.0013 4530.8096 -787.5460 0.043 -0.900 0.434 206 181 174
-1763.4607 4546.8564 -792.8713 0.008 -0.893 0.450 203 180 174
-1744.0684 4549.7217 -800.6681 0.444 -0.846 0.295 189 177 175
-1773.6608 4643.8823 -820.2916 0.986 -0.091 -0.139 185 172 169
-1779.4143 4676.8428 -828.7944 0.995 0.016 -0.096 180 167 164
-1740.7029 4594.0425 -816.0405 0.913 0.033 -0.406 180 167 164
-1739.9095 4609.8267 -821.3714 0.908 0.026 -0.418 181 167 164
-1740.1151 4628.3213 -827.2150 0.875 -0.296 -0.383 182 166 164
-1731.1156 4622.6123 -828.5815 0.882 -0.409 0.234 186 164 164
-2650.3152 2033.1327 318.9731 0.632 -0.718 0.292 52 39 30
-2629.1646 2045.9551 307.3857 0.629 -0.246 0.738 55 29 17
-2626.6604 2051.0955 304.8500 0.653 -0.236 0.720 72 42 31
-2649.4580 2074.1047 305.5055 0.938 -0.213 0.275 94 62 51
-3025.3789 2835.7588 193.4938 0.630 -0.637 -0.444 81 50 30
-3025.6052 2845.4380 190.4636 0.635 -0.549 -0.543 70 39 19
-3011.2283 2842.2837 186.4012 0.037 -0.933 -0.359 70 39 19
-2673.4470 2817.7219 75.0374 0.738 0.196 -0.645 192 126 102
-2680.1292 2833.5959 72.2959 0.718 0.105 -0.688 231 165 141
-2697.2893 2974.8838 32.9562 0.660 -0.648 -0.381 187 101 90
-2656.3201 2961.3794 22.8309 0.913 -0.401 -0.075 166 101 81
-2970.7349 3379.3320 -0.4585 0.295 -0.255 -0.921 153 101 103
-2638.1770 3214.8848 -65.0305 0.942 0.047 -0.331 160 114 114
-2645.8479 3234.3601 -68.5800 0.608 -0.120 0.785 155 109 109
-2651.1704 3261.9180 -75.5556 0.621 -0.026 0.784 145 99 99
-2652.2991 3350.3423 -103.5695 0.634 -0.232 0.737 25 8 8
-2651.3411 3371.3467 -110.6569 0.776 0.026 0.630 4 3 0
-2642.1199 3371.2881 -113.8936 0.771 -0.007 0.637 19 20 15
-2631.0239 3368.9045 -117.0453 0.720 0.165 0.674 57 51 49
-2629.2727 3377.8909 -120.5510 0.723 0.167 0.670 126 105 110
-2630.4666 3390.5159 -124.1861 0.775 0.183 0.605 129 104 111
-2630.9663 3402.3364 -127.8079 0.774 0.183 0.606 131 104 111
-2629.5728 3457.2336 -145.9393 -0.112 -0.961 0.255 117 92 96
-2620.2439 3456.9414 -149.1390 0.423 -0.898 0.122 111 85 88
-2613.6726 3460.0886 -152.4703 0.851 -0.136 -0.507 105 78 82
-2619.5166 3478.9517 -156.4681 0.957 0.138 -0.256 97 69 73
-2615.8230 3485.7798 -159.9661 0.954 0.153 -0.256 95 68 71
-2619.4812 3501.9993 -163.8863 0.954 0.153 -0.256 102 76 79
-2548.8240 3468.6638 -178.1210 -0.309 -0.920 0.242 152 111 119
-2508.5869 3531.3733 -212.4766 0.936 -0.230 -0.265 193 144 147
-1778.8676 4490.1064 -778.1671 0.612 -0.655 0.443 217 190 183
-1778.6239 4506.6411 -783.5661 0.628 -0.660 0.412 217 190 183
-1772.6588 4508.9102 -786.4011 0.629 -0.664 0.406 218 191 184
-1777.0156 4554.5615 -799.5314 0.388 -0.797 0.463 221 194 187
-1773.7434 4563.7539 -803.6404 0.412 -0.791 0.453 220 196 190
-1755.3933 4551.9966 -806.3412 0.244 -0.929 0.279 210 190 189
-1764.3657 4592.6323 -816.2305 0.987 -0.155 -0.043 204 184 185
-1752.9830 4598.7461 -822.2137 0.722 -0.118 -0.681 198 179 177
-1750.8878 4611.1304 -826.9327 0.931 0.066 -0.358 199 180 179
-1734.4216 4603.8496 -830.4067 0.918 0.040 -0.395 200 179 178
-1750.7877 4664.9141 -844.2498 0.951 0.022 -0.310 202 178 178
-2618.6069 2042.2504 297.9411 0.644 -0.254 0.721 70 40 29
-2617.5728 2048.4036 295.5919 0.739 -0.143 0.659 68 36 23
-2541.0171 2211.0095 216.2179 0.685 -0.723 0.090 132 83 66
-3025.6692 2738.4436 216.2710 0.719 -0.577 0.388 99 67 46
-2989.1143 2837.1904 171.5597 0.102 -0.687 -0.720 80 46 27
-2673.3550 2794.7988 74.3055 0.740 0.162 -0.653 133 67 43
-2678.3882 2818.1533 68.5366 0.746 0.197 -0.636 186 120 96
-2733.6624 2978.3242 36.2640 0.597 -0.698 -0.395 169 85 63
-2715.9265 2969.8977 32.7524 0.659 -0.639 -0.397 179 91 81
-2715.6367 2979.3694 29.5938 0.668 -0.645 -0.371 176 92 84
-2712.4182 2985.8391 26.3751 0.678 -0.634 -0.371 172 93 86
-2706.5208 3299.3682 -76.8821 0.050 -0.908 -0.415 169 123 123
-2648.0796 3339.8743 -110.4867 0.634 -0.232 0.737 22 6 6
-2641.6826 3354.2334 -117.3683 0.820 0.091 0.565 9 8 3
-2636.5667 3359.1064 -120.7384 0.771 -0.007 0.637 6 8 3
-2620.7180 3350.9204 -123.6645 0.720 0.165 0.674 24 20 17
-2618.9675 3359.8447 -127.1598 0.723 0.167 0.670 118 93 99
-2619.1494 3371.1606 -130.7479 0.777 0.188 0.601 159 128 137
-2619.0254 3382.1423 -134.3354 0.777 0.188 0.601 156 124 132
-2632.3135 3409.7102 -138.5640 0.879 0.230 0.418 160 129 137
-2626.1311 3413.3267 -141.9032 0.896 0.283 0.341 155 124 132
-2622.9304 3454.6919 -156.3775 0.423 -0.898 0.122 162 124 131
-2618.0520 3459.9771 -159.7971 0.851 -0.136 -0.507 164 124 132
-2620.8657 3474.9910 -163.6540 0.957 0.138 -0.256 163 123 131
-2617.4109 3482.1135 -167.1664 0.955 0.150 -0.257 159 118 127
-2620.9951 3498.2148 -171.1036 0.955 0.150 -0.257 147 108 116
-2502.8174 3414.5803 -185.6313 0.919 0.245 0.309 148 100 110
-2500.2217 3514.3188 -218.7320 0.872 -0.294 -0.392 198 148 151
-2535.5562 3573.6626 -225.4700 0.734 0.010 -0.679 209 160 163
-1779.6038 4534.5059 -801.1507 0.197 -0.964 0.178 221 194 187
-1775.5188 4541.5757 -804.8675 0.974 -0.224 -0.032 221 194 187
-1740.4417 4556.9053 -822.1384 0.658 -0.191 -0.728 218 191 192
-1748.5952 4595.7295 -831.8035 0.879 0.006 -0.478 218 191 192
-1772.8380 4676.7837 -849.4451 0.922 0.075 -0.379 218 191 192
-1709.8765 4530.1108 -824.2294 0.906 -0.085 -0.415 218 191 192
-1731.4110 4604.3491 -840.6227 0.549 -0.718 -0.427 218 190 189
-1694.7865 4543.2544 -833.7728 0.828 -0.520 -0.212 218 190 189
-1695.4403 4562.7466 -839.8338 0.833 -0.512 -0.210 218 190 187
-1649.9135 4458.9053 -822.3160 0.987 -0.032 0.158 219 191 190
-1654.2054 4487.8818 -830.1597 0.972 -0.182 -0.151 219 191 190
-1652.4207 4500.6748 -834.9153 0.963 -0.151 -0.224 219 191 190
-1656.4575 4529.2852 -842.7306 0.954 -0.144 -0.262 221 189 190
-3011.8755 2695.3284 216.8331 0.192 -0.900 0.391 110 69 51
-3021.1377 2712.0928 214.6372 0.803 -0.520 -0.293 109 70 51
-3060.7222 2754.3140 214.7903 0.997 -0.048 0.063 100 67 46
-3064.1956 2766.4800 212.0611 0.998 -0.025 0.056 99 67 46
-3152.7705 2869.6462 209.5864 0.765 0.397 -0.507 96 64 43
-2907.4238 2696.9763 179.7826 0.408 -0.795 -0.449 88 57 37
-3064.4536 2880.0374 175.3426 0.658 -0.211 -0.723 83 52 32
-2687.2856 2822.4644 62.1463 0.994 0.025 0.110 203 137 113
-2694.1157 2847.8108 56.3182 0.848 0.240 -0.473 202 134 111
-2728.5894 2978.1936 26.1076 0.719 -0.592 -0.364 174 93 85
-2725.3411 2984.6487 22.8797 0.719 -0.595 -0.360 172 93 89
-2721.9221 2990.9355 19.6466 0.721 -0.596 -0.354 168 94 91
-3001.3242 3401.3972 -15.7222 0.340 -0.212 -0.916 162 110 112
-2642.8499 3328.2258 -117.3271 0.609 -0.310 0.730 21 5 5
-2642.5093 3338.7959 -120.8724 0.961 0.244 -0.133 14 5 2
-2634.2773 3339.8887 -124.1044 0.765 0.022 0.643 8 7 2
-2627.1111 3342.2385 -127.3715 0.783 0.005 0.622 7 9 3
-2620.4617 3345.1936 -130.6539 0.785 0.146 0.602 19 14 10
-2617.8965 3353.1064 -134.1156 0.806 0.235 0.544 97 67 75
-2619.0911 3365.6343 -137.7588 0.806 0.235 0.544 157 121 131
-2622.3640 3380.7629 -141.5184 0.807 0.232 0.543 160 123 134
-2624.2786 3394.2869 -145.2327 0.814 0.237 0.531 160 123 133
-2609.8591 3387.6782 -148.1316 0.852 0.147 0.503 160 122 130
-2611.9612 3412.7173 -155.5130 0.462 -0.761 0.455 161 121 130
-2624.5225 3451.0703 -163.5534 0.727 -0.680 -0.097 170 121 132
-2622.5825 3460.0486 -167.1418 0.847 -0.133 -0.515 171 119 131
-2614.6294 3461.4570 -170.3788 0.959 0.134 -0.251 172 119 131
-2618.0898 3477.3005 -174.3045 0.958 0.135 -0.253 173 120 132
-2495.1008 3398.9802 -191.9147 0.930 0.297 0.218 129 76 88
-1772.9392 4543.2637 -815.2930 0.173 -0.955 0.241 222 193 189
-1755.9666 4534.9858 -818.5435 0.163 -0.877 0.452 221 189 192
-1749.1577 4535.0210 -820.9352 0.163 -0.877 0.452 222 189 194
-1742.3666 4535.0557 -823.3207 0.163 -0.877 0.452 221 189 192
-1661.4751 4343.7988 -789.6060 0.937 -0.300 -0.179 222 189 192
-1634.5530 4357.6025 -803.4924 0.224 -0.965 -0.133 218 190 189
-1640.0612 4389.1128 -811.7806 0.386 -0.900 -0.203 218 190 187
-1605.6357 4331.5786 -805.1664 0.883 -0.060 0.466 219 191 188
-1607.7211 4371.1021 -817.2487 0.986 0.116 0.118 220 190 190
-1644.6075 4487.8481 -842.1954 0.923 -0.064 -0.379 221 189 190
-2373.7288 1877.0186 252.7388 0.937 0.347 0.047 124 92 79
-2948.1833 2611.9316 213.3232 0.868 0.035 -0.496 115 74 56
-2963.2466 2633.0823 211.6777 0.792 -0.610 -0.045 110 69 51
-3120.7080 2866.6101 190.4287 0.094 -0.426 -0.900 97 64 43
-3091.5020 2860.6624 182.2050 -0.012 -0.961 -0.278 95 64 44
-2929.3909 2729.7498 168.4297 0.444 -0.623 -0.644 95 64 44
-3005.2854 2823.6355 164.2667 0.713 -0.355 -0.605 90 59 39
-2691.8831 2813.2866 58.6115 0.992 0.071 0.108 156 90 66
-2683.7678 2814.5742 55.3692 0.915 0.043 0.402 199 133 109
-2742.8687 2988.1096 19.4338 0.691 -0.599 -0.404 171 93 90
-2759.1045 3014.6362 16.4460 0.695 -0.593 -0.406 168 94 94
-2639.6794 3330.0161 -127.7717 0.947 0.268 0.178 16 4 2
-2628.8958 3328.0220 -130.8739 0.719 -0.237 0.654 9 7 2
-2629.0808 3339.2212 -134.4554 0.229 -0.521 0.822 8 8 2
-2616.3035 3334.7500 -137.4447 0.231 -0.522 0.821 13 6 3
-2606.3428 3333.6333 -140.5462 0.780 0.136 0.610 66 33 42
-2605.2610 3343.3079 -144.0722 0.782 0.138 0.608 151 112 123
-2604.2322 3353.0774 -147.6106 0.782 0.138 0.608 164 123 135
-2602.3340 3361.8086 -151.1133 0.783 0.137 0.607 160 118 130
-2601.2964 3371.6243 -154.6698 0.783 0.137 0.607 162 120 130
-2622.9875 3432.1914 -166.8418 0.124 -0.845 0.521 168 119 131
-2627.3003 3460.3474 -174.5078 0.814 -0.579 -0.047 177 115 130
-2628.4109 3473.1980 -178.3051 0.790 -0.173 -0.588 179 116 131
-2490.0276 3386.8564 -198.3363 0.894 0.406 -0.189 137 80 94
-2512.8823 3461.9607 -214.8360 0.646 -0.392 0.654 201 143 155
-1739.3868 4553.1436 -839.1526 0.943 0.148 -0.298 225 188 192
-1749.8656 4597.9761 -850.1028 0.943 0.148 -0.298 224 188 192
-2374.2441 1868.2936 249.5262 0.931 0.360 0.058 164 133 117
-2395.0649 1895.4380 247.8579 0.971 -0.141 -0.192 174 143 125
-2368.3926 1889.0710 240.7072 0.349 -0.840 -0.416 156 125 107
-2354.5920 1885.4730 237.1066 0.044 -0.729 -0.683 127 92 75
-2336.1313 1884.6847 230.9742 0.079 -0.748 -0.659 106 62 44
-2330.6128 1886.9238 228.3318 0.480 -0.554 0.680 121 77 59
-3001.8416 2687.5171 198.9109 0.158 -0.940 0.301 110 69 51
-3003.8040 2855.6863 144.6049 -0.106 -0.991 -0.086 92 54 34
-2676.0171 2793.3831 51.5133 0.764 -0.053 0.643 157 90 66
-2610.6516 3215.0923 -108.9964 0.175 -0.943 -0.283 158 111 110
-2631.4124 3303.8625 -130.8347 0.609 -0.333 0.720 21 1 0
-2641.5842 3326.9270 -134.8550 0.911 0.233 0.341 16 4 0
-2613.0850 3325.4727 -144.2444 0.231 -0.522 0.821 14 6 3
-2595.6995 3337.2209 -154.1036 0.783 0.137 0.607 166 124 135
-2588.9753 3339.9741 -157.3313 0.790 0.149 0.595 158 116 125
-2436.4934 3290.2886 -193.8672 0.830 0.452 -0.328 134 76 86
-2469.3191 3343.4866 -199.8985 0.880 0.429 -0.205 150 91 103
-2350.4331 1892.0834 227.2831 0.033 -0.736 -0.677 120 86 62
-2299.5769 1873.9337 215.7270 -0.031 -0.744 -0.667 123 89 65
-2984.7620 2642.4502 199.3587 0.960 -0.201 0.194 126 78 59
-2973.2507 2659.5735 189.7712 0.674 -0.732 -0.100 125 78 59
-3130.3704 2983.2053 137.6144 0.941 -0.122 -0.314 92 56 37
-3147.4092 3008.4512 135.1928 0.888 -0.289 -0.358 90 54 35
-2662.6487 2757.8350 50.5268 0.820 0.191 0.539 126 53 29
-2677.1860 2780.9990 47.9272 0.791 -0.019 0.612 147 73 50
-3738.3362 4131.4878 -30.0549 0.703 -0.596 -0.389 173 112 113
-2621.7854 3212.3496 -112.7982 0.015 -0.909 -0.416 178 124 119
-2604.7263 3203.0320 -115.6141 0.022 -0.939 -0.344 172 118 113
-2607.6104 3291.7720 -143.7606 0.556 -0.546 0.626 15 4 0
-2618.9629 3316.2773 -147.8975 0.240 -0.516 0.822 14 5 2
-2608.1978 3314.2046 -150.9246 0.235 -0.524 0.819 15 5 3
-2596.8972 3311.4290 -153.9052 0.238 -0.519 0.821 28 4 4
-2558.0979 3296.7451 -162.4468 0.286 -0.604 0.744 165 126 128
-2347.8735 1777.9446 257.8268 0.757 0.173 -0.631 47 33 24
-2373.9858 1819.5370 253.0589 0.817 0.292 -0.498 58 34 29
-2379.9207 1897.7405 229.3025 0.018 -0.729 -0.684 193 162 133
-2367.5144 1895.1667 225.8997 0.036 -0.731 -0.681 194 160 133
-2362.4927 1897.8416 223.2967 0.036 -0.731 -0.681 182 150 125
-2315.6140 1882.7157 212.2198 -0.114 -0.735 -0.668 85 53 28
-2304.1006 1880.5328 208.9940 -0.120 -0.730 -0.672 115 81 56
-2294.8535 1879.9611 206.0137 -0.118 -0.727 -0.676 126 92 67
-3042.9529 2852.6333 141.6136 0.405 -0.668 0.624 105 66 49
-3026.2627 2876.1138 128.1505 0.219 -0.830 0.514 94 61 42
-2703.0723 2774.2583 50.9845 0.245 -0.970 0.001 112 47 22
-2768.7786 2846.5818 49.6507 0.066 -0.733 0.677 126 53 29
-2677.1506 2776.5999 41.3290 0.783 -0.121 0.611 149 73 50
-3787.8049 4177.0308 -39.8925 0.634 -0.626 -0.454 173 111 112
-2663.0457 3276.5032 -128.3645 0.532 -0.452 0.716 170 117 113
-2654.7217 3277.5400 -131.5590 0.542 -0.453 0.708 162 110 107
-2644.6387 3276.4758 -134.6635 0.535 -0.458 0.710 131 86 88
-2607.4717 3275.5232 -147.0862 0.925 -0.292 0.244 21 2 0
-2610.5427 3289.9822 -150.8022 0.629 -0.391 0.672 17 3 0
-2615.1770 3306.3838 -154.6231 0.392 -0.494 0.776 16 4 0
-2598.5400 3297.2170 -157.3014 0.437 -0.471 0.766 17 5 3
-2565.9663 3290.2139 -166.1548 0.222 -0.559 0.799 160 128 126
-2556.3679 3289.3086 -169.1456 0.286 -0.604 0.744 164 126 127
-2315.2349 1741.7781 252.6234 0.887 0.158 -0.435 44 34 24
-2348.4106 1769.6665 254.6990 0.830 0.220 -0.512 44 34 24
-2349.2981 1776.1711 252.8472 0.747 0.151 -0.647 47 33 24
-2363.1365 1791.3835 252.5275 0.665 0.013 -0.747 46 27 15
-2365.3542 1798.8600 250.8076 0.652 -0.002 -0.758 55 32 21
-2390.6685 1821.9775 251.7827 0.833 0.172 -0.527 65 43 32
-2386.7063 1837.5850 245.2626 0.366 -0.432 0.824 133 110 99
-2379.2017 1838.5619 242.3802 0.373 -0.551 0.747 164 142 130
-2393.6042 1885.6979 231.6801 0.991 -0.016 0.130 193 162 131
-3012.6499 2683.7725 178.4411 0.995 -0.035 -0.095 126 78 58
-3017.4941 2825.8943 133.0232 0.300 -0.798 0.522 105 66 49
-3008.8855 2837.2158 126.3383 0.303 -0.795 0.526 102 68 49
-3098.0171 2954.8242 117.7786 0.513 -0.366 -0.776 99 66 47
-2646.1377 3272.9727 -141.6679 0.628 -0.463 0.625 139 92 95
-2624.5530 3269.0393 -147.7250 -0.101 -0.968 0.229 63 26 26
-2611.5989 3285.9490 -157.7424 0.617 -0.385 0.687 19 3 0
-2554.6443 3281.8984 -175.8207 0.286 -0.604 0.744 166 128 128
-2434.3391 3250.1208 -206.3170 0.937 -0.182 0.298 188 133 136
-2562.9060 3504.7419 -246.8078 0.983 0.170 -0.069 202 154 150
-2817.6624 1554.4767 479.4245 0.721 0.189 -0.666 38 30 19
-2349.4431 1767.6398 249.6838 0.581 0.013 -0.814 44 34 24
-2358.4460 1779.5499 248.7767 0.737 0.149 -0.659 47 33 23
-2372.4062 1800.8411 246.4312 0.665 0.017 -0.746 57 36 19
-2392.9722 1820.7335 246.7919 0.817 0.156 -0.555 73 51 35
-2387.1121 1835.0416 240.0450 0.380 -0.580 0.721 178 156 139
-3003.4973 2828.0090 118.8908 0.338 -0.777 0.531 106 72 53
-3015.0154 2847.5935 116.2845 0.254 -0.836 0.487 105 72 53
-3020.4629 2861.9104 113.3708 0.425 -0.895 -0.135 105 72 53
-3047.3855 2905.0227 108.1650 0.627 -0.175 -0.759 103 70 51
-2624.5681 2734.9636 21.2868 -0.034 -0.795 -0.605 169 93 70
-2702.9358 3290.6904 -136.9624 0.331 -0.130 -0.935 194 139 134
-2646.0225 3246.1880 -141.4685 -0.115 -0.956 0.271 181 128 124
-2644.5669 3265.8767 -148.5108 0.628 -0.463 0.625 145 98 101
-2624.0603 3263.2061 -154.5794 -0.149 -0.964 0.221 69 33 33
-2608.6189 3277.1079 -164.4416 0.606 -0.369 0.705 19 2 0
-2819.9819 1535.8584 479.8833 0.049 -0.635 -0.771 53 45 34
-2661.9399 1606.5240 402.9372 0.993 0.108 0.038 34 24 15
-2662.0195 1612.3053 401.0331 0.993 0.113 0.038 34 24 15
-2350.0774 1753.6014 248.5506 0.673 0.051 -0.738 57 47 37
-2355.7417 1763.2096 247.2532 0.613 0.063 -0.788 43 33 23
-2358.6436 1771.0314 245.6201 0.613 0.063 -0.788 38 28 18
-2364.6011 1780.9187 244.3285 0.736 0.137 -0.663 52 38 27
-2378.1001 1795.8937 243.8830 0.594 -0.020 -0.805 49 30 9
-2380.2441 1803.3369 242.1206 0.594 -0.020 -0.805 77 57 34
-2397.2109 1820.7920 242.0171 0.816 0.155 -0.557 122 102 77
-2391.8403 1829.3395 237.3494 0.772 0.190 -0.606 184 164 138
-2387.6519 1832.5930 234.8490 0.569 -0.358 0.740 185 165 140
-3008.1677 2865.5417 99.2748 0.526 -0.259 -0.810 110 77 58
-2869.8960 3098.8560 -25.3243 -0.171 -0.941 -0.291 172 111 108
-2612.9094 3192.0391 -143.1878 0.045 -0.839 -0.543 191 136 131
-2465.9111 3268.8083 -218.4450 0.926 0.369 0.085 202 147 150
-2714.2737 3617.6895 -251.1457 0.974 0.190 0.125 202 153 150
-2782.5972 3729.4309 -265.4074 0.938 -0.174 0.299 201 153 149
-2778.3687 3736.3882 -269.1585 0.945 -0.161 0.283 203 155 151
-2662.2966 1604.1407 397.5109 0.997 -0.001 -0.076 39 29 20
-2662.1755 1609.8102 395.5686 0.997 0.004 -0.076 39 29 20
-2595.7029 1625.9695 367.8269 0.961 -0.074 0.266 43 34 25
-2351.0237 1734.0485 249.4115 0.898 0.138 -0.417 44 34 24
-2362.0679 1752.9149 246.7921 0.740 0.158 -0.654 44 34 24
-2364.5703 1760.4314 245.1112 0.825 0.195 -0.530 42 32 22
-2367.4683 1768.2377 243.4660 0.825 0.195 -0.530 34 24 14
-2370.5254 1776.1807 241.8285 0.826 0.192 -0.530 40 27 18
-2372.2190 1783.2494 240.0262 0.749 0.152 -0.645 59 46 33
-2381.0024 1795.0732 239.0097 0.747 0.150 -0.648 97 79 51
-2399.3486 1819.4321 237.0001 0.820 0.150 -0.553 154 135 104
-2386.5391 1816.8710 233.5577 0.808 0.281 -0.517 178 159 128
-2843.3313 3107.6179 -45.9877 -0.180 -0.983 -0.029 169 108 107
-2795.2244 3078.2224 -52.2824 0.145 -0.981 -0.131 169 108 107
-2643.4685 3264.8252 -165.8320 -0.216 -0.976 -0.000 173 133 133
-2570.2837 3252.8613 -186.3948 0.663 -0.313 0.680 23 4 1
-2720.6824 3619.9363 -259.0133 0.974 0.189 0.126 202 153 150
-1962.1539 4183.6753 -702.8164 0.462 -0.260 -0.848 228 195 190
-1794.5509 3974.5005 -688.9374 0.964 0.058 -0.258 227 196 191
-1791.9332 3983.1992 -692.7341 0.971 0.162 -0.178 231 198 193
-2699.6438 1502.3329 437.9388 0.787 -0.484 0.382 50 42 31
-2663.2385 1596.3522 394.1088 0.525 -0.341 0.780 46 36 27
-2622.3799 1620.5948 372.2932 0.586 -0.422 0.692 46 37 28
-2587.3845 1613.1976 363.0934 0.958 -0.091 0.273 44 35 26
-2352.8650 1726.7881 246.4850 0.951 0.195 -0.238 46 33 24
-2368.7402 1766.3616 238.4594 0.552 -0.128 -0.824 41 28 19
-2378.3918 1778.6527 237.5439 0.742 0.144 -0.655 60 47 38
-2377.9072 1784.2864 235.4844 0.756 0.153 -0.636 89 76 64
-2394.6443 1807.4329 233.2797 0.614 -0.012 -0.790 161 143 108
-2306.0120 1929.9171 162.4138 0.666 0.043 -0.745 151 105 87
-2830.7356 3120.3831 -63.2624 0.047 -0.973 -0.224 175 113 114
-2673.4849 3251.7014 -160.0280 0.090 -0.873 -0.479 191 136 131
-2705.5718 3299.5354 -165.4199 -0.201 -0.609 -0.767 190 137 133
-2648.9878 3266.0452 -173.0432 -0.216 -0.976 -0.000 183 141 142
-2620.6089 3243.4678 -174.9196 0.377 -0.405 0.833 170 134 133
-2577.7998 3245.9814 -190.0679 0.536 -0.696 0.477 20 8 1
-2569.4338 3246.6135 -193.0757 0.561 -0.685 0.465 31 11 6
-2553.1143 3258.9478 -202.6822 0.384 -0.822 0.421 127 89 90
-2548.8938 3264.5249 -205.9706 0.391 -0.814 0.430 132 88 90
-2544.0337 3269.3220 -209.2101 0.358 -0.919 0.167 151 101 104
-2755.0537 3621.5188 -257.3404 0.477 -0.286 -0.831 202 147 150
-2748.0554 3624.7036 -260.7511 0.450 -0.294 -0.843 200 148 150
-1793.9965 3923.2229 -680.0320 0.946 -0.323 -0.002 229 196 191
-1790.2581 3929.3406 -683.3416 0.952 -0.306 0.011 229 196 191
-1793.4926 3950.4773 -689.3803 0.969 -0.240 0.053 226 195 190
-1787.8093 3952.4653 -691.9486 0.957 0.032 -0.288 228 197 192
-1801.4875 3996.4333 -702.1884 0.971 0.145 0.190 229 198 193
-1807.6014 4038.8301 -714.4261 0.945 0.029 0.326 230 199 194
-1791.7490 4062.7715 -727.7861 0.736 -0.612 0.291 232 199 194
-2620.3552 1611.2269 368.4964 0.758 -0.076 0.648 51 42 33
-2622.3464 1618.0021 366.8667 0.735 -0.077 0.673 51 42 33
-2599.7925 1628.7599 355.7321 0.983 -0.106 0.151 44 35 26
-2336.6047 1707.9359 241.4794 0.958 0.034 -0.285 47 36 26
-2345.7522 1719.5564 240.5892 0.878 0.107 -0.467 47 33 24
-2343.9209 1724.1389 238.4307 0.893 0.118 -0.434 47 33 24
-2371.0210 1747.5125 239.5320 0.535 -0.206 -0.819 47 33 24
-2375.9878 1756.6130 238.1047 0.551 -0.063 -0.832 47 33 24
-2375.7905 1762.3756 236.0901 0.553 -0.139 -0.821 53 39 30
-2355.0745 1754.6729 231.8102 0.693 0.014 -0.720 62 47 39
-2378.1707 1775.7764 232.3486 0.516 -0.239 -0.823 91 76 67
-2386.2427 1787.0671 231.2125 0.742 0.139 -0.655 126 110 98
-2399.9661 1808.2083 228.6231 0.615 -0.011 -0.789 178 159 122
-2407.8110 1819.5161 227.4058 0.493 -0.097 -0.865 186 167 129
-2339.8530 1870.5732 187.5503 0.920 -0.128 0.370 196 165 139
-2345.5691 1899.5406 179.6524 0.698 -0.487 0.525 190 159 133
-2341.4287 1902.8007 177.1737 0.698 -0.487 0.525 191 158 133
-2337.0884 1905.9098 174.6796 0.697 -0.525 0.489 185 148 127
-2332.9199 1909.1383 172.2021 0.697 -0.525 0.489 210 172 152
-2325.0312 1909.6282 169.4146 0.734 -0.496 0.464 216 178 158
-2313.0493 1907.0728 166.2966 0.510 -0.827 -0.237 201 162 142
-2313.4980 1958.0513 149.2033 -0.181 -0.981 0.062 145 92 79
-2312.0759 1963.3795 146.9285 0.924 -0.255 -0.284 141 89 76
-2313.6663 1971.0255 144.8710 0.908 -0.230 -0.351 141 89 76
-2879.1414 3134.5410 -60.7230 -0.243 -0.943 -0.227 181 119 117
-2735.3450 3328.6455 -174.1670 -0.073 -0.524 -0.849 190 137 132
-2616.6733 3233.6555 -181.4803 0.377 -0.405 0.833 180 141 140
-2608.6418 3234.8328 -184.5478 0.377 -0.405 0.833 182 151 147
-2576.7769 3239.5483 -196.7334 0.502 -0.734 0.456 24 8 1
-2567.4221 3238.9893 -199.6534 0.545 -0.681 0.489 36 17 11
-2545.2236 3254.8127 -212.3832 0.395 -0.815 0.425 166 124 125
-2543.0908 3262.9080 -215.8302 0.373 -0.909 0.186 175 128 130
-2536.1428 3265.1326 -218.8919 0.373 -0.909 0.186 184 133 137
-2638.3225 3457.7976 -250.0964 0.928 0.214 0.304 202 148 149
-2287.7332 3489.8345 -377.4540 0.909 0.412 -0.063 207 168 161
-2303.1260 3524.0564 -383.9129 0.878 0.454 -0.154 208 169 162
-1938.7494 4119.5659 -706.4358 0.981 0.059 0.185 224 193 185
-1868.5748 4045.6956 -704.7739 0.410 -0.888 0.207 226 193 188
-1806.4196 3942.3843 -690.4888 0.950 -0.040 0.310 229 197 192
-1797.4229 3937.3274 -691.7687 0.974 -0.222 0.052 228 197 192
-1796.9725 3950.5537 -696.3918 0.979 -0.185 0.084 224 194 189
-1792.1954 3954.5107 -699.3179 0.960 0.034 -0.279 221 191 186
-1795.1835 3975.2705 -705.3464 0.958 0.034 -0.286 221 191 186
-1800.2458 4000.6597 -712.2512 0.976 0.134 0.174 223 193 188
-1800.2671 4015.2063 -717.1642 0.970 0.137 0.200 224 194 189
-1799.9634 4029.1130 -721.9689 0.962 0.027 0.272 228 197 192
-1794.9242 4032.6750 -724.8484 0.771 -0.366 0.521 232 200 195
-1791.6755 4040.1763 -728.4653 0.358 -0.696 0.622 234 201 196
-1785.5002 4041.2097 -730.8673 0.358 -0.696 0.622 236 202 197
-1765.1991 4010.7849 -727.3240 0.717 -0.682 0.144 234 201 196
-1781.9459 4062.8230 -739.3589 0.405 -0.686 0.604 231 198 193
-1773.6456 4059.0696 -740.8481 0.397 -0.695 0.600 231 198 193
-2617.1831 1612.6781 360.6815 0.870 -0.493 -0.005 57 47 38
-2619.4829 1619.6206 359.0840 0.853 -0.509 0.113 57 47 38
-2612.7896 1621.7527 356.1468 0.886 -0.462 0.043 59 49 40
-2604.2729 1622.8846 352.9464 0.996 -0.043 0.082 59 49 40
-2371.3660 1727.5820 240.3793 0.854 0.145 -0.500 49 32 24
-2357.1978 1724.2792 236.8165 0.950 0.074 -0.305 48 28 21
-2355.6445 1729.0641 234.6778 0.930 0.089 -0.357 49 27 21
-2382.4106 1752.2111 235.6662 0.528 -0.192 -0.827 51 29 23
-2383.9260 1759.0807 233.8341 0.571 -0.109 -0.813 52 29 23
-2382.0642 1763.7679 231.6265 0.553 -0.139 -0.821 97 73 67
-2357.3838 1753.4974 226.9545 0.684 0.025 -0.729 132 108 102
-2394.0798 1789.5033 226.8588 0.729 0.132 -0.671 174 149 139
-2406.5403 1809.8098 224.0818 0.616 -0.010 -0.788 190 165 131
-2458.5771 1863.1129 223.1837 0.556 -0.033 -0.830 194 167 130
-2330.1497 1860.8132 181.5016 0.584 -0.569 -0.578 195 169 139
-2333.2036 1869.1399 179.6833 0.685 -0.253 -0.683 195 169 139
-2340.4236 1880.4872 178.2166 0.814 -0.184 -0.551 182 156 126
-2331.6008 1886.5490 173.2406 0.951 -0.069 0.302 170 144 115
-2330.5054 1891.9742 171.0358 0.951 -0.069 0.302 165 139 111
-2335.5547 1901.8839 169.3396 0.839 -0.518 -0.164 177 153 133
-2332.1763 1905.6814 166.9328 0.836 -0.528 -0.150 193 169 150
-2324.0203 1912.2434 162.0074 0.605 -0.414 -0.680 185 162 145
-2321.8794 1916.9487 159.7015 0.589 -0.375 -0.716 197 173 156
-2320.5107 1928.5465 155.3099 0.616 -0.006 -0.788 86 63 44
-2296.2581 1961.1011 136.2344 0.399 -0.742 -0.538 144 99 91
-2888.4470 2769.1072 57.6081 -0.363 -0.886 0.288 116 72 56
-2611.7014 3222.6577 -187.9366 0.374 -0.450 0.811 167 118 113
-2603.6174 3223.7488 -190.9801 0.378 -0.448 0.811 155 112 106
-2575.4636 3232.7847 -203.3578 0.731 -0.234 0.641 41 20 12
-2563.5239 3229.1294 -206.0641 0.578 -0.654 0.487 19 6 0
-2539.1333 3263.5269 -225.8112 0.637 -0.584 0.503 189 144 144
-1809.6393 3956.0647 -702.2207 0.711 -0.579 0.400 203 183 176
-1800.4043 3964.7678 -708.2300 0.997 -0.021 -0.069 162 141 134
-1799.3250 3976.7549 -712.6582 0.960 0.018 -0.278 164 142 136
-1800.8759 3994.5002 -718.1723 0.975 0.119 0.187 170 148 142
-1800.0035 4007.0662 -722.7286 0.975 0.089 0.202 177 154 148
-1799.8687 4021.3010 -727.6078 0.951 0.046 0.305 194 166 162
-1795.9821 4027.3730 -730.9551 0.750 -0.458 0.477 219 186 182
-1792.5121 4034.3694 -734.4787 0.358 -0.696 0.622 231 192 190
-1786.3420 4035.4080 -736.8715 0.358 -0.696 0.622 239 202 199
-1774.7457 4024.3669 -736.9557 0.668 -0.742 -0.053 238 200 197
-1761.4778 4009.4734 -736.2842 0.523 -0.785 -0.333 231 196 192
-1771.3348 4046.1653 -745.4870 0.391 -0.694 0.604 231 196 192
-1767.5483 4052.4565 -748.8757 0.389 -0.700 0.599 231 196 192
-2617.4492 1610.2579 355.3270 0.880 -0.474 -0.019 52 42 33
-2620.8904 1617.8010 353.8863 0.861 -0.496 0.112 52 42 33
-2613.6465 1619.6399 350.8765 0.884 -0.464 0.053 53 43 34
-2600.1892 1618.1121 346.9713 0.996 -0.054 0.064 55 45 36
-2343.6152 1695.7737 236.0933 0.937 0.065 -0.345 47 33 24
-2343.8271 1707.3212 232.2249 0.882 0.083 -0.464 48 33 24
-2351.2229 1717.7980 231.0844 0.877 0.199 -0.436 41 19 10
-2355.8848 1732.3580 227.6523 0.880 0.197 -0.432 70 45 37
-2376.2542 1786.8901 215.7545 0.469 -0.197 -0.861 190 164 131
-2465.8306 1858.8823 220.6656 0.611 -0.330 -0.719 192 163 129
-2331.8958 1859.2133 176.4990 0.569 -0.632 -0.526 194 169 139
-2341.3938 1878.3101 173.1103 0.813 -0.194 -0.548 173 148 118
-2338.6663 1882.5529 170.7662 0.948 -0.037 0.316 167 142 112
-2317.8757 1898.5684 158.4659 0.872 0.005 0.490 193 174 157
-2316.6558 1903.9149 156.2413 0.872 0.005 0.490 183 165 148
-2316.2258 1941.4060 143.3139 0.816 -0.555 -0.165 98 59 50
-2290.3359 1959.9606 128.4703 0.181 -0.970 -0.165 155 114 105
-2617.3162 3224.0554 -195.0871 -0.207 -0.933 0.295 145 94 89
-2599.3831 3213.6221 -197.4274 0.394 -0.453 0.800 140 94 88
-2570.7808 3222.0312 -209.7031 0.728 -0.223 0.648 30 8 2
-2563.6204 3224.0632 -212.7513 0.578 -0.654 0.487 18 5 1
-2528.7725 3235.0239 -227.9515 0.526 -0.681 0.509 186 147 144
-2536.2959 3254.8154 -232.2266 0.654 -0.560 0.508 189 145 144
-1814.5433 3959.1313 -709.8252 0.520 -0.677 0.521 139 119 112
-1813.8381 3971.8792 -714.4047 0.549 -0.641 0.537 92 72 65
-1800.8650 3958.3323 -714.0518 0.998 -0.034 -0.059 76 56 49
-1800.6515 3972.1555 -718.8363 0.967 0.026 -0.253 84 64 57
-1798.4246 3981.6873 -722.8195 0.975 0.119 0.187 90 70 63
-1797.9039 3994.9609 -727.5176 0.975 0.089 0.202 97 75 69
-1797.7511 4009.0991 -732.3896 0.951 0.046 0.305 114 87 83
-1795.0072 4017.6326 -736.2023 0.929 -0.217 0.300 150 117 112
-1793.6160 4029.1655 -740.5931 0.792 -0.317 0.521 189 150 147
-1785.4915 4025.8867 -742.1472 0.660 -0.749 -0.051 228 190 187
-1774.7590 4016.7634 -742.5659 0.736 -0.648 -0.196 240 202 199
-1765.1606 4010.0508 -743.4338 0.523 -0.785 -0.333 233 195 192
-1762.1974 4018.0613 -747.1404 0.564 -0.761 -0.321 234 196 193
-1759.7937 4027.3486 -751.0983 0.715 -0.691 0.101 233 195 192
-1756.7590 4035.2478 -754.7904 0.097 -0.912 0.398 234 196 193
-1753.3652 4042.3567 -758.3312 0.074 -0.913 0.402 234 197 191
-2601.5510 1587.9764 351.4931 0.999 0.009 -0.043 42 33 24
-2616.1924 1601.3530 351.7031 0.888 -0.460 -0.009 45 35 26
-2616.4368 1607.1620 349.7938 0.871 -0.491 -0.011 45 35 26
-2613.9902 1611.5511 347.4902 0.871 -0.491 -0.011 45 35 26
-2607.7710 1613.9230 344.6430 0.899 -0.438 0.005 47 37 28
-2557.1235 1614.8846 327.7419 0.908 -0.154 0.389 54 44 35
-2335.0488 1676.4568 233.9939 0.938 -0.067 -0.341 48 34 25
-2342.9741 1692.7662 231.0020 0.942 0.063 -0.330 47 33 24
-2344.6472 1699.5182 229.2372 0.918 0.255 -0.304 47 33 24
-2346.0442 1706.1179 227.4343 0.936 0.090 -0.339 48 32 23
-2350.8186 1714.9042 225.9877 0.923 0.244 -0.297 49 29 14
-2354.1929 1722.8295 224.3777 0.899 0.195 -0.393 74 51 37
-2356.2205 1729.9178 222.6138 0.631 -0.307 -0.712 112 88 74
-2439.4153 1832.2015 214.8086 0.644 0.034 -0.764 192 163 129
-2337.4243 1860.2952 171.8166 0.557 -0.644 -0.524 194 169 138
-2334.6716 1870.6406 167.3732 0.540 -0.828 0.149 179 154 124
-2340.9314 1881.3037 165.7698 0.428 -0.622 0.656 174 149 119
-2329.2878 1879.1315 162.7039 0.422 -0.619 0.663 168 143 113
-2313.5969 1898.7692 150.8450 0.872 0.005 0.490 136 121 102
-2314.8015 1905.8958 148.7987 0.963 0.134 0.236 64 49 30
-2322.6511 1936.9149 140.7447 0.789 -0.312 -0.530 52 21 10
-2318.4175 1940.0924 138.2713 0.835 -0.529 -0.149 69 35 25
-2330.9260 1955.8772 136.9587 -0.202 -0.976 0.078 91 55 45
-2316.7568 1957.9706 131.6057 -0.211 -0.977 0.009 127 93 83
-1983.7017 1828.9772 66.8032 -0.364 -0.928 -0.077 139 88 71
-2921.3506 2780.4827 47.7636 -0.412 -0.817 -0.404 117 71 56
-2687.8259 2848.6553 -51.9912 0.848 -0.468 0.248 179 110 105
-2828.8347 3375.3479 -186.2164 0.707 0.504 -0.497 184 130 120
-2907.7429 3476.2166 -194.9396 0.707 0.503 -0.497 179 125 115
-2591.1636 3198.8604 -203.5451 0.385 -0.473 0.793 152 105 100
-2565.8174 3210.9746 -215.9869 0.751 -0.117 0.650 28 6 0
-2562.0969 3217.0779 -219.2942 0.580 -0.654 0.486 20 8 2
-2531.7664 3233.4551 -234.8268 0.482 -0.270 0.834 185 146 144
-2527.7712 3239.2065 -238.1035 0.546 -0.212 0.810 189 145 144
-2548.6975 3275.3950 -243.6490 0.708 -0.228 0.668 194 146 145
-1858.8458 3974.1438 -708.6517 0.744 -0.020 0.668 227 193 184
-1843.2048 3984.0244 -717.1531 0.669 -0.138 0.730 199 168 161
-1815.2267 3953.1987 -715.7513 0.537 -0.660 0.526 75 56 47
-1813.6715 3964.1011 -719.9937 0.559 -0.633 0.536 46 26 19
-1801.4232 3952.1233 -719.8996 0.998 -0.034 -0.059 45 25 18
-1795.5360 3967.9731 -727.2537 0.974 0.125 0.188 54 34 27
-1795.8160 3982.9214 -732.2809 0.975 0.089 0.202 63 40 34
-1795.6450 3996.9636 -737.1456 0.951 0.046 0.305 72 45 40
-1796.1841 4012.6262 -742.3328 0.952 -0.218 0.215 98 64 62
-1793.5691 4021.4497 -746.2100 0.790 -0.306 0.532 144 104 102
-1790.3181 4028.9004 -749.8251 0.665 -0.745 -0.041 189 149 147
-1779.7198 4020.1221 -750.2869 0.749 -0.641 -0.167 220 182 179
-1774.9100 4024.0845 -753.2175 0.638 -0.758 -0.137 233 195 192
-1764.0031 4029.0994 -758.5036 0.047 -0.950 0.309 233 195 192
-1760.4065 4035.7458 -761.9564 0.070 -0.910 0.409 233 195 192
-1742.4974 4039.5759 -769.1279 0.048 -0.899 0.434 234 197 191
-2609.8508 1595.4596 345.4203 0.736 -0.662 -0.143 41 31 22
-2608.1331 1600.2062 343.2291 0.749 -0.642 -0.164 41 31 22
-2598.0361 1606.1583 337.8961 1.000 0.006 0.020 43 33 24
-2339.3130 1676.5590 229.4792 0.939 -0.057 -0.338 48 34 25
-2344.5623 1691.1732 226.1627 0.942 0.063 -0.330 46 32 23
-2347.0869 1698.4596 224.4790 0.920 0.252 -0.299 47 33 24
-2349.4045 1705.6422 222.7637 0.923 0.244 -0.297 49 34 23
-2351.8911 1712.9598 221.0568 0.923 0.244 -0.297 70 48 29
-2355.7776 1721.2047 219.4868 0.932 0.226 -0.285 105 83 62
-2361.2195 1730.4873 218.0662 0.632 -0.313 -0.709 155 132 112
-2361.6189 1736.5502 216.1115 0.624 -0.305 -0.720 193 170 150
-2390.6531 1784.9778 208.9098 0.507 -0.130 -0.852 188 162 131
-2346.5137 1863.8875 167.4101 0.160 -0.803 -0.575 194 169 138
-2341.6787 1866.6157 164.8983 0.747 -0.535 -0.394 194 169 139
-2345.8079 1875.7269 163.1094 0.476 -0.614 0.630 198 173 143
-2338.9641 1877.0238 160.4359 0.428 -0.622 0.656 192 167 137
-2331.3440 1877.7429 157.7085 0.422 -0.622 0.660 186 161 131
-2326.2227 1880.2399 155.1830 0.428 -0.622 0.656 181 156 128
-2320.5801 1882.3488 152.6213 0.435 -0.607 0.665 186 168 148
-2339.0852 1920.8444 145.4078 0.700 -0.230 -0.676 30 14 1
-2339.1055 1927.1782 143.2364 0.700 -0.230 -0.676 40 24 8
-2338.6296 1933.1628 141.0237 0.760 -0.459 -0.461 47 30 12
-2325.3311 1929.6284 137.9106 0.831 -0.422 -0.363 45 27 10
-2329.3035 1938.9281 136.0059 0.700 -0.447 -0.557 49 24 11
-2323.6587 1941.0630 133.4345 0.913 -0.407 -0.015 55 27 15
-2309.0120 1955.4983 123.7037 -0.252 -0.956 -0.152 108 82 69
-2287.9949 1952.2065 117.9949 -0.235 -0.972 0.025 138 106 94
-2283.1094 1954.8231 115.5051 -0.229 -0.963 0.139 145 107 93
-2253.0996 1944.3411 109.3417 -0.230 -0.968 0.096 149 105 92
-1944.6986 1788.4827 62.5546 0.080 -0.996 -0.045 143 92 75
-2897.6089 2782.5894 30.8864 -0.407 -0.832 -0.377 96 47 30
-2717.4509 2762.7053 -20.9145 0.176 -0.981 -0.079 121 51 39
-2842.9980 3385.9590 -194.3567 0.692 0.479 -0.540 162 108 98
-2732.1650 3292.8682 -198.4216 0.521 0.147 -0.841 148 94 84
-2580.1001 3191.2490 -212.9743 0.391 -0.463 0.796 176 135 125
-2563.1133 3202.6265 -222.4153 0.723 0.019 0.690 34 13 3
-2560.2915 3209.7744 -225.7916 0.720 -0.121 0.683 20 8 2
-2527.1289 3222.6477 -241.0118 0.482 -0.270 0.834 186 147 144
-2517.0730 3221.0046 -243.7199 0.538 -0.215 0.815 189 145 144
-1953.1633 3919.7415 -667.5224 0.698 -0.466 0.543 229 185 176
-1921.2463 3995.8716 -704.0881 0.422 -0.523 -0.741 227 185 173
-1842.5839 3918.9170 -703.2305 0.162 -0.810 -0.564 220 187 180
-1861.2157 3971.7212 -715.3229 0.753 -0.078 0.653 224 189 183
-1857.5502 3978.2693 -718.7675 0.753 -0.078 0.653 223 188 182
-1801.5826 3945.0779 -725.5710 0.999 -0.051 -0.018 58 35 29
-1793.4105 3955.9512 -731.9697 0.975 0.089 0.202 56 35 30
-1793.7389 3970.9458 -737.0187 0.975 0.089 0.202 65 42 36
-1792.1661 3981.8857 -741.2923 0.949 0.046 0.313 87 60 55
-1791.5940 4009.5347 -750.9855 0.793 -0.308 0.526 127 87 85
-1790.5997 4021.9031 -755.5621 0.664 -0.746 -0.054 133 95 92
-1782.4995 4018.6465 -757.0787 0.749 -0.641 -0.167 166 128 125
-1777.8118 4022.8833 -760.0614 0.638 -0.758 -0.137 206 168 165
-1770.2721 4020.7705 -761.7889 0.615 -0.774 -0.147 215 177 176
-1766.4172 4026.8271 -765.1262 0.047 -0.950 0.309 229 191 188
-1744.5795 4021.8325 -770.5165 0.049 -0.922 0.384 235 198 192
-2567.3499 1609.7136 320.5152 0.870 -0.492 0.034 43 33 24
-2339.4849 1662.8734 228.3872 0.670 -0.666 -0.327 48 34 25
-2339.3398 1668.3859 226.4371 0.649 -0.678 -0.346 48 34 25
-2350.0403 1680.7006 225.6498 0.740 -0.527 -0.418 48 34 25
-2350.8513 1686.8696 223.7825 0.724 -0.537 -0.432 49 35 26
-2350.3433 1692.2258 221.7687 0.720 -0.540 -0.437 38 24 15
-2352.8455 1699.5015 220.0669 0.931 0.115 -0.347 46 32 23
-2354.3457 1706.1680 218.2510 0.931 0.115 -0.347 73 58 47
-2355.6028 1712.7023 216.4021 0.932 0.165 -0.323 142 121 97
-2365.4316 1730.5432 213.4247 0.924 0.144 -0.354 173 152 125
-2397.2439 1780.6116 206.4381 0.538 -0.111 -0.835 187 165 137
-2347.7947 1861.9463 162.3472 0.696 -0.580 -0.423 198 173 143
-2346.3003 1879.4016 155.8368 0.374 -0.389 0.842 199 174 144
-2322.8701 1868.8010 151.9108 0.434 -0.639 0.635 198 173 143
-2316.6226 1870.4611 149.3150 0.434 -0.639 0.635 199 175 147
-2310.0168 1871.8453 146.6983 0.943 0.025 0.331 157 137 118
-2331.2554 1931.0850 133.1220 0.836 -0.493 -0.241 45 26 9
-2309.8230 1959.5270 116.3632 -0.240 -0.966 0.094 96 76 61
-2299.0427 1957.6891 113.5075 -0.223 -0.964 0.147 117 92 78
-1925.2909 1720.2064 74.4918 0.252 -0.546 -0.799 158 111 96
-2856.3057 2643.3354 57.2075 0.897 -0.306 0.319 126 79 61
-2370.9844 2783.6790 -148.3760 0.705 0.518 -0.484 192 140 127
-2559.1558 3192.8179 -228.7094 0.735 0.032 0.678 28 6 0
-2554.3450 3197.5740 -231.9090 0.738 0.037 0.673 22 10 1
-1910.2748 3829.0552 -658.4564 0.894 -0.349 0.280 222 179 170
-1924.1705 3883.2925 -672.6830 0.686 -0.445 0.575 221 177 168
-1862.9805 3968.0427 -721.7544 0.585 -0.303 0.752 218 183 177
-1857.7142 3971.2410 -724.5637 0.585 -0.303 0.752 221 186 180
-1831.1721 3929.8567 -718.8690 0.208 -0.907 -0.367 190 156 151
-1825.5912 3932.1912 -721.4819 0.208 -0.907 -0.367 100 69 66
-1829.8997 3955.3789 -728.0927 0.715 -0.648 0.264 42 17 12
-1824.1005 3957.2874 -730.6291 0.721 -0.643 0.260 39 19 13
-1826.2289 3976.0334 -736.4121 0.752 -0.572 0.326 39 19 12
-1807.1300 3949.5574 -733.4547 0.969 -0.135 0.209 45 25 18
-1799.2417 3946.8672 -735.0799 0.967 -0.081 0.242 52 32 25
-1804.1824 3971.7217 -742.0613 0.897 -0.190 0.399 47 27 20
-1800.8879 3978.9395 -745.6199 0.910 -0.218 0.354 59 38 31
-1793.6670 3977.6587 -747.5156 0.897 -0.212 0.387 90 63 59
-1794.4248 3993.6960 -752.8072 0.961 -0.237 0.141 121 87 85
-1790.8093 4000.2610 -756.2443 0.966 -0.226 0.129 128 89 87
-1787.1703 4006.7847 -759.6749 0.966 -0.219 0.140 134 98 94
-1785.2802 4017.1704 -763.8725 0.749 -0.641 -0.167 137 102 98
-1777.8947 4015.4473 -765.6688 0.615 -0.774 -0.147 139 104 100
-1773.2341 4019.7180 -768.6522 0.615 -0.774 -0.147 160 122 119
-1716.4557 3979.7234 -773.2267 0.118 -0.913 0.391 224 187 181
-1718.3190 3998.5654 -779.1287 0.334 -0.836 0.435 229 192 186
-2354.0012 1674.9489 223.0246 0.725 -0.538 -0.431 48 34 25
-2353.1406 1680.0574 220.9766 0.740 -0.527 -0.418 48 34 25
-2353.2422 1685.7802 219.0255 0.732 -0.520 -0.439 46 32 23
-2352.0728 1690.7184 216.9370 0.727 -0.522 -0.446 61 44 34
-2359.7356 1701.2499 215.7539 0.925 0.189 -0.330 92 75 65
-2360.9768 1707.7594 213.8971 0.924 0.192 -0.332 123 106 93
-2402.7329 1763.6486 207.9702 0.690 -0.062 -0.721 191 171 136
-2408.2378 1773.1515 206.4488 0.606 -0.187 -0.774 191 171 136
-2403.2957 1781.8411 201.8449 0.789 0.171 -0.590 193 170 137
-2410.6753 1798.6799 198.3841 0.784 0.173 -0.596 192 166 131
-2349.5947 1872.6952 153.0555 0.378 -0.392 0.839 194 169 139
-2314.7148 1866.2405 144.0602 0.438 -0.639 0.632 155 131 103
