ply
format ascii 1.0
element vertex 789
property float x
property float y
property float z
property float nx
property float ny
property float nz
property uchar diffuse_red
property uchar diffuse_green
property uchar diffuse_blue
end_header
-2552.4705 3432.6587 -96.8529 0.532 -0.739 -0.412 26 27 33
-2536.7949 3423.6531 -99.9195 0.128 -0.798 0.589 27 27 35
-2538.8088 3437.5679 -103.5133 0.085 -0.708 0.701 26 26 36
-2514.5015 3439.7546 -113.3169 0.188 -0.722 0.666 41 41 51
-2533.1836 3510.3972 -128.3884 0.504 0.103 -0.857 48 48 58
-2534.3345 3523.5652 -132.0727 0.746 -0.620 -0.242 47 47 57
-2549.0330 3578.6362 -143.7716 0.873 -0.419 -0.251 12 12 22
-2545.5730 3597.7334 -151.0391 0.860 -0.097 -0.501 33 31 38
-2535.4504 3595.8372 -154.2443 0.175 -0.971 -0.166 54 46 52
-2535.8003 3620.2810 -161.7536 0.997 -0.079 0.004 50 41 46
-2538.1006 3635.5171 -165.6530 0.993 -0.033 0.110 50 41 46
-2530.2878 3648.8979 -172.7669 0.958 0.268 0.100 40 31 36
-2534.4951 3703.8093 -188.3522 0.050 -0.928 0.369 207 178 180
-2522.5537 3699.2439 -191.4055 0.060 -0.930 0.364 215 186 188
-2539.5801 3735.8689 -196.4654 0.633 -0.764 0.127 216 187 189
-2390.0715 3691.5627 -238.7120 0.871 -0.424 -0.248 219 191 188
-2384.0183 3821.5852 -281.6248 -0.092 -0.926 0.365 189 169 168
-2314.6316 3802.4038 -301.6632 0.475 -0.619 -0.625 119 94 98
-2305.1411 3839.0911 -316.6915 0.342 -0.499 -0.796 127 100 105
-2304.8008 3851.6458 -320.7435 0.449 -0.581 -0.679 127 100 105
-2311.8186 3876.2959 -325.8155 0.650 -0.656 0.383 120 93 98
-2311.3389 3888.7712 -329.8949 0.836 -0.538 0.109 116 89 94
-2454.5479 4373.8901 -427.7988 0.208 -0.108 -0.972 219 194 197
-2138.5164 5145.9873 -787.7122 0.156 -0.937 -0.314 219 181 179
-1921.7267 4677.6621 -722.6649 0.346 -0.872 0.347 229 187 183
-1937.7954 4734.9888 -734.5548 -0.175 -0.984 0.031 227 185 181
-1792.6523 4606.0537 -748.7106 0.873 0.186 0.451 100 86 76
-1676.4917 4551.1338 -775.1275 -0.126 -0.838 -0.531 86 78 75
-1668.1383 4546.4414 -776.7950 -0.115 -0.881 -0.458 75 67 65
-1646.0300 4540.0645 -783.0967 0.158 -0.971 0.179 59 50 49
-1612.9442 4709.8306 -848.5752 0.517 -0.836 0.184 227 188 199
-1551.8463 4547.6299 -820.7993 0.353 -0.936 -0.012 227 186 200
-1672.2255 4926.3511 -894.0117 0.010 -1.000 -0.011 225 187 198
-2678.6975 2035.6398 380.2859 0.435 -0.841 0.320 108 81 72
-2675.9495 2040.4921 377.7358 0.654 -0.551 0.519 123 96 87
-2666.3318 2040.6266 374.1013 0.105 -0.896 0.431 147 120 111
-2661.7502 2044.2048 371.2665 0.119 -0.868 0.482 154 127 118
-3310.1523 2850.3955 360.2737 -0.009 -0.788 -0.616 107 72 53
-3185.4509 2824.3276 321.8841 0.246 -0.953 0.175 89 56 39
-3152.6184 2862.7405 297.5584 0.040 -0.660 -0.750 76 43 22
-3145.9783 2876.0581 290.8962 0.042 -0.663 -0.748 76 43 22
-3120.0002 2882.2583 279.2464 -0.016 -0.794 -0.607 76 43 26
-3015.0916 2819.2734 259.8425 0.222 -0.437 0.872 60 46 39
-3007.0366 2934.8494 220.5394 0.760 -0.452 -0.467 23 37 46
-2753.7253 2720.4019 193.2715 0.817 0.079 0.570 16 43 38
-2622.3411 2728.2366 141.7395 0.806 -0.309 -0.504 118 57 29
-2608.3369 2741.0261 132.4927 0.506 -0.594 -0.625 129 68 40
-2717.3530 3089.4758 63.7857 0.157 -0.455 -0.877 99 69 67
-2619.1057 3012.7542 51.1835 0.586 -0.429 -0.688 57 71 71
-2617.1626 3020.4248 48.0490 0.586 -0.429 -0.688 56 73 73
-2618.2693 3031.4614 44.9965 0.594 -0.462 -0.658 56 74 74
-2704.5381 3167.1589 34.6043 0.092 -0.512 -0.854 74 82 83
-2852.4905 3465.7148 -3.8918 0.117 -0.523 -0.844 88 57 52
-2752.2837 3415.7969 -25.6430 0.340 -0.302 -0.891 45 36 31
-2754.7976 3430.0269 -29.1728 0.290 -0.370 -0.883 45 35 33
-2562.5598 3603.0669 -155.3132 0.815 -0.254 -0.521 32 31 39
-2561.6006 3613.7354 -159.0217 0.815 -0.254 -0.521 56 54 61
-2560.6389 3624.4375 -162.7417 0.815 -0.254 -0.521 74 66 72
-2557.8855 3632.7197 -166.3710 0.110 -0.981 -0.157 57 46 52
-2538.3132 3617.8718 -169.0185 0.993 -0.033 0.110 74 63 69
-2537.5354 3628.8391 -172.7531 0.993 -0.033 0.110 100 91 96
-2547.1299 3678.6360 -184.8073 0.987 -0.057 -0.147 83 71 75
-2536.6221 3700.7788 -195.6855 0.050 -0.928 0.369 211 182 184
-2524.6917 3696.2449 -198.7178 0.060 -0.930 0.364 212 183 185
-2500.4309 3674.1045 -200.8262 0.772 -0.585 0.248 215 186 188
-2324.5791 3824.9470 -313.8759 0.107 -0.800 -0.590 143 118 122
-2305.0488 3819.5051 -319.4614 0.173 -0.883 0.436 121 94 99
-1779.2402 4509.4453 -732.5129 0.589 -0.656 0.472 170 134 129
-1682.2377 4557.7788 -783.9214 -0.122 -0.837 -0.534 200 192 189
-1675.8422 4558.5225 -786.5436 -0.122 -0.837 -0.534 158 150 148
-1645.6499 4548.2109 -794.5823 0.189 -0.980 0.058 122 110 110
-1577.5613 4501.8994 -805.4699 0.920 0.321 0.223 214 181 188
-1604.0126 4654.3960 -843.4792 0.742 -0.529 0.413 225 189 199
-2236.2217 1206.9840 470.3128 0.868 0.135 -0.478 60 51 42
-2672.7615 2035.0946 371.3571 0.379 -0.890 0.252 79 52 43
-2664.8206 2036.3739 368.0010 0.101 -0.895 0.435 116 89 80
-2658.6006 2038.8157 364.9181 0.131 -0.905 0.405 133 106 97
-2653.4570 2041.9882 362.0049 0.247 -0.905 0.347 152 125 116
-3205.0481 2662.2522 371.3978 0.533 -0.800 0.276 132 86 73
-3213.3406 2686.5020 366.8304 0.816 0.085 -0.571 126 80 67
-3234.5056 2711.9365 366.6751 0.823 0.083 -0.562 126 80 67
-3250.8220 2742.8772 362.9801 0.827 0.007 -0.562 125 80 67
-3186.1843 2820.4341 314.4798 0.011 -0.645 -0.764 96 63 46
-2915.2649 2836.9895 208.5301 0.277 -0.878 -0.391 43 29 41
-2614.1646 2742.4802 126.3989 0.506 -0.594 -0.625 129 68 40
-2648.2639 2830.4497 111.3236 0.792 0.522 -0.317 97 57 38
-2721.5911 2990.2971 88.1562 0.771 -0.194 0.606 80 57 49
-2768.8154 3049.2310 87.1211 -0.001 -0.744 -0.668 71 43 32
-2622.8962 3012.1409 44.5705 0.887 -0.432 -0.165 95 87 94
-2627.9385 3027.4387 41.6189 0.937 -0.303 -0.173 95 90 96
-2625.0964 3034.1719 38.4379 0.938 -0.311 -0.151 97 91 99
-2701.8071 3128.3870 37.2349 0.528 -0.649 -0.547 96 90 98
-2716.4578 3175.4014 27.8494 0.083 -0.522 -0.849 100 88 95
-2571.0454 3033.4067 18.5834 0.972 -0.084 0.218 114 82 83
-2578.4375 3051.5735 15.6004 0.993 -0.072 0.095 116 82 83
-2861.6401 3436.7559 -0.6268 0.304 -0.214 -0.928 104 70 67
-2835.9133 3463.6372 -18.6726 -0.215 -0.629 0.747 91 58 53
-2763.5959 3423.7629 -32.9800 0.430 -0.319 -0.845 59 48 42
-2759.8042 3430.5129 -36.5193 0.424 -0.324 -0.846 59 48 44
-2653.0754 3347.0774 -49.8776 0.399 -0.653 0.643 23 14 9
-2641.5737 3344.1328 -53.2249 0.450 -0.618 0.645 14 5 3
-2628.1047 3349.6963 -59.9879 0.476 -0.596 0.647 6 5 1
-2574.0276 3600.8098 -159.3170 0.860 -0.223 -0.459 42 41 49
-2568.0151 3604.6279 -162.7570 0.795 -0.286 -0.535 57 56 64
-2566.2104 3614.1531 -166.4330 0.815 -0.254 -0.521 81 79 86
-2565.2549 3624.8652 -170.1678 0.815 -0.254 -0.521 93 85 91
-2560.6101 3630.5640 -173.6926 0.106 -0.982 -0.159 85 74 80
-2539.0308 3612.9958 -176.1731 0.993 -0.041 0.114 117 106 112
-2538.1514 3623.8047 -179.9102 0.993 -0.041 0.114 152 143 148
-2537.2688 3634.6479 -183.6592 0.993 -0.041 0.114 154 145 150
-2501.8596 3670.1482 -208.0241 0.784 -0.570 0.246 213 184 186
-2362.8091 3700.3381 -269.2471 0.120 -0.899 0.422 218 192 191
-2326.5117 3808.7131 -316.9333 0.475 -0.619 -0.625 216 191 195
-2316.9419 3819.3062 -323.8333 0.162 -0.900 0.406 192 167 171
-2306.6399 3815.7019 -326.5265 0.173 -0.883 0.436 180 153 158
-2668.4404 4748.4512 -486.2824 0.428 0.068 -0.901 220 195 198
-2003.2397 4895.2397 -779.9111 -0.079 -0.923 -0.377 216 187 177
-1987.6429 4894.7388 -785.5518 -0.049 -0.901 -0.431 217 187 180
-1789.4352 4544.2822 -748.6796 0.585 -0.739 0.334 174 143 141
-1788.1029 4576.4702 -759.3298 0.887 0.201 0.417 136 122 113
-1680.3947 4561.9087 -794.7812 -0.132 -0.851 -0.508 222 214 211
-1672.1487 4557.5557 -796.4738 -0.130 -0.852 -0.508 221 211 210
-2250.5442 1219.6029 466.6808 0.705 -0.089 -0.703 59 50 41
-2665.3203 2033.5071 362.2240 0.101 -0.895 0.435 81 56 48
-2659.3757 2036.1379 359.1901 0.131 -0.905 0.405 103 78 69
-2651.8093 2037.6371 355.9146 0.323 -0.881 0.345 131 106 98
-2643.0857 2038.3137 352.4716 0.958 -0.214 0.193 155 129 120
-2639.0942 2042.2543 349.7455 0.977 -0.176 -0.120 159 125 116
-3290.7146 2778.9541 357.4126 0.877 -0.469 -0.104 114 76 58
-3284.6780 2783.4966 353.7388 0.520 -0.736 0.434 113 76 58
-2738.6248 2689.2554 181.5173 0.863 -0.237 0.446 50 27 29
-2743.1436 2710.9473 176.3145 0.805 0.081 0.587 64 42 34
-2623.7061 2765.3884 114.8567 0.787 -0.057 -0.615 130 68 40
-2718.2783 2962.8479 87.2735 0.957 0.208 -0.204 105 66 59
-2708.8923 2962.7981 83.8155 0.912 0.093 0.399 107 65 55
-2717.3235 2981.1741 81.1116 0.777 -0.184 0.602 106 61 46
-2622.8628 2997.6270 40.9377 0.882 -0.371 -0.290 152 116 127
-2630.6978 3015.8770 38.0531 0.911 -0.400 -0.099 140 105 119
-2737.8721 3152.7378 34.3403 0.914 -0.190 -0.357 114 83 97
-2751.6003 3240.9727 11.4554 0.792 -0.610 -0.030 121 86 88
-2792.5222 3330.1855 -1.6753 0.580 -0.815 -0.004 121 84 87
-2840.4431 3486.2432 -33.4017 -0.295 -0.865 0.405 87 57 54
-2689.7368 3341.8167 -43.4019 0.208 -0.366 -0.907 72 56 53
-2673.6406 3467.5217 -89.2006 0.038 -0.921 -0.388 8 6 5
-2551.1526 3505.7234 -146.6404 0.543 0.085 -0.835 50 48 55
-2572.2742 3604.5576 -170.1485 0.803 -0.273 -0.530 77 74 81
-2570.2346 3613.7656 -173.8218 0.815 -0.265 -0.516 95 89 96
-2567.8171 3622.4858 -177.4803 0.814 -0.284 -0.506 103 90 96
-2559.6155 3623.3240 -180.7813 0.147 -0.977 -0.155 130 116 122
-2535.2224 3601.9204 -183.0252 0.994 -0.105 0.036 158 144 150
-2538.6868 3618.6685 -187.0513 0.995 -0.062 0.078 174 160 166
-2530.8889 3619.9390 -190.3400 0.986 -0.047 0.162 182 169 175
-2523.6228 3621.9160 -193.6557 0.957 0.269 0.107 183 169 175
-2528.4270 3640.6638 -197.8197 0.957 0.269 0.107 187 171 175
-2555.9487 3728.3457 -215.4244 0.772 -0.327 -0.545 202 173 174
-2332.8748 3812.5110 -324.6584 0.467 -0.661 -0.587 222 196 200
-2318.7119 3815.7832 -330.9371 0.162 -0.900 0.406 222 196 200
-2308.2297 3811.9019 -333.5863 0.173 -0.883 0.436 223 196 200
-1795.7411 4551.5444 -757.6812 0.679 -0.680 0.277 189 159 159
-1691.7108 4565.4580 -800.5919 0.048 -0.998 0.030 83 76 73
-1684.6173 4564.3677 -802.8716 0.053 -0.999 0.011 138 127 125
-1674.9576 4556.1763 -803.8503 0.110 -0.992 -0.054 162 151 149
-1667.9106 4555.0708 -806.1080 0.160 -0.987 -0.014 182 169 169
-1657.2463 4543.8926 -806.5118 0.201 -0.977 0.073 197 186 185
-2269.5627 1234.3938 464.0023 0.936 0.237 -0.259 46 36 26
-2276.5518 1241.7432 464.2370 0.960 0.274 -0.052 44 36 25
-2660.2031 2033.4987 353.4749 0.152 -0.895 0.419 63 48 42
-2652.7395 2035.0709 350.2247 0.323 -0.881 0.345 79 64 58
-2642.6787 2034.8268 346.5962 0.958 -0.214 0.193 91 74 67
-2640.9277 2040.3173 344.2030 0.864 -0.242 -0.441 140 115 108
-2634.6387 2042.6548 341.1418 0.825 -0.253 -0.506 150 122 115
-3066.4089 2581.5693 328.6113 0.588 -0.328 -0.740 140 90 76
-3252.8340 2735.6736 348.2218 0.617 -0.442 -0.651 140 90 76
-3276.0000 2762.9712 348.0643 0.640 -0.399 -0.657 129 83 67
-3283.4819 2778.0969 346.0045 0.858 -0.472 -0.202 129 83 67
-3347.7031 2847.5938 347.5352 0.976 0.080 -0.202 129 83 67
-2739.3894 2685.7468 174.9697 0.881 -0.306 0.362 92 45 31
-2738.6970 2702.6072 169.3463 0.859 -0.297 0.417 98 51 34
-2743.7988 2733.8113 161.2904 0.822 -0.441 -0.360 104 49 29
-2614.6650 2984.0630 34.0380 0.868 -0.454 -0.202 148 98 106
-2616.5759 2995.8281 30.9959 0.824 -0.415 0.385 147 99 108
-2626.0107 3015.8264 28.1041 0.887 -0.456 -0.073 146 98 108
-2655.4768 3057.8020 25.5941 0.924 -0.348 -0.159 146 98 108
-2663.9395 3077.0298 22.5895 0.873 -0.474 -0.120 138 90 101
-2645.4949 3076.7563 15.8818 0.928 -0.290 -0.235 138 90 101
-2724.2236 3226.1833 -2.6930 0.688 -0.705 0.174 138 94 103
-2789.6101 3310.7327 -5.5257 0.495 -0.817 -0.296 138 94 103
-2802.6030 3336.3452 -8.8943 0.506 -0.822 -0.261 138 94 103
-2722.7266 3397.8323 -57.8977 0.315 -0.557 0.768 74 43 41
-2671.0576 3402.4065 -78.3886 0.159 -0.761 0.629 11 6 3
-2633.6704 3389.9807 -88.2054 0.193 -0.552 0.811 15 11 8
-2560.3000 3365.0156 -107.2855 0.240 -0.878 -0.414 15 11 12
-2538.0432 3358.9343 -113.5484 0.122 -0.951 -0.284 23 19 20
-2589.1641 3457.7969 -126.1939 0.231 -0.927 -0.294 34 30 37
-2535.9333 3434.3938 -138.3521 0.549 0.073 -0.832 38 34 40
-2558.5432 3556.5671 -168.9229 0.730 -0.534 -0.426 81 69 74
-2573.4463 3600.3125 -177.3614 0.802 -0.275 -0.531 120 103 108
-2554.3967 3586.4695 -179.9714 0.872 -0.319 -0.372 110 91 95
-2541.6533 3581.0583 -182.9431 0.107 -0.977 -0.186 124 94 100
-2532.1929 3591.9412 -189.8934 0.994 -0.102 0.035 178 144 151
-2538.2197 3612.1636 -194.1120 0.995 -0.055 0.080 181 147 153
-2527.9038 3609.9546 -197.2089 0.959 0.271 0.087 196 162 169
-2532.8640 3628.8330 -201.3925 0.959 0.271 0.087 201 167 174
-2388.7881 3816.6052 -314.2559 0.249 -0.851 0.463 221 192 189
-2370.5920 3839.9668 -328.3974 0.643 -0.448 -0.621 224 194 195
-2299.5190 3804.4609 -343.2750 0.538 -0.395 -0.745 222 193 194
-2300.0691 3818.3149 -347.4836 0.546 -0.400 -0.736 221 192 191
-2257.2590 3879.1863 -382.6360 0.576 -0.719 0.390 207 180 180
-2234.5667 3854.2554 -383.0576 0.614 -0.702 0.362 219 192 192
-2215.6160 3835.4309 -384.0452 0.788 0.264 0.556 221 194 194
-1709.2474 4567.4546 -803.6645 0.059 -0.996 0.069 102 101 96
-1702.6627 4567.8760 -806.2244 0.058 -0.996 0.062 99 97 92
-1696.0240 4568.1074 -808.7437 0.058 -0.996 0.062 99 92 89
-1688.5745 4566.0820 -810.8431 0.055 -0.998 0.044 96 83 82
-1678.7993 4557.6211 -811.7502 0.149 -0.988 -0.034 102 83 82
-1671.0685 4554.6650 -813.6570 0.160 -0.987 -0.014 110 87 87
-1660.1201 4542.7461 -813.8953 0.201 -0.977 0.073 112 91 91
-2644.6123 2032.9613 341.0726 0.975 -0.185 0.126 78 63 57
-2643.9663 2039.2153 338.8354 0.859 -0.249 -0.447 98 74 69
-2638.0427 2041.8138 335.8321 0.827 -0.254 -0.502 116 88 84
-2635.7461 2046.9325 333.3527 0.825 -0.263 -0.500 138 109 105
-2628.7551 2048.7678 330.2022 0.883 -0.280 -0.378 154 125 121
-2622.9521 2051.4207 327.2257 0.120 -0.946 -0.302 147 119 115
-2714.1296 2326.6663 272.6201 0.687 -0.558 -0.466 131 82 67
-2706.1033 2677.0667 157.5987 0.973 -0.046 -0.227 102 50 29
-2744.8818 2730.5383 154.7151 0.814 -0.448 -0.369 103 50 29
-2635.9839 2768.8579 102.5265 0.169 -0.460 -0.872 131 67 40
-2720.1929 2926.8547 82.8686 0.720 -0.078 -0.690 233 168 150
-2623.3467 2998.4482 24.4564 0.844 -0.378 0.380 148 98 107
-2713.0422 3105.5979 23.0742 0.861 -0.483 0.162 148 98 107
-2676.0713 3391.9365 -82.0703 0.208 -0.804 0.557 11 6 2
-2678.6677 3406.2488 -85.6960 0.121 -0.756 0.643 11 6 3
-2648.0664 3402.2974 -95.6534 -0.012 -0.713 0.701 8 3 1
-2606.3665 3384.0908 -105.1208 0.323 -0.486 0.812 16 10 12
-2559.5632 3347.7156 -110.6482 0.341 -0.823 -0.455 17 10 12
-2554.0820 3351.8196 -113.9708 0.341 -0.823 -0.455 16 10 12
-2606.6118 3440.4600 -123.0609 0.033 -0.981 -0.192 18 11 13
-2530.9900 3355.6250 -123.6556 0.502 -0.864 -0.017 21 14 16
-2523.2173 3378.8623 -133.9385 0.170 -0.938 -0.303 37 29 37
-2538.7981 3432.6086 -145.4163 0.549 0.074 -0.832 41 33 40
-2503.3779 3546.7463 -194.9123 0.653 -0.268 0.708 181 141 149
-2496.7583 3549.4414 -198.2017 0.515 -0.293 0.805 187 147 155
-2494.5066 3558.1296 -201.8064 0.963 -0.006 0.268 200 159 167
-2491.2161 3565.4065 -205.3406 0.963 0.003 0.271 205 166 171
-2490.2266 3575.8877 -209.0558 0.962 -0.005 0.274 211 172 177
-2491.6050 3589.7004 -212.9686 0.967 0.011 0.256 215 178 181
-2492.5574 3602.9792 -216.8667 0.960 0.012 0.278 217 181 181
-2491.6050 3613.6448 -220.6273 0.960 0.012 0.278 217 181 181
-2396.4597 3900.7297 -347.3425 0.131 -0.901 0.412 226 195 193
-2269.4141 3893.0422 -391.4699 0.526 -0.764 0.374 214 184 184
-2253.2876 3879.2783 -392.9809 0.530 -0.769 0.358 222 192 192
-1778.5835 4490.5107 -762.5575 0.902 -0.417 0.114 214 185 187
-1777.0846 4504.1846 -767.4808 0.967 -0.061 0.246 207 181 182
-1711.1708 4563.5938 -810.6534 -0.010 -0.980 -0.200 140 136 131
-1702.7029 4558.9380 -812.2692 -0.035 -0.998 -0.055 140 136 132
-1697.3496 4562.6372 -815.4153 -0.014 -0.978 -0.206 143 135 132
-1690.4059 4561.9917 -817.7551 -0.012 -0.978 -0.208 156 140 139
-1677.4292 4544.8018 -817.0152 0.105 -0.992 -0.065 163 142 141
-1667.9933 4537.1382 -818.0240 0.128 -0.989 -0.069 164 140 140
-1658.6487 4529.6138 -819.0438 0.104 -0.993 -0.053 163 141 140
-2639.4529 2039.5842 330.2323 0.831 -0.244 -0.500 83 55 51
-2637.5237 2044.9563 327.8021 0.827 -0.251 -0.503 105 76 72
-2631.4849 2047.4617 324.7929 0.883 -0.280 -0.378 120 92 88
-2622.1292 2047.6245 321.3259 0.129 -0.952 -0.278 145 117 113
-2614.7046 2049.1179 318.1362 0.261 -0.847 0.462 146 118 114
-2609.0232 2051.8245 315.1929 0.231 -0.785 0.575 146 118 114
-2585.6272 2186.5474 263.3654 0.157 -0.983 -0.095 141 89 76
-2700.7805 2819.1130 102.1429 0.037 -0.697 -0.716 131 67 39
-2722.2942 2914.9092 79.2146 0.784 0.091 -0.613 254 195 177
-2729.9290 2932.1184 76.4716 0.725 -0.076 -0.684 213 149 127
-2776.7878 3108.3914 36.9357 0.802 0.423 -0.423 185 108 92
-2762.1853 3113.1179 30.0872 0.045 -0.780 -0.624 171 104 96
-2811.9026 3186.9871 24.4983 -0.236 -0.903 -0.358 149 98 105
-2727.1487 3105.8623 19.6306 0.884 -0.394 0.253 148 98 107
-2723.4656 3112.0007 16.3140 0.884 -0.394 0.253 148 98 107
-2820.4265 3401.2256 -41.2284 -0.233 -0.860 0.455 149 106 113
-2769.0977 3353.0459 -44.4820 -0.240 -0.833 0.498 152 109 116
-2701.8086 3307.5215 -54.4142 0.213 -0.927 0.308 135 93 99
-2720.7468 3373.5779 -68.7267 0.225 -0.519 0.825 108 73 71
-2676.0671 3397.6523 -92.7698 0.003 -0.724 0.689 12 7 4
-2661.4126 3390.9380 -95.9611 0.133 -0.724 0.677 11 6 3
-2646.8269 3395.3438 -102.7003 -0.012 -0.713 0.701 16 11 8
-2638.7087 3396.4934 -106.0328 0.015 -0.696 0.718 34 29 26
-2591.1282 3359.7561 -111.5949 0.053 -0.733 0.678 38 28 32
-2552.2622 3355.1726 -124.3078 0.623 -0.763 -0.173 31 20 24
-2607.9846 3436.6897 -130.1623 0.085 -0.970 -0.227 28 17 21
-2600.2119 3438.1458 -133.4671 0.085 -0.970 -0.227 25 14 18
-2583.3855 3462.0535 -147.2905 0.386 -0.450 -0.805 41 27 36
-2573.5586 3612.7100 -199.2851 -0.014 -0.986 -0.167 182 143 150
-2566.6501 3615.3230 -202.6463 0.062 -0.940 -0.335 179 138 144
-2491.5461 3536.5664 -204.7528 0.628 -0.306 0.715 192 150 156
-2463.1289 3509.2537 -206.3489 0.644 -0.265 0.718 201 158 165
-2464.4788 3522.7595 -210.1958 0.635 -0.296 0.713 206 165 171
-2510.7441 3598.4963 -217.6447 -0.113 -0.983 0.143 212 171 177
-2496.7568 3591.0391 -220.3538 -0.113 -0.984 0.137 217 177 180
-2539.5996 3662.7229 -227.7497 0.941 0.126 0.316 218 181 182
-2539.1692 3674.3350 -231.6379 0.939 0.114 0.325 217 181 181
-2324.5403 3951.5593 -399.0510 0.349 -0.794 0.498 220 190 190
-2219.6980 3803.2795 -389.6729 0.073 -0.902 0.425 221 191 191
-2179.3608 3748.5522 -386.8109 0.344 -0.891 0.298 223 193 193
-2209.4456 3812.1277 -396.2580 0.366 -0.733 0.574 223 193 193
-1744.4987 4570.9468 -809.7773 0.525 -0.836 0.160 195 185 183
-2634.1270 1999.5073 334.4038 0.375 -0.824 0.424 54 43 37
-2631.5688 2044.3058 319.0149 0.872 -0.277 -0.403 78 50 46
-2625.6968 2046.9136 316.0400 0.805 -0.577 0.135 140 115 110
-2612.6326 2044.4475 312.0899 0.222 -0.852 0.475 144 119 114
-2607.7471 2047.7083 309.2626 0.342 -0.814 0.469 147 119 115
-2598.0652 2047.5607 305.7929 0.851 -0.509 0.132 148 118 113
-2599.3596 2055.1936 303.7995 0.524 -0.537 0.662 154 116 108
-2741.7991 2939.5125 70.1147 0.719 -0.092 -0.689 186 120 99
-2727.3135 2953.5100 60.3343 0.925 0.071 -0.372 160 73 54
-2728.1072 3002.7122 44.7416 0.624 -0.158 0.765 162 73 54
-2739.3279 3024.2031 41.8814 0.917 0.270 -0.294 187 96 74
-2752.0056 3047.3381 39.0197 0.865 0.236 -0.442 191 101 80
-2758.0078 3063.5833 35.9568 0.865 0.236 -0.442 194 109 91
-2787.4905 3104.6865 33.4006 0.021 -0.747 -0.665 194 115 99
-2825.5659 3196.6284 17.5568 -0.107 -0.783 -0.613 149 98 106
-2658.3186 3126.7644 -20.6520 0.936 -0.328 0.127 154 108 118
-2661.6926 3244.8423 -57.5382 0.658 -0.722 -0.212 150 107 114
-2674.3440 3270.2205 -61.1334 0.658 -0.672 -0.339 145 103 109
-2717.0762 3363.8623 -75.8341 0.225 -0.519 0.825 118 83 81
-2714.2734 3371.5759 -79.3420 0.321 -0.341 0.884 112 74 73
-2673.6843 3389.3418 -99.8218 0.256 -0.468 0.846 11 6 3
-2586.0625 3348.1145 -118.3467 0.034 -0.638 0.770 70 54 59
-2564.1304 3331.8105 -121.0520 0.169 -0.958 -0.233 71 54 59
-2556.9851 3355.7598 -131.3779 0.611 -0.771 -0.181 60 43 48
-2610.8054 3434.7524 -137.3221 0.167 -0.983 -0.075 52 35 41
-2601.2852 3434.0027 -140.5387 0.179 -0.980 -0.090 45 28 34
-2589.0388 3429.7407 -143.6121 0.118 -0.892 -0.435 40 23 31
-2588.0740 3626.4954 -207.4689 -0.081 -0.992 0.099 207 166 173
-2577.9390 3624.7939 -210.6017 -0.042 -0.996 0.078 183 142 148
-2488.6455 3526.8875 -211.4396 0.628 -0.306 0.715 195 152 159
-2459.8713 3499.1169 -212.9294 0.626 -0.320 0.711 201 158 165
-2465.3035 3518.2007 -217.1157 0.647 -0.297 0.702 207 164 171
-2510.2185 3603.8879 -228.4558 -0.203 -0.979 0.010 217 177 180
-1771.5479 4614.9312 -823.1396 0.244 -0.914 0.323 216 196 197
-1722.2673 4503.4927 -805.0737 0.586 -0.662 0.467 212 196 195
-1715.7930 4504.1772 -807.6467 0.483 -0.760 0.435 205 191 190
-1695.2729 4467.5493 -803.2791 0.361 -0.846 0.392 201 185 184
-1709.6855 4523.6553 -816.1523 0.369 -0.778 0.509 198 182 182
-2626.5999 2044.3335 310.3873 0.805 -0.577 0.135 69 44 39
-2612.4968 2041.1472 306.3208 0.242 -0.836 0.492 89 64 59
-2613.3962 2048.4839 304.2673 0.813 -0.545 0.203 121 93 89
-2636.6648 2071.6792 305.1605 0.925 -0.381 0.018 144 114 110
-3529.9622 3063.9836 306.4343 0.717 -0.002 0.697 125 79 63
-2712.3604 2886.4036 68.3766 0.859 0.232 -0.457 246 181 161
-2725.3474 2975.7241 44.1125 0.581 -0.432 0.690 172 83 65
-2845.0859 3202.0291 14.0346 -0.141 -0.720 -0.679 158 106 110
-2659.0664 3132.8457 -30.7966 0.636 -0.661 -0.398 162 116 126
-2634.3389 3207.9504 -64.0886 0.956 -0.234 -0.176 159 116 123
-2667.1624 3256.6675 -68.0154 0.897 -0.289 -0.335 159 117 122
-2668.1445 3366.1721 -103.1644 0.221 -0.489 0.844 17 9 6
-2669.5928 3378.9810 -106.7936 0.256 -0.468 0.846 15 10 7
-2580.2212 3335.5449 -125.0261 0.054 -0.604 0.795 122 101 108
-2568.9482 3332.4871 -128.1109 0.054 -0.604 0.795 123 99 107
-2560.4053 3354.7000 -138.4019 0.611 -0.771 -0.181 107 84 92
-2610.2224 3428.5227 -144.3239 0.187 -0.959 -0.212 109 84 93
-2602.9871 3430.6606 -147.6333 0.187 -0.959 -0.212 109 84 92
-2595.9807 3433.0657 -150.9465 0.111 -0.903 -0.415 102 76 87
-2612.3438 3617.2280 -204.7399 0.555 -0.650 -0.519 130 93 103
-2452.6545 3495.1318 -222.8946 0.631 -0.316 0.708 207 166 172
-1824.7000 4580.7778 -801.9485 0.356 -0.208 0.911 226 197 199
-1809.5647 4595.9492 -812.3401 0.640 0.009 0.768 221 196 199
-1802.2080 4595.0776 -814.7176 0.617 -0.034 0.786 222 197 200
-1807.6002 4645.0859 -828.9818 0.273 -0.849 0.452 220 195 198
-1656.7041 4391.1836 -801.2222 0.754 -0.656 0.007 217 195 197
-1638.1373 4358.8076 -797.4385 0.864 -0.435 -0.255 217 195 197
-1655.1926 4422.0508 -811.7766 0.825 -0.452 -0.338 217 194 196
-1675.3236 4494.1074 -827.8601 0.669 -0.525 -0.526 219 195 198
-1694.8124 4564.9893 -843.7950 0.392 -0.731 -0.559 221 197 197
-2598.2144 2027.9325 298.7003 0.165 -0.704 0.691 77 52 47
-2616.0039 2047.1088 298.8572 0.809 -0.550 0.205 88 60 56
-2974.5925 2748.9219 199.3409 0.773 -0.496 0.396 91 60 42
-3034.7917 2856.5759 185.9448 0.484 -0.143 0.863 88 51 33
-2730.6016 2834.9702 83.5077 0.156 -0.980 0.121 133 69 41
-2683.2915 2797.8943 78.5565 0.170 -0.985 0.035 133 69 42
-2852.5884 3194.5125 10.3129 0.034 -0.703 -0.710 157 106 113
-2662.2354 3131.4441 -37.6522 0.458 -0.799 -0.391 167 121 131
-2630.8074 3198.7808 -70.8929 0.972 -0.061 -0.225 164 121 128
-2650.9719 3232.6777 -74.6755 0.981 0.143 -0.130 163 121 127
-2685.4419 3283.4751 -78.8140 0.194 -0.404 -0.894 160 123 122
-2688.4980 3297.8071 -82.3819 0.170 -0.446 -0.879 158 123 121
-2700.8879 3323.1748 -86.1847 0.285 -0.426 -0.859 158 124 122
-2665.7834 3357.9653 -110.1489 0.224 -0.491 0.842 17 9 6
-2578.6907 3328.3386 -131.8435 0.049 -0.602 0.797 149 122 131
-2566.8748 3324.6050 -134.8799 0.066 -0.693 0.718 151 121 131
-2551.6030 3316.5042 -137.7377 0.247 -0.787 -0.565 151 121 131
-2557.4043 3345.5845 -145.1208 0.757 -0.548 -0.356 155 124 134
-2596.4268 3428.1375 -157.9631 0.175 -0.925 -0.338 155 123 136
-2592.0774 3433.8972 -161.4042 0.188 -0.948 -0.255 157 123 139
-2614.7112 3638.5808 -219.9203 -0.125 -0.968 0.219 193 151 160
-2557.9255 3597.9202 -227.1141 0.055 -0.991 -0.121 197 158 163
-2449.3516 3461.9868 -221.9175 0.571 -0.505 0.647 202 161 167
-2449.9348 3474.2471 -225.7005 0.570 -0.509 0.645 212 171 177
-2522.3523 3608.9858 -243.5203 -0.128 -0.985 0.115 211 172 175
-1773.7676 4639.1064 -848.4158 0.432 -0.640 0.636 226 196 200
-1790.2684 4719.7285 -868.7344 0.535 -0.379 0.755 224 195 199
-1652.2411 4440.5430 -827.4831 0.648 -0.542 -0.535 221 197 197
-1648.7002 4448.6348 -831.3926 0.648 -0.542 -0.535 221 197 197
-1652.1793 4475.9409 -839.0337 0.648 -0.625 -0.435 221 197 197
-1652.9869 4496.1011 -845.3089 0.638 -0.704 -0.313 223 199 199
-1645.6245 4493.8613 -847.2290 0.660 -0.692 -0.293 223 199 199
-1638.7594 4492.9331 -849.3973 0.647 -0.713 -0.269 223 199 199
-1659.9009 4588.3135 -872.8525 0.080 -0.982 -0.174 227 198 200
-2688.5215 2281.1279 241.4776 0.354 -0.772 0.528 140 91 76
-3020.1565 2848.5339 174.6450 0.876 -0.323 -0.358 95 58 40
-2696.4150 3291.0488 -86.0770 0.330 -0.219 -0.918 167 129 129
-2697.9819 3303.6604 -89.6414 0.333 -0.221 -0.917 166 131 129
-2706.2285 3324.1614 -93.3943 0.195 -0.440 -0.877 166 131 129
-2649.5513 3344.0217 -120.1923 0.181 -0.602 0.778 15 10 7
-2625.6169 3325.9893 -122.8661 0.061 -0.609 0.791 13 9 6
-2575.3164 3318.8743 -138.5554 0.054 -0.604 0.795 167 135 146
-2564.5127 3316.3843 -141.6106 0.070 -0.697 0.713 169 134 146
-2558.2888 3319.5300 -144.8690 0.247 -0.787 -0.565 169 135 146
-2551.8464 3322.3879 -148.1114 0.734 -0.551 -0.398 168 131 144
-2561.1643 3344.9548 -152.1564 0.757 -0.548 -0.356 161 124 137
-2602.0283 3429.7405 -165.2560 0.175 -0.925 -0.338 165 127 142
-2593.0720 3429.6646 -168.4391 0.149 -0.944 -0.294 177 137 155
-2639.1670 3653.3394 -225.1008 0.645 -0.741 -0.188 202 157 168
-2633.8586 3658.3616 -228.6452 0.653 -0.736 -0.177 197 153 163
-2621.9517 3654.5042 -231.6482 0.742 -0.669 -0.036 203 163 170
-2556.9712 3578.9346 -230.2016 0.346 -0.930 -0.126 205 164 170
-2339.9529 1865.0305 246.6832 0.557 -0.738 -0.380 97 58 47
-2338.0439 1869.6833 244.4738 0.716 -0.698 0.016 115 75 64
-3116.0425 2723.2854 241.3314 0.609 -0.422 0.671 125 79 63
-3112.8271 2729.6931 238.0797 0.518 -0.818 0.249 125 79 63
-2951.5344 2702.6689 189.4613 0.974 -0.224 0.039 110 78 60
-2991.6321 2809.6763 168.5937 0.744 -0.620 0.248 99 62 44
-3020.6685 2844.4819 167.5079 0.875 -0.332 -0.353 99 62 44
-3047.3618 2905.9409 156.8288 0.345 0.131 -0.929 87 49 31
-2716.7034 3277.1182 -83.0115 0.711 0.397 -0.580 176 133 137
-2639.9937 3199.2747 -84.7786 0.985 0.130 -0.113 176 133 137
-2707.2749 3320.1057 -100.4980 0.125 -0.569 0.813 172 134 133
-2681.5081 3311.5127 -106.8598 0.103 -0.567 0.818 167 126 126
-2652.6816 3331.5469 -123.7191 0.093 -0.764 0.638 19 8 6
-2645.6177 3333.9583 -127.0296 0.091 -0.766 0.637 17 10 7
-2566.9177 3314.0767 -148.5520 0.095 -0.723 0.684 166 129 140
-2556.9751 3312.6130 -151.6155 0.113 -0.716 0.689 167 128 140
-2555.8672 3322.1003 -155.1279 0.734 -0.551 -0.398 170 129 142
-2624.7744 3592.3940 -219.3798 0.846 0.093 -0.525 174 125 138
-2626.0466 3605.9844 -223.3919 0.858 0.181 -0.481 206 157 170
-2652.8723 3665.7058 -233.4529 0.547 -0.629 -0.553 203 156 167
-2647.0488 3670.0942 -236.9709 0.671 -0.701 -0.242 216 170 180
-2399.6851 3372.2981 -227.2990 0.129 -0.987 0.096 209 168 173
-2315.5957 1862.7767 232.7232 -0.128 -0.911 -0.391 102 70 53
-2307.3337 1862.8259 229.7757 -0.119 -0.913 -0.390 131 99 82
-3020.4460 2615.4336 234.3806 0.440 -0.384 0.812 141 92 75
-3117.3171 2729.0093 231.2637 0.527 -0.813 0.249 134 85 68
-2968.0737 2730.3384 177.8759 0.900 -0.396 0.184 114 74 56
-2976.0554 2764.2590 169.5121 0.941 -0.145 -0.307 113 75 57
-2976.2124 2773.4792 166.5247 0.927 -0.175 -0.333 99 65 48
-2992.9294 2797.1812 164.6330 0.810 -0.507 0.294 99 65 48
-3007.6536 2819.2729 162.5655 0.786 -0.570 0.238 99 65 48
-3030.0139 2848.2012 160.9509 0.890 -0.353 -0.290 99 65 48
-3085.9539 2906.9316 161.4138 0.761 -0.597 0.254 94 60 43
-2681.3398 2764.9268 64.7315 0.787 -0.440 0.432 133 67 41
-2634.4182 3187.7869 -91.4792 0.958 -0.033 -0.285 189 139 142
-2678.0669 3302.2000 -113.7551 0.106 -0.565 0.818 169 122 120
-2658.6458 3333.3997 -130.9427 0.089 -0.774 0.626 24 1 0
-2642.9336 3325.4250 -133.8851 0.080 -0.813 0.577 25 7 6
-2616.5295 3315.2717 -139.9019 -0.009 -0.781 0.625 9 4 1
-2607.1914 3314.7827 -143.0535 0.045 -0.720 0.692 4 4 0
-2564.8816 3306.2886 -155.2608 0.091 -0.724 0.684 170 139 142
-2554.7617 3304.5979 -158.2932 0.109 -0.718 0.688 166 128 134
-2611.5442 3557.4131 -221.5885 0.528 -0.644 -0.554 189 148 151
-2591.0088 3553.8794 -227.7079 0.893 -0.433 0.126 204 163 165
-2578.8630 3549.5437 -230.5860 0.893 -0.423 0.154 203 162 165
-2687.6714 3706.0889 -243.6498 0.561 -0.665 -0.494 204 163 165
-2564.5298 3553.9573 -237.1279 0.500 -0.675 -0.543 206 166 168
-2653.3438 3684.7725 -248.7933 0.461 -0.806 -0.370 212 173 175
-2392.1243 3356.6750 -233.1822 0.149 -0.979 0.138 213 174 175
-2978.2974 2761.8350 162.6558 0.941 -0.171 -0.291 114 75 56
-2982.7385 2774.7666 159.9370 0.930 -0.170 -0.326 104 69 53
-2994.1553 2793.8318 157.6480 0.811 -0.499 0.305 103 70 53
-2793.6858 2705.8474 116.0324 0.562 -0.495 0.663 98 62 46
-2820.2002 2738.7107 114.5000 0.626 -0.313 0.714 95 59 43
-2691.5173 2770.4236 58.5512 0.614 -0.777 -0.144 133 67 41
-2673.0889 3291.1047 -120.5622 0.137 -0.596 0.791 176 126 125
-2619.7498 3313.8962 -146.9508 0.092 -0.745 0.661 15 8 5
-2608.3638 3310.9341 -149.9892 0.108 -0.731 0.674 6 6 0
-2564.2292 3300.2239 -162.0218 0.068 -0.787 0.614 170 139 141
-2635.8357 3571.6719 -226.7243 0.121 -0.953 -0.279 183 143 144
-2614.5869 3555.6724 -228.9230 0.537 -0.649 -0.538 195 155 156
-2610.2617 3561.7566 -232.4671 0.531 -0.649 -0.545 202 162 163
-2592.0874 3549.5798 -234.8475 0.893 -0.433 0.126 203 163 164
-2745.9639 3764.9985 -251.9279 0.610 -0.757 -0.233 203 163 164
-2566.7859 2288.7063 167.1378 0.319 -0.863 -0.392 133 84 69
-3014.5789 2816.4158 148.7805 0.643 -0.623 -0.445 110 77 60
-2775.7776 2694.1985 105.5627 0.991 -0.007 -0.135 95 59 43
-2624.3147 2675.3352 58.6218 0.965 -0.150 0.216 124 58 32
-2676.0601 2769.0764 45.5925 0.488 -0.849 -0.201 134 67 41
-2675.2017 2777.2185 42.5798 0.808 0.332 -0.486 169 93 70
-2600.0830 3107.8069 -93.8872 0.759 0.496 -0.421 186 136 139
-2733.1814 3323.6072 -118.9708 0.076 -0.521 -0.850 187 137 136
-2732.9143 3334.1899 -122.5883 0.026 -0.576 0.817 187 137 136
-2604.6140 3205.5186 -124.8288 0.821 -0.561 0.106 182 132 131
-2612.8306 3300.2703 -153.4899 0.166 -0.841 0.515 23 15 12
-2563.2571 3293.7783 -168.7477 0.119 -0.712 0.692 171 138 141
-2542.6284 3300.6411 -178.2813 0.710 -0.643 0.288 181 130 139
-3084.0872 4149.7178 -270.7274 0.936 0.231 0.266 200 160 161
-2777.2205 3787.5962 -257.9844 0.919 -0.377 0.117 203 163 164
-2773.8594 3808.4016 -266.0928 0.695 -0.717 0.051 203 163 164
-2827.0332 1560.0476 494.7515 0.911 0.050 -0.410 40 31 22
-2603.0681 1636.3313 390.9243 0.658 -0.645 0.390 61 51 42
-2390.3721 1882.9814 234.0653 0.902 0.252 -0.352 198 169 152
-2280.4004 1864.5995 201.7572 -0.160 -0.806 -0.571 136 92 77
-2997.1121 2787.5815 143.7240 0.564 -0.643 -0.518 114 81 64
-2992.7512 2792.9470 140.4047 0.559 -0.650 -0.515 114 81 64
-2960.0566 2773.5364 135.4631 0.724 -0.533 -0.437 114 81 64
-2976.8450 2797.3755 133.3618 0.624 -0.626 -0.468 109 76 59
-2975.2024 2805.1150 130.1991 0.683 -0.530 -0.502 109 76 59
-2719.9656 2613.9814 104.8642 0.526 -0.240 -0.816 109 73 57
-2747.4939 2655.7817 100.5119 0.620 -0.255 -0.742 109 73 57
-2700.5139 2843.1709 21.4187 0.816 0.438 -0.376 182 104 82
-2494.1626 2953.9465 -87.7837 0.759 0.502 -0.415 190 140 143
-2574.2383 3144.3218 -123.4462 -0.202 -0.935 -0.292 187 137 136
-2593.5156 3187.4424 -131.1252 0.288 -0.920 -0.266 187 137 136
-2543.5698 3296.5559 -185.0793 0.710 -0.643 0.288 182 130 139
-2888.5896 3914.7673 -271.1684 0.892 0.186 0.412 201 161 162
-2881.6030 3931.7241 -279.2820 0.864 0.165 0.476 203 163 164
-2370.1753 1830.0879 238.6308 0.947 -0.138 -0.289 184 158 143
-2369.9492 1835.8634 236.6123 0.947 -0.138 -0.289 190 164 149
-2372.1001 1843.2937 234.8651 0.921 -0.152 -0.360 193 167 152
-2370.3689 1890.3036 218.4737 -0.119 -0.931 -0.344 198 169 151
-2822.3464 2763.5413 82.4640 0.995 -0.028 0.093 105 50 31
-2666.5720 2787.0977 20.3452 0.895 -0.443 0.042 191 113 91
-2709.4099 3296.3145 -135.7764 0.174 -0.391 -0.904 195 145 144
-2599.0750 3188.9026 -138.0953 0.298 -0.913 -0.280 196 146 145
-2544.3899 3292.3267 -191.8615 0.703 -0.653 0.283 181 129 138
-2686.6724 3491.4495 -209.2280 0.909 0.397 -0.128 162 100 113
-2984.8059 3928.0945 -252.1364 0.846 0.445 -0.294 195 144 151
-3297.2832 4398.1133 -301.2625 0.973 -0.071 0.218 203 162 163
-3093.4844 4148.4111 -288.3148 0.904 0.364 0.223 202 162 163
-2458.9844 3914.0610 -430.4007 0.643 0.049 -0.765 213 182 179
-2636.0129 1576.8684 410.0426 0.873 -0.124 -0.471 42 32 22
-2644.2368 1586.5410 409.6277 0.835 -0.148 -0.529 42 32 22
-2347.3877 1859.0643 214.9057 0.421 -0.377 0.825 198 169 151
-2783.1323 2636.2341 103.6423 0.892 -0.301 0.338 113 80 63
-2838.0376 2746.5657 85.4381 0.424 -0.563 0.710 114 78 62
-2830.0981 2748.3276 82.0944 0.424 -0.563 0.710 108 71 53
-2646.1438 2753.8284 16.5383 0.567 -0.799 -0.199 187 109 87
-2738.1340 2852.7976 15.0088 0.949 -0.115 -0.292 191 113 91
-2788.3394 3027.2769 -26.4612 0.736 0.313 -0.600 169 108 117
-2695.3127 3274.7441 -142.1507 0.181 -0.365 -0.913 195 145 144
-2603.8792 3189.4680 -145.0473 0.298 -0.913 -0.280 195 145 144
-2600.3740 3195.7717 -148.3875 0.601 -0.797 -0.059 187 137 136
-2638.6016 3272.4592 -161.0182 0.460 -0.814 0.355 109 77 76
-2633.8040 3277.4658 -164.3683 0.181 -0.878 0.444 48 21 20
-2619.4531 3281.7795 -170.7929 0.469 -0.810 0.353 31 18 13
-2559.8862 3284.6914 -192.4022 -0.031 -0.773 0.633 173 136 140
-2705.6519 3521.0715 -221.6616 0.907 -0.317 0.276 137 76 88
-3003.5181 3945.4634 -261.6710 0.931 0.300 0.208 208 157 164
-2312.7839 3524.4871 -358.8579 0.462 -0.259 0.848 221 186 184
-2382.5396 3751.1746 -411.1689 0.699 0.285 -0.656 210 176 174
-1765.6378 3980.2759 -702.0731 0.102 -0.402 -0.910 234 204 206
-2647.1650 1585.4463 404.8370 0.841 -0.151 -0.520 42 32 22
-2653.5627 1594.2197 404.0693 0.828 -0.105 -0.551 42 32 22
-2611.5835 1621.8903 380.2298 0.497 -0.861 -0.111 45 35 26
-2605.9187 1624.3967 377.4286 0.424 -0.896 -0.127 45 35 26
-2357.4680 1899.6488 198.5678 -0.081 -0.905 -0.418 201 175 153
-2297.3164 1922.8726 169.9728 0.643 -0.410 -0.648 148 99 84
-2847.0291 2741.4163 82.0940 0.416 -0.559 0.718 118 82 66
-2704.2764 2770.0037 23.2188 -0.128 -0.990 -0.057 121 55 29
-2773.9387 3037.2607 -43.3163 0.542 -0.536 -0.647 176 116 124
-2737.7920 3009.6028 -46.4022 0.148 -0.465 -0.873 178 118 126
-2617.1274 3199.8645 -152.4372 0.543 -0.832 -0.109 193 143 142
-2601.5151 3192.0508 -155.1700 0.564 -0.820 -0.094 191 141 140
-2636.5896 3264.8896 -167.7598 0.422 -0.903 0.075 126 93 93
-2628.0012 3265.3804 -170.8855 0.476 -0.841 0.259 76 46 46
-2621.3521 3268.1460 -174.1136 0.476 -0.841 0.259 39 16 14
-2614.7146 3270.9072 -177.3362 0.476 -0.841 0.259 31 16 11
-2592.7014 3276.5442 -186.8313 0.063 -0.592 0.804 17 14 5
-2546.3936 3284.3359 -205.4279 0.669 -0.667 0.330 130 78 88
-2701.4268 3510.1611 -228.5095 0.912 -0.334 0.239 189 128 140
-2713.8845 3560.7266 -241.3471 0.309 -0.411 -0.857 208 157 164
-2728.3281 3602.6404 -250.5693 -0.014 -0.694 -0.720 205 154 161
-2732.1179 1489.4252 460.4619 0.898 0.434 -0.066 62 53 44
-2752.9211 1542.1742 449.6483 0.993 -0.106 0.048 46 38 27
-2619.4578 1557.8955 398.5367 0.988 -0.151 0.010 41 33 22
-2636.1604 1571.7875 399.5374 0.999 -0.029 0.033 42 32 22
-2635.9448 1577.1136 397.6514 0.999 -0.029 0.033 42 32 22
-2615.3931 1582.8622 388.6487 0.394 -0.917 -0.063 42 32 22
-2608.2090 1617.4622 374.4134 0.581 -0.578 0.573 40 30 21
-2602.2285 1653.2063 360.2016 0.741 -0.625 0.246 50 40 30
-2324.6006 1897.3225 181.9515 -0.164 -0.824 -0.543 188 167 145
-2795.7629 2735.2310 58.4262 0.851 -0.169 0.497 107 49 29
-2779.9065 2979.9209 -30.2612 0.938 -0.173 -0.302 187 118 123
-2800.1265 3010.1506 -33.6131 0.929 0.275 -0.246 187 117 126
-2794.2585 3023.8098 -40.2724 0.872 0.218 -0.439 181 120 128
-2729.4102 2967.1294 -43.2237 0.632 -0.585 -0.508 180 120 128
-2785.2949 3034.3271 -46.9241 0.388 -0.725 -0.568 180 120 128
-2598.1941 3172.7749 -158.1824 0.536 -0.842 0.055 192 142 141
-2592.2544 3176.1895 -161.3807 0.538 -0.841 0.064 194 144 143
-2637.6069 3239.6953 -167.4365 0.455 -0.879 0.146 194 146 146
-2638.3884 3251.2043 -171.0842 0.524 -0.833 0.177 193 147 147
-2636.1846 3259.2344 -174.5720 0.747 -0.661 -0.079 181 144 145
-2627.6943 3259.8381 -177.6886 0.571 -0.793 0.211 169 136 137
-2621.6538 3263.3206 -180.9445 0.571 -0.793 0.211 121 93 91
-2613.9490 3264.8042 -184.0912 0.582 -0.782 0.222 62 43 39
-2608.9639 3269.5168 -187.4039 -0.021 -0.780 0.626 22 11 4
-2602.4426 3272.3799 -190.6140 0.229 -0.425 0.876 20 13 5
-2590.5090 3268.6982 -193.4534 0.673 -0.620 0.402 20 14 5
-2583.0757 3270.3992 -196.5809 0.681 -0.615 0.396 20 12 5
-2579.1553 3276.3413 -199.9467 -0.021 -0.771 0.637 58 35 34
-2558.4119 3272.4561 -205.7375 -0.024 -0.771 0.636 135 99 103
-2540.4890 3271.8391 -211.6731 0.509 -0.842 0.175 147 98 106
-2310.1560 3509.1479 -371.3904 0.104 -0.700 0.707 209 174 172
-2350.8049 3653.4565 -406.5503 0.745 0.241 -0.622 208 174 172
-1793.8644 3926.7092 -690.4861 0.212 -0.330 -0.920 241 209 212
-1774.5923 4045.1536 -737.3924 0.051 -0.867 -0.496 234 202 203
-2606.9685 1549.0264 391.2205 0.860 0.033 -0.509 56 46 36
-2607.8105 1625.6906 365.3130 0.765 -0.641 -0.059 50 40 31
-2610.7000 1632.8004 363.8695 0.783 -0.619 -0.060 53 43 34
-2329.4695 1897.9530 177.3191 0.140 -0.949 -0.283 183 164 146
-2319.2727 1902.6907 172.2213 0.758 -0.469 -0.453 195 174 156
-2290.6958 1936.6138 150.8804 0.790 -0.612 -0.027 138 94 87
-2108.1572 1861.4299 114.2894 0.875 0.452 0.172 145 96 82
-2845.6804 2731.6077 68.5987 0.356 -0.730 0.583 129 88 74
-2837.3308 2733.0188 65.2677 0.356 -0.730 0.583 133 92 78
-2808.4448 2733.6055 55.2117 0.698 -0.710 -0.091 106 49 31
-2806.8335 3031.8860 -47.2553 0.765 0.378 -0.521 187 125 129
-2675.4192 3257.4512 -169.1639 0.676 -0.716 -0.173 209 161 159
-2643.5420 3230.9490 -170.9845 0.658 -0.750 -0.075 204 156 154
-2642.8635 3240.7129 -174.5523 0.706 -0.708 0.018 197 149 147
-2630.2896 3257.7385 -184.6597 0.354 -0.810 0.467 178 134 135
-2596.2305 3259.7351 -196.9624 0.240 -0.424 0.873 31 12 5
-2589.7324 3262.5759 -200.1501 0.690 -0.598 0.407 40 26 17
-2577.9221 3258.9817 -202.9515 0.694 -0.656 0.295 32 19 11
-2553.4265 3282.5532 -219.3632 0.538 -0.762 0.360 199 157 160
-1804.4130 3971.4292 -710.2941 0.279 -0.179 -0.944 212 190 185
-1759.2584 4032.7815 -746.6632 -0.076 -0.981 0.178 234 200 199
-1756.1058 4040.5681 -750.3995 0.209 -0.850 -0.484 234 200 199
-2756.9250 1528.0410 443.2790 0.997 -0.059 0.041 63 53 44
-2751.0305 1530.6915 440.3685 0.992 -0.114 0.057 57 47 38
-2624.8257 1615.5105 368.4189 0.824 0.329 -0.461 65 55 46
-2634.4092 1626.1411 368.0246 0.854 0.378 -0.359 68 58 49
-2628.2644 1645.2118 359.3947 0.501 -0.837 -0.221 60 50 41
-2321.8708 1853.4767 183.9143 0.961 0.154 0.232 196 174 151
-2323.5295 1908.9962 165.4266 0.827 -0.382 -0.413 187 164 148
-2848.9397 2730.2344 62.0009 0.362 -0.722 0.590 130 88 74
-2822.0332 2732.7388 52.0071 0.514 -0.778 0.363 100 55 39
-2813.3633 2733.7834 48.7054 0.660 -0.749 -0.060 106 49 31
-2805.2026 2735.2627 45.4273 0.775 -0.535 -0.337 107 48 30
-2788.9272 2884.3425 -11.2527 0.849 -0.472 -0.236 181 112 105
-2770.5132 3058.9634 -77.4228 0.797 0.327 -0.507 185 124 127
-2645.0613 3217.0940 -174.2727 0.713 -0.694 -0.099 186 138 136
-2643.7600 3226.0874 -177.8004 0.741 -0.666 -0.087 189 141 139
-2620.1677 3251.2195 -194.4334 0.223 -0.502 0.836 184 144 144
-2593.0083 3250.7063 -203.4777 0.236 -0.425 0.874 33 12 5
-2585.2239 3251.9817 -206.5580 0.492 -0.339 0.802 41 25 17
-2573.3914 3248.3467 -209.3277 0.693 -0.646 0.320 35 21 12
-2566.0190 3250.0461 -212.4137 0.712 -0.636 0.297 50 33 26
-2563.0537 3257.0735 -215.8318 0.714 -0.629 0.307 92 72 67
-2559.1899 3263.0186 -219.1835 0.721 -0.620 0.309 159 133 129
-2553.5852 3277.5315 -226.0661 0.519 -0.746 0.417 198 158 159
-2342.0762 3556.3335 -393.5381 0.092 -0.819 -0.566 225 187 186
-2296.7170 3548.3218 -406.1880 0.129 -0.802 -0.583 200 162 161
-2035.9514 4231.4292 -729.1138 0.864 0.208 -0.458 227 199 191
-1764.5253 4022.4333 -749.5459 0.104 -0.929 -0.354 230 196 194
-1761.2332 4029.8738 -753.2166 -0.089 -0.982 0.166 234 200 198
-1749.4592 4017.9180 -753.1112 0.207 -0.923 -0.324 234 200 198
-1734.9038 3999.4324 -751.7096 -0.061 -0.985 0.162 234 200 199
-2750.5657 1533.3303 433.0339 0.997 -0.052 -0.057 64 54 45
-2623.7686 1612.3279 362.9814 0.847 0.375 -0.376 69 59 50
-2612.9304 1623.1680 355.5850 0.780 -0.621 -0.077 74 64 55
-2567.9961 1615.5376 343.0359 0.556 -0.492 0.670 67 57 48
-2376.4802 1799.8474 214.8324 0.989 0.023 0.146 192 168 144
-2319.9385 1849.2590 178.7064 0.961 0.154 0.232 196 174 151
-2326.3467 1908.1334 160.5836 0.827 -0.382 -0.413 194 173 157
-2847.8701 2724.9939 55.2673 0.644 -0.764 0.033 130 88 74
-2843.1580 2729.6694 52.0645 0.694 -0.719 -0.050 134 92 78
-2836.6658 2732.7417 48.8128 0.672 -0.737 -0.069 120 78 62
-2828.8057 2734.5652 45.5293 0.865 -0.417 -0.278 100 55 39
-2817.0767 2732.8611 42.1547 0.675 -0.734 -0.069 106 49 31
-2810.0166 2735.3518 38.9115 0.780 -0.525 -0.340 107 49 29
-2637.2822 2671.5679 2.5428 0.477 -0.723 -0.500 111 45 21
-2803.2339 2893.7004 -17.9450 0.806 -0.540 -0.242 181 112 107
-2363.8306 2822.1946 -141.7309 0.911 -0.375 -0.173 195 146 142
-2475.6111 2957.9048 -150.7369 0.755 -0.362 -0.547 195 146 142
-2662.6506 3211.3503 -174.8915 0.143 -0.988 0.051 196 148 146
-2654.4448 3212.3740 -178.0161 0.143 -0.988 0.051 196 148 146
-2647.8445 3215.2251 -181.2281 0.713 -0.694 -0.099 199 151 149
-2650.3372 3228.6208 -185.0021 0.829 -0.559 -0.036 198 150 148
-2590.0110 3241.9692 -209.9795 0.252 -0.414 0.875 33 12 5
-2585.0310 3246.5933 -213.2550 0.493 -0.342 0.800 42 24 17
-2571.9380 3241.4451 -215.9037 0.486 -0.362 0.795 36 22 13
-2563.8755 3242.3005 -218.9220 0.464 -0.383 0.799 42 27 20
-2563.4678 3252.4070 -222.5422 0.083 -0.605 0.792 82 62 57
-2538.3118 3253.6035 -231.4520 0.088 -0.614 0.784 198 158 159
-2527.9751 3251.5327 -234.2301 0.088 -0.614 0.784 201 156 159
-2398.9353 3102.8677 -226.5899 -0.091 -0.745 0.661 204 155 159
-1764.0819 4028.9575 -760.1583 -0.089 -0.982 0.166 234 200 198
-1755.3396 4023.9666 -761.3916 0.221 -0.926 -0.308 235 201 199
-1746.2627 4018.1274 -762.4456 -0.065 -0.987 0.149 234 200 199
-1723.4952 3980.6724 -757.2296 0.181 -0.871 -0.458 234 200 199
-1707.0648 3957.5278 -754.8043 0.194 -0.924 -0.329 234 200 201
-2639.9314 1623.7830 358.2795 0.634 -0.577 -0.515 65 55 46
-2633.2151 1625.7878 355.3285 0.619 -0.708 -0.340 66 56 47
-2623.6172 1626.2399 351.9463 0.653 -0.663 -0.366 65 55 46
-2576.2324 1622.8873 337.1808 0.422 -0.827 -0.371 72 62 53
-2383.4014 1749.6982 228.4898 0.346 -0.200 0.916 74 60 47
-2306.5413 1836.9407 172.4681 0.931 0.283 -0.231 196 174 151
-2322.9460 1860.4615 169.8423 0.950 0.195 0.243 174 154 136
-2302.9099 1924.6245 140.9052 0.324 -0.748 -0.579 78 54 42
-2854.3589 2717.6223 51.8312 0.831 -0.555 0.047 129 87 73
-2849.0803 2721.7952 48.6132 0.668 -0.744 -0.015 130 88 74
-2845.7090 2727.6670 45.4481 0.694 -0.719 -0.050 134 92 78
-2841.0486 2732.3882 42.2481 0.694 -0.719 -0.050 121 78 62
-2834.8411 2735.7134 39.0112 0.810 -0.440 -0.388 100 55 39
-2819.7678 2731.0095 35.5728 0.675 -0.734 -0.069 106 49 31
-2648.1646 3210.5088 -188.0291 0.252 -0.892 -0.376 189 141 139
-2560.2651 3139.4167 -192.9705 0.871 0.387 -0.304 133 85 83
-2594.3928 3189.6436 -198.8810 0.878 0.376 -0.295 133 84 87
-2585.9756 3232.0161 -216.3727 0.115 -0.475 0.872 33 12 5
-2577.5664 3232.5071 -219.3689 0.487 -0.343 0.803 43 25 17
-2568.3730 3232.0217 -222.2908 0.466 -0.377 0.800 34 20 11
-2560.4929 3233.0796 -225.3053 0.464 -0.383 0.799 24 9 4
-2564.2571 3248.2026 -229.2734 0.073 -0.557 0.828 62 42 36
-2552.1499 3244.1162 -231.9285 0.107 -0.571 0.814 169 143 140
-2532.8108 3241.7080 -237.5949 0.117 -0.562 0.819 198 158 159
-2532.4087 3251.8149 -241.2275 -0.042 -0.871 0.489 201 156 159
-2341.3425 3615.3950 -431.2577 0.917 0.357 -0.178 216 178 177
-1910.4628 3959.0876 -695.0054 0.938 0.312 -0.153 232 195 190
-1833.4911 4013.1575 -739.5854 0.772 -0.103 0.627 49 29 23
-1845.8328 4054.7996 -749.8475 0.918 -0.139 0.370 57 36 31
-1754.7028 4015.1226 -766.7456 -0.063 -0.984 0.166 235 201 199
-1746.3220 4010.8726 -768.0916 -0.066 -0.985 0.158 234 200 198
-1725.6698 3978.3435 -763.7762 0.162 -0.950 -0.269 234 200 199
-1713.5679 3965.2432 -763.3102 0.195 -0.918 -0.346 234 200 201
-1714.1239 3981.3242 -768.6882 0.170 -0.953 -0.249 234 199 203
-2578.1309 1621.2991 332.2635 0.519 -0.768 -0.374 62 52 43
-2544.4434 1613.9541 323.5509 0.546 -0.668 -0.506 67 57 48
-2308.1001 1835.2213 167.6297 0.981 0.162 0.104 200 178 155
-2322.0654 1899.1539 150.0833 0.933 0.018 0.360 118 99 83
-2319.5488 1903.4036 147.7649 0.931 0.013 0.364 53 35 21
-2324.6609 1913.2736 146.0446 0.951 -0.159 -0.264 51 35 20
-2308.4482 1925.8185 136.2639 0.324 -0.748 -0.579 54 38 23
-2850.5969 2727.7500 38.8865 0.512 -0.419 -0.750 114 72 58
-2849.0356 2735.2576 35.7557 0.512 -0.419 -0.750 108 65 49
-2639.5718 2665.4104 -10.0161 0.155 -0.756 -0.636 111 45 21
-2740.1702 2805.3828 -25.0165 -0.064 -0.892 -0.447 172 103 98
-2573.8328 3222.9216 -225.7321 0.487 -0.343 0.803 31 13 6
-2562.5784 3219.9478 -228.4620 0.461 -0.377 0.803 31 17 8
-2555.5557 3222.0103 -231.5271 0.461 -0.377 0.803 23 8 1
-2557.0676 3234.3635 -235.3142 0.067 -0.557 0.828 63 43 38
-2547.8669 3233.7769 -238.1870 0.107 -0.571 0.814 149 123 120
-2527.0059 3229.4746 -243.6678 0.108 -0.573 0.813 197 159 159
-2525.7466 3238.4866 -247.2206 0.041 -0.637 0.769 200 157 159
-1946.2461 4039.7961 -719.4542 0.923 0.284 -0.260 238 195 191
-1893.8368 4076.8738 -749.8638 0.713 -0.152 0.684 194 162 163
-1857.2401 4042.6436 -750.2067 0.546 -0.250 0.800 48 24 22
-1851.8394 4045.7209 -753.0820 0.837 -0.145 0.527 45 25 20
-1718.5479 3984.2104 -776.2792 0.088 -0.981 -0.171 227 192 196
-1716.2627 3993.7837 -780.3701 0.054 -0.967 -0.249 226 191 195
-1710.2557 3994.7188 -782.7036 0.054 -0.967 -0.249 227 192 196
-2546.4558 1612.4578 318.7063 0.876 -0.382 -0.294 62 52 43
-2545.9351 1617.6387 316.7251 0.831 -0.462 -0.310 63 53 44
-2346.3853 1670.7516 231.8021 0.974 0.208 0.086 54 44 34
-2347.5510 1676.9423 230.0297 0.974 0.208 0.086 54 44 34
-2346.7781 1681.9420 228.0278 0.985 0.168 0.042 54 44 33
-2374.6306 1727.3270 221.4571 0.347 -0.190 0.919 99 85 72
-2379.3545 1776.0143 206.0394 0.982 -0.053 0.184 194 170 146
-2304.3660 1835.6543 160.2796 0.981 0.189 -0.046 200 178 156
-2310.7803 1857.9944 154.6181 0.940 0.178 0.290 195 176 159
-2321.5427 1877.7090 151.3193 0.959 0.042 0.281 193 174 157
-2320.1714 1882.7489 149.1044 0.956 0.042 0.290 176 157 140
-2320.0071 1888.6757 146.9816 0.930 0.018 0.368 123 104 87
-2318.2188 1893.4348 144.7259 0.931 0.013 0.364 65 47 32
-2317.4473 1898.9462 142.5461 0.931 0.013 0.364 49 36 20
-2324.6584 1947.3854 128.0423 -0.404 -0.897 -0.180 52 39 23
-2316.9875 1947.8359 125.3330 -0.395 -0.876 -0.276 81 57 40
-2912.0977 2760.1790 39.8567 0.523 -0.307 -0.795 121 79 65
-2907.8911 2765.4792 36.6077 0.174 -0.382 -0.908 118 76 62
-2678.9692 2698.3394 -16.1251 0.168 -0.653 -0.738 111 45 21
-2714.7302 2785.6211 -34.6846 0.286 -0.659 -0.696 179 110 105
-2819.3770 2895.6816 -38.2746 0.879 0.343 0.331 183 114 109
-2580.3074 3163.1147 -211.1328 0.880 0.369 -0.298 190 141 144
-2591.0801 3206.8789 -222.8202 -0.045 -0.767 0.640 177 144 141
-2573.7058 3207.1951 -228.7108 0.024 -0.687 0.727 48 27 20
-2570.1172 3213.3831 -232.0641 0.487 -0.343 0.803 33 15 7
-2562.3386 3214.5605 -235.0628 0.451 -0.397 0.800 31 17 8
-2555.2219 3216.5046 -238.1089 0.451 -0.397 0.800 23 8 2
-2553.8284 3225.3291 -241.6519 0.067 -0.557 0.828 52 32 28
-2524.2793 3221.0288 -249.9821 0.108 -0.573 0.813 197 159 159
-1865.6549 3732.1580 -647.4620 0.873 -0.395 0.285 224 183 180
-1268.3887 2580.1172 -444.1656 0.202 -0.780 -0.592 223 179 176
-1303.1345 2658.5510 -459.9753 0.613 -0.593 -0.522 222 178 175
-1902.3416 3928.4954 -703.7684 0.921 0.313 -0.232 225 174 171
-1888.6239 4058.4321 -753.6735 0.710 -0.155 0.687 131 99 100
