ply
format ascii 1.0
element vertex 794
property float x
property float y
property float z
property float nx
property float ny
property float nz
property uchar diffuse_red
property uchar diffuse_green
property uchar diffuse_blue
end_header
-435.4071 2220.8208 -319.5530 -0.018 -0.474 -0.880 216 116 101
-544.4286 4863.9023 -902.6286 -0.554 -0.825 0.114 248 64 99
-407.0669 4220.0430 -864.5040 0.365 -0.727 -0.581 248 38 75
-396.2331 4314.2212 -899.0833 0.257 -0.924 -0.283 255 149 143
-312.6180 4124.1807 -928.2238 -0.635 -0.645 0.425 255 157 151
-16.7693 3138.2549 -950.0375 0.527 -0.675 -0.516 214 20 34
-9.2336 2548.6995 -804.2404 -0.474 -0.772 -0.423 221 29 42
17.3201 3932.1736 -1187.8602 0.615 -0.648 -0.449 247 78 79
-1709.0667 2135.4109 889.9730 0.593 -0.725 -0.350 97 71 49
-4048.5881 5878.5708 2102.0200 0.441 -0.729 0.524 51 24 7
-4017.9636 5864.2402 2077.0701 0.371 -0.752 0.545 49 24 4
-3999.7280 5852.6089 2063.0251 0.424 -0.772 0.474 49 24 4
-3882.3542 5722.3027 1987.1526 0.551 -0.294 0.781 49 24 2
-3093.6506 5821.6597 1221.8425 0.673 -0.739 0.001 40 32 21
-3185.7405 6162.4268 1218.8668 -0.546 -0.838 -0.009 47 34 25
-3024.8877 6131.2803 1076.2565 -0.179 -0.698 -0.693 49 35 24
-3002.8457 6106.7876 1062.0139 -0.182 -0.616 -0.766 46 32 21
-3012.6431 6148.9189 1060.1571 -0.190 -0.640 -0.744 33 19 10
-3033.5789 6236.8594 1056.7371 -0.115 -0.693 -0.712 33 19 10
-2787.1541 5883.2075 918.4265 -0.499 -0.833 0.240 32 19 10
-2778.8574 6063.2764 863.4648 0.621 -0.528 -0.580 26 19 13
-2417.9924 5768.3955 602.4858 0.932 -0.362 0.031 17 11 7
-2261.7815 5706.7495 472.2185 -0.373 -0.913 0.163 23 12 6
-2265.7075 5790.8374 453.8643 0.111 -0.914 -0.390 25 12 6
-2265.4038 5840.2529 440.6308 -0.427 -0.896 -0.125 23 12 6
-2279.5991 5903.5542 437.3489 -0.399 -0.905 -0.145 22 12 3
-1948.9852 5796.2939 155.5615 0.455 -0.683 0.572 20 5 2
-1731.8253 5232.6558 99.7064 0.662 -0.473 0.582 48 32 31
-1710.1206 5190.7651 90.3390 0.559 -0.429 0.709 165 149 149
-1694.6743 5168.2339 81.7647 0.630 -0.431 0.646 243 226 226
-1686.4996 5168.5708 74.0140 0.630 -0.431 0.646 223 205 206
-1656.1350 5177.3784 43.2445 0.908 -0.410 0.086 242 204 215
-1699.7968 5374.5283 32.5091 0.633 -0.659 0.407 239 203 213
-1766.7274 5900.4463 -42.5660 -0.733 -0.601 0.318 255 242 249
-1642.1842 6100.3301 -211.6812 0.071 -0.952 0.299 252 63 78
-408.2542 4237.5566 -880.1602 0.368 -0.729 -0.577 245 60 84
-319.6602 3976.0120 -894.6670 0.831 -0.354 0.429 255 171 146
-82.8753 3505.1848 -993.2372 0.799 -0.576 -0.173 254 74 96
-54.9935 3799.0693 -1096.3809 0.412 -0.911 -0.012 236 12 38
18.6049 2996.1982 -954.9832 -0.387 -0.895 0.222 254 124 113
-3880.1169 5702.6987 1972.2284 0.251 -0.808 -0.532 66 41 21
-3316.5762 5808.3496 1416.3048 -0.196 -0.549 0.813 98 63 33
-3290.1008 5833.2588 1384.9059 0.882 -0.317 0.350 114 79 49
-3295.9988 5862.4570 1382.6998 0.825 -0.281 0.490 113 80 52
-3033.8606 6128.1021 1066.7775 -0.569 -0.822 0.006 49 35 24
-3009.9658 6099.8418 1051.8750 -0.114 -0.727 -0.677 46 32 21
-3024.3850 6151.4834 1051.7090 -0.384 -0.823 -0.419 33 19 10
-2776.2080 6057.1084 844.1965 0.716 -0.556 -0.422 23 16 10
-2370.6914 6093.8135 454.5728 0.519 -0.605 -0.603 22 13 6
-1694.0378 5114.7139 79.9140 -0.401 -0.774 0.489 227 204 206
-1672.5018 5098.5122 64.0283 0.630 -0.740 -0.236 227 203 205
-1666.6417 5105.8657 56.5911 0.630 -0.740 -0.236 194 169 172
-1660.7681 5113.2358 49.1369 0.630 -0.740 -0.236 220 188 197
-1665.7783 5155.5977 42.6136 0.908 -0.411 0.078 228 195 204
-1734.1150 5458.8706 26.3300 0.326 -0.867 0.377 235 199 209
-1756.7343 5866.6084 -60.4453 -0.735 -0.605 0.307 255 248 252
-1584.5712 5576.9629 -145.0388 0.999 0.029 0.031 190 62 81
-1700.4569 6140.0620 -185.5765 0.624 -0.438 -0.647 247 78 86
-1652.6265 6068.3091 -211.3864 -0.035 -0.916 0.400 241 69 77
-1640.7285 6059.2285 -220.1284 -0.016 -0.983 0.184 242 69 77
-1621.8407 6023.1963 -228.2823 0.219 -0.947 0.233 241 68 78
-1599.2322 5972.3550 -236.0004 0.039 -0.984 0.172 239 70 78
-414.5752 4241.7373 -887.5814 0.089 -0.635 -0.768 243 62 84
-342.0469 4200.6587 -944.6516 -0.697 -0.683 -0.219 255 172 147
-93.9178 3326.7395 -945.7021 0.682 -0.731 0.014 255 87 109
-89.5948 3353.7668 -956.9087 0.600 -0.771 -0.216 255 80 103
-75.6673 3730.7034 -1069.7664 0.752 -0.507 -0.421 253 30 56
-65.5710 3794.1296 -1096.0198 0.802 -0.524 -0.286 239 19 44
-20.6256 3136.5444 -964.0031 0.863 -0.486 0.139 223 32 45
-3294.8994 4603.4717 1700.3784 0.308 -0.238 0.921 95 69 46
-3911.6560 5734.0986 1975.3842 0.008 -0.896 -0.445 76 51 31
-3898.7812 5777.0088 1951.8484 0.323 -0.866 -0.381 93 66 45
-3871.5952 5751.2471 1933.2852 0.260 -0.878 -0.402 95 65 41
-3877.2603 5775.6533 1932.0597 0.367 -0.477 0.799 81 47 22
-3318.3113 5792.8794 1404.0776 -0.191 -0.546 0.815 101 66 36
-3322.3362 5966.5249 1361.3881 0.217 -0.972 -0.087 84 63 44
-3217.8401 5829.1396 1300.2999 0.315 -0.935 0.163 51 32 15
-3028.1099 6158.9292 1034.4113 -0.616 -0.759 0.211 39 25 16
-1797.4792 5279.5879 117.3724 -0.500 -0.652 0.570 15 0 0
-1679.4296 5094.9487 56.2359 0.793 -0.609 0.021 219 188 193
-1674.9019 5106.4839 48.9103 0.806 -0.592 0.007 206 175 180
-1749.7477 5481.7622 18.5876 0.271 -0.870 0.412 246 208 219
-1582.8169 5507.8882 -144.7083 0.998 0.029 0.052 155 89 92
-1684.2246 6044.9683 -193.4493 0.683 -0.397 -0.614 235 88 87
-1660.9425 6064.6470 -220.5143 -0.035 -0.916 0.400 239 81 83
-1658.0116 6089.6440 -229.9467 0.292 -0.942 0.165 238 79 83
-420.1090 4237.1904 -893.4412 0.736 -0.524 -0.428 254 74 96
-318.0773 4131.6592 -960.7444 -0.717 -0.688 -0.111 230 79 100
-87.8394 3536.3733 -1017.0612 0.413 -0.910 0.035 253 47 73
-72.5607 3931.0994 -1136.9752 0.510 -0.860 0.025 236 15 40
-42.8792 3093.6423 -940.7084 0.898 -0.252 0.360 202 1 17
-38.4242 3105.9089 -948.1618 0.854 -0.425 0.299 196 3 16
-9.7816 3908.6084 -1189.7412 -0.210 -0.978 -0.017 248 61 70
1.8620 3003.4661 -958.4755 0.075 -0.987 0.142 252 102 96
6.3076 3011.2458 -964.7197 -0.131 -0.990 0.050 254 116 106
-3214.9287 4487.1914 1642.2979 0.325 -0.229 0.917 98 71 50
-3886.4412 5773.1797 1923.1349 0.253 -0.928 -0.275 91 57 31
-3888.3362 5791.8735 1919.8553 0.313 -0.882 -0.351 112 77 49
-3267.6411 5865.0239 1319.1963 0.462 -0.884 -0.075 78 56 35
-3214.8906 5804.5381 1286.1787 0.305 -0.711 0.633 52 33 16
-3141.2520 5722.5933 1239.4130 0.128 -0.912 0.389 29 21 11
-3058.8401 6136.2412 1050.4760 -0.468 -0.834 -0.292 49 35 24
-2478.0437 6269.8154 470.8241 0.042 -0.732 -0.680 42 31 25
-1760.9305 5118.5278 110.9009 0.906 -0.383 0.180 13 0 0
-1733.0516 5083.9229 94.1639 0.536 -0.619 0.573 28 1 4
-1685.0647 5087.3438 48.3299 0.793 -0.609 0.021 243 209 215
-1685.2761 5165.8735 27.3010 0.899 -0.427 0.095 228 195 204
-1671.1732 6032.5991 -220.1766 0.233 -0.972 0.023 228 93 82
-1669.2581 6060.9849 -229.6416 -0.035 -0.916 0.400 228 85 82
-1667.8506 6091.5962 -239.2332 0.298 -0.937 0.181 232 86 86
-432.5386 4172.9492 -876.6999 -0.229 -0.882 0.413 253 29 82
-425.7856 4234.2324 -899.5847 0.736 -0.524 -0.428 253 75 96
-419.4342 4303.7148 -924.3101 0.853 -0.366 -0.372 255 151 144
-337.3296 3914.3657 -895.9065 0.969 -0.242 0.043 255 171 146
-343.2377 4144.8218 -952.6704 -0.388 -0.515 0.764 254 162 148
-329.3599 4123.5928 -959.9199 -0.388 -0.515 0.764 238 110 117
-110.2099 3234.3806 -924.6571 0.468 -0.870 0.154 254 91 108
-107.2218 3302.0239 -945.7378 0.512 -0.842 0.170 254 88 105
-99.0631 3368.5642 -971.3593 0.354 -0.875 -0.331 251 71 94
-66.9275 3974.5591 -1165.2366 0.662 -0.726 -0.186 226 3 28
-3241.5376 4477.8354 1655.4229 0.543 -0.191 0.818 98 73 51
-4052.1116 5833.7729 2043.3588 0.506 -0.656 0.560 71 46 26
-3904.3796 5768.3232 1923.0459 0.253 -0.928 -0.275 99 69 45
-3896.9690 5772.7520 1914.9049 0.253 -0.928 -0.275 121 87 61
-3360.9958 5905.1465 1377.4171 0.285 -0.319 0.904 97 62 32
-3218.9182 5792.9927 1275.1461 0.305 -0.711 0.633 53 34 17
-3157.4578 5734.0161 1233.7617 0.128 -0.920 0.370 29 21 11
-3155.5901 6059.8408 1143.0447 -0.380 -0.899 -0.219 42 28 19
-2817.7712 6081.3579 821.1817 0.932 -0.359 -0.045 16 9 3
-2483.7178 6284.6318 453.2100 0.659 -0.685 -0.312 35 24 18
-2503.4019 6362.9175 450.2453 0.471 -0.870 -0.149 30 19 13
-1755.8862 5054.4321 108.3353 0.866 -0.391 0.312 24 9 4
-1754.7594 5075.5371 101.5182 0.869 -0.367 0.332 29 14 11
-1714.3939 5102.4712 56.4067 -0.456 -0.857 0.238 234 193 201
-1696.5033 5072.4463 47.8709 0.793 -0.609 0.021 236 195 203
-1693.5016 5114.1289 33.6813 0.656 -0.741 0.143 237 198 206
-1694.2096 5142.2090 26.6759 0.901 -0.420 0.110 231 194 204
-1688.9199 5151.5845 19.1680 0.901 -0.420 0.110 226 193 202
-1585.3087 5581.8623 -195.2398 1.000 0.030 -0.006 129 65 43
-1694.1211 6048.0483 -220.7571 0.221 -0.975 0.032 149 55 32
-1681.5978 6036.9111 -229.4299 0.256 -0.967 0.001 169 60 42
-1677.3021 6056.3130 -238.7459 0.251 -0.968 0.010 196 67 62
-1640.3662 6171.3931 -304.7187 -0.175 -0.523 0.834 252 87 96
-1594.6809 6105.3008 -329.4044 0.163 -0.975 0.152 255 100 111
-1489.7689 6064.6665 -416.4408 -0.050 -0.760 0.648 255 102 110
-1491.4171 6406.3560 -508.2015 0.896 -0.189 0.402 252 84 97
-1420.7484 6220.9824 -523.6847 -0.013 -0.448 0.894 255 83 95
-438.2768 4171.4795 -883.0230 -0.229 -0.882 0.413 253 29 82
-425.3212 4302.0464 -930.7943 0.670 -0.445 -0.594 255 151 144
-333.9589 4108.3491 -963.3609 -0.171 -0.572 0.802 239 109 116
-314.6233 4009.2205 -954.3787 0.930 -0.237 0.280 241 66 101
-221.3561 3512.1323 -905.8827 0.569 -0.792 0.222 254 58 97
-93.5933 3361.8396 -984.3496 -0.587 -0.787 0.190 254 45 71
-42.1176 3086.6028 -957.3420 0.759 -0.639 0.124 210 15 29
-29.1095 3242.5066 -1012.0809 0.550 -0.697 0.460 227 35 48
-8.5610 4072.8879 -1258.0469 -0.310 -0.946 -0.093 251 86 85
-3949.5630 5773.3501 1945.7001 0.420 -0.822 -0.385 97 70 49
-3911.0964 5762.1045 1912.8398 0.226 -0.931 -0.288 99 68 45
-3903.6384 5766.4463 1904.6700 0.226 -0.931 -0.288 106 72 47
-3756.8220 5810.6895 1755.2101 0.807 -0.123 0.578 71 31 4
-3327.9045 5736.9995 1374.5465 -0.302 -0.516 0.802 110 75 46
-3029.9431 5870.5645 1059.1465 0.111 -0.986 -0.122 53 38 28
-3021.0117 5872.6704 1050.2158 0.111 -0.986 -0.122 53 37 28
-2801.6960 6023.0684 803.6976 0.917 -0.395 -0.043 15 8 2
-2485.9509 6237.3853 449.3989 0.033 -0.727 -0.686 43 30 23
-2489.2446 6272.3740 442.8274 0.657 -0.691 -0.302 38 24 17
-1737.1689 5072.1753 70.7634 0.562 -0.488 0.668 187 146 153
-1747.3092 5127.9150 64.8691 -0.388 -0.835 0.390 216 173 181
-1741.6947 5136.0161 57.3857 -0.461 -0.854 0.240 213 170 178
-1716.1080 6094.5596 -230.9220 0.109 -0.975 -0.195 113 43 17
-1688.1067 6061.8931 -248.0899 0.251 -0.968 0.008 156 44 34
-1641.2031 6409.2236 -387.7407 0.089 -0.986 -0.143 255 98 109
-1629.4174 6401.9844 -396.7624 0.094 -0.988 -0.121 255 98 109
-1379.9366 5995.5312 -517.8898 0.194 -0.475 0.858 255 82 96
-1342.3069 5908.5981 -529.0911 0.092 -0.507 0.857 247 89 95
-1328.0930 5885.3213 -535.9593 0.129 -0.501 0.856 253 106 108
-347.5370 4130.7778 -968.7260 -0.166 -0.582 0.796 255 146 140
-111.1239 3478.8831 -1009.9384 0.040 -0.742 0.669 253 70 93
-96.2033 3497.9895 -1029.1575 -0.178 -0.930 0.320 251 34 58
-60.8991 3160.1536 -968.9804 0.004 -0.738 -0.675 216 2 22
-33.4525 3236.6619 -1015.7424 0.550 -0.697 0.460 227 35 48
-19.0616 2995.0498 -962.5544 -0.745 -0.657 0.115 247 72 77
-3947.6309 5785.2764 1922.3246 0.420 -0.822 -0.385 95 63 39
-3878.9902 5712.7222 1878.3994 0.331 -0.380 0.864 128 93 68
-3748.8735 5781.0420 1737.7860 0.807 -0.123 0.578 63 25 3
-3737.5894 5812.1675 1718.5709 0.692 -0.149 0.706 78 37 16
-3402.6682 5905.4199 1379.6434 0.240 -0.192 0.952 97 65 38
-3289.9814 6219.6338 1186.8146 -0.427 -0.897 -0.118 32 15 2
-3281.1003 6223.0093 1177.5758 -0.422 -0.889 -0.176 32 8 1
-3050.5664 5793.1304 1081.9227 -0.343 -0.939 -0.000 34 8 0
-3027.0522 5844.5664 1045.6219 0.131 -0.984 -0.122 73 49 34
-3018.2432 5846.8398 1036.7574 0.131 -0.984 -0.122 78 55 40
-3051.2927 5953.0869 1038.0402 0.614 -0.662 -0.429 37 19 7
-2806.9119 6012.1011 793.2513 0.917 -0.395 -0.043 14 7 2
-1757.4001 4987.2065 98.1098 0.045 -0.770 -0.637 48 24 15
-1776.1061 5190.3765 58.9889 0.624 -0.606 -0.494 212 173 173
-1766.6924 5187.1992 51.0778 0.693 -0.566 -0.447 216 179 178
-1743.4396 5192.7993 27.7903 -0.733 -0.584 0.348 190 151 151
-1740.1750 5208.5908 20.3408 -0.736 -0.608 0.298 195 158 161
-1709.9801 5166.4722 3.8603 -0.602 -0.783 0.158 197 180 183
-1565.8330 5327.6372 -175.7281 0.997 0.033 0.065 252 253 251
-1683.7032 6190.8110 -306.0565 0.468 -0.519 -0.715 197 92 88
-1569.0160 6237.1255 -426.1223 -0.028 -0.991 0.130 247 84 99
-1558.9362 6235.6602 -435.1326 -0.028 -0.991 0.130 246 85 101
-1575.7700 6346.0708 -450.1618 -0.124 -0.992 -0.022 254 91 106
-1558.2600 6355.5356 -469.1598 0.028 -0.994 -0.107 254 90 106
-927.9706 5280.6514 -758.6551 -0.356 -0.922 -0.153 217 127 112
-522.4097 4146.1235 -821.5491 0.917 -0.384 0.107 230 79 78
-467.1059 4277.2046 -909.7418 -0.595 -0.714 0.368 254 29 85
-450.6336 4240.4336 -914.8897 0.146 -0.832 -0.535 240 52 83
-435.8529 4285.5425 -941.2672 -0.181 -0.875 -0.448 254 159 144
-388.8979 4415.5234 -1021.3524 -0.215 -0.889 -0.404 255 167 146
-123.3146 3386.4780 -982.8375 -0.578 -0.717 -0.390 254 84 103
-115.5277 3466.5791 -1012.4284 -0.232 -0.967 0.103 251 62 87
-59.5216 3083.4067 -958.0149 0.082 -0.750 -0.657 201 0 14
-23.2940 3085.2920 -992.3909 -0.235 -0.963 0.133 246 78 80
-3361.7908 4599.8477 1690.4303 0.603 -0.738 0.302 112 77 51
-3956.2166 5766.2612 1917.4020 0.626 -0.743 0.237 106 74 49
-3436.7288 5856.6626 1406.8147 -0.306 -0.473 0.826 106 72 45
-3220.0298 5684.4517 1252.8890 0.600 -0.555 -0.576 65 40 18
-3200.0784 5701.9448 1229.3347 0.384 -0.916 -0.113 59 34 14
-3116.6321 5786.3320 1127.6614 0.174 -0.736 0.654 43 24 9
-3065.5703 5726.2778 1096.8707 -0.513 -0.855 -0.081 47 29 15
-3043.5649 5779.0225 1061.4801 -0.436 -0.899 -0.032 84 56 44
-3014.8059 5761.2690 1039.6167 -0.398 -0.880 0.258 100 69 54
-3027.1265 5804.9907 1038.8219 -0.244 -0.964 -0.108 111 80 64
-3043.4893 5856.9961 1039.4719 0.119 -0.979 -0.165 118 91 73
-3031.7434 5853.4849 1029.4902 0.116 -0.981 -0.154 127 101 86
-3026.0586 5862.0220 1021.7791 0.093 -0.979 -0.179 120 98 84
-3018.7656 5887.4165 1007.8236 0.010 -0.921 0.389 28 10 0
-3041.2778 6119.9146 963.4354 -0.416 -0.700 -0.580 53 43 34
-2775.0413 5941.6157 764.9592 0.052 -0.880 0.471 14 7 1
-2580.4365 5857.4014 606.9097 0.361 -0.546 -0.756 24 13 7
-2583.0103 5886.2798 601.1885 0.369 -0.543 -0.754 24 13 7
-2654.2839 6149.2363 593.7695 0.471 -0.514 -0.717 28 15 7
-2547.0388 6288.7295 454.3667 0.116 -0.744 -0.658 58 41 31
-1766.2496 5110.8491 56.5752 0.253 -0.586 -0.770 204 168 166
-1811.4865 5323.8071 38.9072 -0.733 -0.605 0.311 216 173 174
-1771.6261 5254.0400 21.3101 -0.736 -0.603 0.309 174 135 136
-1582.0629 5477.4053 -218.5674 0.808 -0.107 -0.580 68 47 38
-1632.0741 6295.3618 -401.9908 -0.232 -0.729 0.644 238 90 98
-1570.4921 6204.5791 -433.9612 -0.042 -0.993 0.108 248 91 103
-1551.1276 6204.5674 -452.0426 -0.015 -0.995 0.098 241 83 95
-1224.1803 5488.9429 -556.0424 -0.088 -0.451 0.888 234 139 133
-518.1614 3960.5654 -785.3942 0.971 -0.224 -0.078 217 103 84
-466.3986 4211.8711 -904.4398 -0.612 -0.697 0.374 252 28 84
-108.0757 4081.2512 -1202.3306 0.381 -0.909 -0.170 240 18 43
-46.6426 3203.2561 -1012.6824 0.445 -0.857 0.260 227 33 47
-42.1075 3225.0144 -1023.0393 0.550 -0.697 0.460 233 42 54
-35.5598 3835.5391 -1200.9233 0.859 -0.511 -0.028 253 67 76
-27.4617 3085.3994 -997.4370 -0.232 -0.970 0.067 247 79 80
-13.8979 3080.0037 -1008.5861 -0.368 -0.875 0.314 253 123 110
-3954.9189 5748.0703 1903.1055 0.615 -0.752 0.237 129 97 72
-3923.5320 5731.9492 1878.3884 0.443 -0.324 0.836 136 102 77
-3489.7837 5949.0557 1411.8383 -0.004 -0.380 0.925 102 68 43
-3219.3079 5682.6240 1235.0679 0.379 -0.917 -0.125 75 51 27
-3201.2395 5703.5693 1212.2518 0.384 -0.916 -0.113 45 24 4
-3187.1538 5695.7842 1201.3159 0.384 -0.919 -0.083 34 20 7
-3124.8359 5801.5522 1113.0973 0.468 -0.820 0.328 113 94 80
-3077.4360 5729.7646 1089.2493 -0.506 -0.859 -0.081 114 95 81
-3053.7773 5857.1826 1030.9648 0.119 -0.979 -0.165 156 126 107
-3033.8108 5857.1890 1012.3260 0.113 -0.983 -0.147 149 127 113
-3035.0916 5879.6289 1007.1459 0.022 -0.997 0.071 86 65 54
-3036.8962 5903.2559 1002.1178 -0.033 -0.918 0.396 47 29 17
-3024.4246 5898.3813 991.8615 -0.033 -0.918 0.396 44 25 11
-3062.9575 6164.4038 952.2488 0.608 -0.499 0.617 23 13 4
-3047.6748 6154.3105 940.8513 0.612 -0.521 0.595 23 13 4
-2771.5515 5933.6782 745.7974 0.045 -0.904 0.426 14 7 1
-2551.2053 6325.6606 428.7559 -0.041 -0.793 -0.607 56 39 29
-1780.7189 5154.5381 42.3005 0.705 -0.539 -0.462 207 167 167
-1784.5817 5191.2773 35.4680 0.704 -0.543 -0.458 205 164 164
-1790.9730 5236.0112 28.7244 0.691 -0.534 -0.488 199 158 158
-1778.6636 5224.2559 20.5744 0.785 -0.620 0.002 183 143 143
-1751.0690 5322.7109 -33.1551 0.381 -0.317 0.869 255 248 249
-1591.9807 5545.1606 -244.8512 0.808 -0.107 -0.580 95 60 46
-1702.0085 6262.1724 -345.8607 0.443 -0.540 -0.716 228 140 131
-1678.4178 6323.2866 -385.2439 0.049 -0.973 0.224 214 96 94
-1664.1383 6306.1914 -393.7157 0.100 -0.993 -0.057 246 130 128
-1654.0897 6305.5166 -402.9036 -0.248 -0.836 0.489 250 133 131
-1631.8749 6295.6484 -420.8355 -0.334 -0.942 -0.035 191 65 66
-1621.3202 6292.8071 -429.8803 -0.240 -0.961 -0.135 174 34 39
-1622.0068 6498.7324 -487.7451 0.661 -0.480 -0.577 220 74 82
-1616.7174 6518.8477 -498.3972 0.661 -0.480 -0.577 221 74 82
-1540.8816 6284.8369 -502.6986 0.785 -0.516 -0.343 244 84 94
-1533.1282 6293.4448 -512.3814 0.785 -0.514 -0.345 246 83 94
-1518.8751 6401.7539 -556.4572 0.774 -0.413 0.480 240 75 87
-1433.4218 6197.2397 -578.1160 0.399 -0.755 -0.521 247 125 128
-1125.4458 5824.4658 -759.6765 -0.399 -0.872 -0.282 241 145 138
-987.3113 5742.0098 -865.1866 0.984 -0.021 -0.175 226 129 114
-130.5370 3480.2812 -1022.3310 -0.480 -0.602 -0.638 255 73 96
-22.5722 3081.7659 -1009.8843 -0.227 -0.892 0.391 250 109 99
-18.0662 3111.2827 -1022.4763 -0.130 -0.988 -0.084 253 124 110
-4022.2114 5286.6060 2080.0549 0.776 -0.584 0.240 82 51 28
-3947.3413 5705.2949 1890.0938 0.552 -0.758 0.348 131 99 74
-3943.7488 5715.2471 1883.8871 0.558 -0.754 0.346 131 99 74
-3755.7351 5508.8867 1767.6844 0.355 -0.853 -0.382 86 50 26
-3743.3406 5505.0981 1757.2081 0.354 -0.863 -0.360 106 70 46
-3515.3708 5867.6997 1440.5068 0.270 -0.960 0.074 76 41 19
-3479.8130 5894.9951 1399.5035 0.099 -0.367 0.925 94 59 37
-3459.3225 5877.1489 1385.5070 -0.009 -0.395 0.919 95 63 38
-3423.7446 5832.7500 1365.0526 -0.011 -0.383 0.924 97 65 40
-3313.3237 5691.3726 1302.5962 0.568 -0.372 0.734 85 53 30
-3229.4509 5664.8667 1231.9531 0.122 -0.967 0.225 65 40 18
-3134.1265 5799.8276 1104.3051 0.482 -0.829 0.283 150 131 116
-3059.7461 5868.5493 1015.1990 0.102 -0.990 -0.102 151 124 108
-3049.2400 5887.4375 999.9789 -0.029 -0.913 0.408 150 129 117
-3045.2810 5899.5386 992.8137 -0.033 -0.918 0.396 129 111 99
-3032.8003 5894.6675 982.5677 -0.033 -0.918 0.396 105 86 72
-3020.3469 5889.8076 972.3438 -0.033 -0.918 0.396 84 62 49
-2841.4673 5933.7632 792.8524 -0.557 -0.791 0.252 10 3 0
-2840.7068 6041.1802 761.3273 0.202 -0.850 0.486 15 8 2
-2675.5830 5721.9551 698.8578 -0.444 -0.813 0.375 14 7 0
-2565.4365 5603.4033 630.1092 0.549 -0.581 -0.600 18 9 2
-2589.5728 6291.7212 455.1631 -0.289 -0.674 0.680 45 28 20
-2571.6348 6272.6768 443.8917 -0.289 -0.674 0.680 52 35 25
-2479.8955 6143.8325 395.2684 -0.252 -0.719 0.648 49 32 22
-1976.1866 5350.8521 152.8339 0.153 -0.960 0.235 40 25 18
-1818.0573 5266.8374 29.4129 0.967 -0.215 0.139 197 159 158
-1812.8818 5276.8765 21.7046 0.970 -0.216 0.114 178 142 140
-1809.8054 5319.3384 6.6530 -0.730 -0.569 0.379 200 168 166
-1592.2260 5484.0591 -243.5873 0.759 -0.138 -0.637 66 40 29
-1696.0201 6277.8223 -374.4682 0.479 -0.522 -0.706 208 119 107
-1687.6917 6321.8110 -394.8575 0.095 -0.992 0.077 170 81 69
-1673.6576 6305.7920 -403.3547 0.100 -0.993 -0.057 182 95 82
-1662.9512 6302.5771 -412.4207 -0.248 -0.836 0.489 203 116 103
-1643.3691 6303.2183 -430.8732 -0.252 -0.856 0.452 144 47 38
-1629.7350 6288.2051 -439.2860 -0.232 -0.962 -0.142 163 43 41
-1615.7445 6311.1040 -458.9074 0.530 -0.460 -0.712 253 126 127
-1631.5444 6497.5078 -497.6423 0.661 -0.480 -0.577 197 72 72
-1624.6678 6510.9634 -507.9178 0.654 -0.484 -0.581 199 71 72
-1622.6155 6544.6411 -519.4938 0.152 -0.986 0.067 201 70 72
-1044.9260 6093.4951 -929.0116 1.000 0.015 -0.027 226 129 113
-558.3296 4403.2637 -898.0797 -0.271 -0.534 -0.800 252 41 85
-401.3817 4270.8799 -1006.5224 -0.643 -0.620 -0.449 255 169 145
-350.6201 3960.8503 -964.9385 -0.451 -0.683 -0.575 238 74 95
-119.0363 4077.7307 -1214.5197 0.392 -0.905 -0.165 240 18 43
-63.7590 3134.7063 -995.5562 0.046 -0.583 -0.811 210 19 31
-36.6670 4272.5112 -1347.2423 0.443 -0.638 0.630 244 92 87
-4014.2180 5248.7666 2066.5813 0.711 -0.430 0.556 88 57 36
-3779.2937 5513.7988 1770.7640 0.338 -0.863 -0.376 84 48 24
-3749.1357 5650.9814 1702.9092 0.764 -0.182 0.619 168 125 90
-3551.5298 5876.1870 1453.4242 0.981 -0.174 0.080 77 38 13
-3520.5945 5858.4639 1429.7125 0.313 -0.948 0.047 59 24 2
-3475.0193 5850.4844 1389.5278 0.052 -0.480 0.876 78 44 19
-3248.5928 5681.1143 1227.4572 0.117 -0.967 0.224 77 52 30
-3052.2720 5853.3843 994.5032 0.091 -0.988 -0.121 164 140 127
-3048.3787 5865.4507 987.3780 0.114 -0.987 -0.112 158 137 124
-3042.8230 5874.2842 979.6393 0.068 -0.998 -0.001 126 106 95
-3033.1504 5874.9590 970.4246 0.068 -0.998 -0.001 96 77 63
-3023.4807 5875.6343 961.2127 0.068 -0.998 -0.001 111 89 75
-3011.5454 5871.7568 951.2069 0.073 -0.996 -0.046 101 79 66
-3002.4011 5873.4614 942.1867 0.008 -0.927 -0.375 60 41 28
-2998.2598 5885.2720 934.9044 0.010 -0.930 -0.368 40 24 13
-3087.7649 6214.9932 922.8594 0.616 -0.450 0.646 16 7 0
-2853.4167 6046.5190 753.1428 0.174 -0.873 0.456 17 10 4
-2711.1934 5821.7002 685.6467 0.756 -0.489 -0.434 29 20 13
-2683.3328 5935.7188 626.6433 -0.270 -0.439 0.857 27 16 10
-2683.4324 6499.5029 463.4381 -0.446 -0.655 0.610 45 28 20
-2559.4177 6242.0020 422.3867 -0.230 -0.677 0.700 47 30 20
-2521.1343 6197.0845 399.7001 -0.238 -0.688 0.685 47 30 20
-2504.4612 6180.5991 388.9285 -0.238 -0.688 0.685 46 29 19
-1806.7510 5207.9482 20.0835 0.969 -0.190 0.160 183 143 143
-1812.0312 5249.0518 13.1016 0.970 -0.213 0.117 195 158 158
-1790.3726 5234.8110 -2.9690 0.796 -0.605 0.021 254 234 231
-1726.5410 6172.6650 -334.1339 0.462 -0.870 0.174 110 47 30
-1698.7218 6327.0605 -404.7936 0.092 -0.990 0.104 114 48 29
-1683.1864 6305.3926 -413.0033 0.100 -0.993 -0.057 93 28 9
-1671.8143 6299.6367 -421.9398 -0.248 -0.836 0.489 112 48 28
-1652.3671 6300.8315 -440.4192 -0.252 -0.856 0.452 120 45 29
-1640.3187 6292.2036 -449.1545 -0.232 -0.962 -0.142 128 30 21
-1630.7477 6293.3198 -458.4023 0.531 -0.461 -0.711 136 33 26
-1626.1595 6314.4033 -468.7871 0.530 -0.460 -0.712 145 39 33
-1641.0891 6496.2822 -507.5468 0.661 -0.480 -0.577 162 59 52
-1635.8486 6516.4053 -518.2618 0.661 -0.480 -0.577 164 58 52
-1546.9420 6271.6836 -530.2786 0.802 -0.501 -0.325 189 65 63
-1543.2441 6297.2939 -541.1447 0.785 -0.514 -0.345 190 64 63
-1532.9167 6336.9326 -562.2554 0.799 -0.499 -0.335 211 83 82
-1467.0765 6221.0342 -590.0776 0.317 -0.934 0.167 255 147 146
-503.0870 4386.4375 -957.5515 -0.637 -0.712 0.295 252 28 85
-407.7372 4274.9458 -1014.1658 -0.642 -0.620 -0.451 255 168 144
-130.9620 3517.7561 -1052.9236 -0.728 -0.641 -0.245 243 42 68
-77.2503 3133.7024 -991.7664 0.440 -0.542 -0.716 202 0 14
-58.4234 3505.0322 -1116.8756 0.130 -0.992 -0.001 235 44 57
-4070.3179 5336.7861 2076.2432 0.724 -0.419 0.549 122 90 67
-3138.9941 4194.4277 1542.3453 -0.205 -0.868 0.451 123 87 61
-3409.3313 4616.5430 1670.8513 0.271 -0.757 -0.595 123 88 60
-3388.2258 4622.6016 1649.4105 0.991 -0.041 0.130 120 86 58
-3792.8762 5488.9263 1773.1947 0.429 -0.741 0.517 82 48 23
-3782.5745 5488.3130 1763.7733 0.429 -0.741 0.517 81 45 21
-3772.2852 5487.7070 1754.3613 0.364 -0.843 -0.396 86 50 26
-3762.5493 5487.9209 1745.2257 0.369 -0.837 -0.405 106 70 46
-3691.3369 5817.1338 1582.5923 0.761 -0.183 0.622 91 56 33
-3640.3477 5784.2285 1544.6953 0.753 -0.253 0.607 104 69 41
-3632.7000 5788.4375 1536.3374 0.749 -0.247 0.615 108 72 46
-3533.3440 5844.6304 1427.3113 0.291 -0.955 0.059 67 30 6
-3467.4207 5819.1279 1373.3318 0.057 -0.472 0.880 77 43 18
-3284.8086 5674.7778 1245.3578 0.010 -0.791 -0.612 76 48 26
-3274.0444 5708.5630 1225.4469 -0.392 -0.916 0.090 91 66 44
-3236.0867 5675.8022 1199.6521 0.212 -0.955 -0.207 97 72 50
-3222.3965 5668.8350 1188.9308 0.349 -0.932 -0.094 68 43 23
-3074.6733 5742.0122 1029.8629 0.434 -0.721 0.540 155 123 108
-3046.0142 5860.3599 968.5474 -0.269 -0.944 -0.190 108 88 77
-3035.4705 5859.2734 959.0389 -0.269 -0.944 -0.190 58 39 25
-3024.9360 5858.1875 949.5389 -0.269 -0.944 -0.190 105 83 69
-3016.6641 5861.6079 940.8298 -0.262 -0.946 -0.191 130 108 95
-2498.8889 5579.1670 540.8825 0.361 -0.508 -0.782 33 22 18
-2183.8970 5129.3379 378.8648 0.183 -0.846 0.500 41 28 20
-2073.0281 5496.9746 168.0381 0.335 -0.770 0.544 33 18 11
-1797.3718 5205.3618 -3.5859 0.975 -0.201 0.095 252 232 229
-1810.5249 5296.1597 -17.8787 0.905 -0.405 0.132 254 242 239
-1805.1112 5305.6992 -25.7136 0.905 -0.405 0.132 255 245 246
-1661.1094 5731.2324 -284.3482 0.940 -0.061 -0.334 105 67 49
-1751.9341 6124.4780 -314.6960 0.459 -0.548 -0.699 121 62 46
-1734.4069 6166.6436 -343.3603 0.462 -0.870 0.174 140 80 62
-1710.7638 6298.2495 -403.8781 0.606 -0.568 -0.558 149 92 70
-1707.9188 6325.2046 -414.4116 0.092 -0.990 0.104 156 99 76
-1694.7457 6312.7612 -423.0494 0.120 -0.992 -0.047 139 84 60
-1682.2023 6302.5840 -431.7633 -0.260 -0.836 0.484 155 100 77
-1650.9274 6296.2119 -459.0464 -0.232 -0.962 -0.142 176 96 81
-1641.1471 6296.5483 -468.2596 0.531 -0.461 -0.711 183 100 86
-1650.6410 6495.0566 -517.4588 0.661 -0.480 -0.577 205 121 108
-506.1895 3689.0552 -763.5034 -0.276 -0.775 -0.568 217 105 85
-575.4305 4495.8901 -934.9063 -0.470 -0.600 -0.648 253 35 87
-487.4662 4244.5391 -943.3851 -0.454 -0.716 0.530 238 33 76
-377.0226 4070.0828 -995.2984 -0.537 -0.691 -0.484 240 97 105
-143.0866 3579.9739 -1069.9979 0.831 -0.214 0.514 251 57 83
-81.6255 3138.6931 -998.2386 0.440 -0.542 -0.716 202 1 15
-77.3733 3159.3306 -1008.2361 0.062 -0.622 -0.780 203 9 22
-3786.3315 5478.4375 1752.7457 0.429 -0.741 0.517 89 53 29
-3782.2756 5487.1304 1746.4017 0.364 -0.843 -0.396 95 59 35
-3772.5488 5487.3691 1737.2715 0.369 -0.837 -0.405 97 61 37
-3769.3259 5497.3657 1731.3185 0.339 -0.864 -0.373 75 39 15
-3713.7458 5610.2275 1646.2328 0.285 -0.868 -0.407 101 60 40
-3642.9590 5530.8931 1603.7167 0.594 -0.784 -0.181 89 48 28
-3674.3206 5739.4521 1571.3645 0.889 -0.123 0.441 103 71 50
-3412.2656 5740.6621 1326.9154 -0.032 -0.485 0.874 108 74 49
-3305.9370 5676.6553 1246.7690 0.017 -0.799 -0.601 76 45 20
-3299.4480 5682.6777 1238.9473 0.017 -0.799 -0.601 94 65 43
-3287.1160 5713.6699 1218.3119 -0.385 -0.918 0.091 111 86 64
-3253.8835 5671.8491 1199.7025 0.212 -0.955 -0.207 126 102 78
-3246.0100 5675.4082 1191.3182 0.212 -0.955 -0.207 111 86 64
-3231.1853 5666.4287 1180.1603 0.349 -0.932 -0.094 76 51 31
-3200.0059 5645.4956 1157.2972 0.637 -0.668 -0.385 33 18 9
-3195.0771 5654.3438 1150.0945 0.637 -0.668 -0.385 28 20 12
-3162.5657 5758.2461 1089.1409 -0.002 -0.997 -0.075 140 119 102
-3153.0515 5759.0112 1080.0531 -0.005 -0.996 -0.085 140 121 106
-3059.8889 5828.2808 972.8289 0.252 -0.909 0.332 145 122 108
-3040.4629 5848.9604 948.6302 -0.365 -0.909 -0.201 66 47 33
-3076.7112 6084.7085 912.8036 0.132 -0.990 0.045 29 19 10
-2819.9089 5972.9434 706.5961 -0.145 -0.895 0.422 39 32 24
-2717.6863 5792.5728 664.6238 0.787 -0.543 -0.294 42 33 26
-2651.4319 5668.0264 639.6755 0.770 -0.576 -0.275 41 32 25
-2773.6052 6071.6162 634.3394 -0.079 -0.338 0.938 37 27 18
-2566.8745 5802.3779 521.2552 0.031 -0.242 0.970 41 28 20
-2514.2744 5701.9893 501.8943 0.030 -0.262 0.965 41 26 19
-1805.8241 5082.6929 24.8147 0.901 -0.402 0.164 236 197 196
-1801.4891 5094.1675 17.3898 0.915 -0.381 0.129 242 205 205
-1800.8008 5116.4736 10.1642 0.909 -0.413 0.052 249 218 216
-1807.7693 5161.6270 3.3261 0.947 -0.261 0.189 252 227 224
-1663.6218 5708.6016 -292.4007 0.940 -0.062 -0.335 148 111 93
-1765.3459 6173.6636 -334.9303 0.616 -0.766 -0.183 160 102 84
-1754.7091 6170.4678 -343.8946 0.601 -0.783 -0.160 165 107 88
-1747.0891 6178.2275 -353.2829 0.601 -0.783 -0.160 193 137 117
-1715.3112 6316.4727 -423.6908 0.074 -0.996 0.039 203 146 126
-1702.6833 6306.1631 -432.4099 0.002 -0.996 0.092 194 139 118
-1678.9458 6290.9878 -450.0407 -0.260 -0.836 0.484 203 145 125
-1658.5122 6487.0205 -526.9401 0.649 -0.484 -0.587 235 165 147
-1618.6342 6406.9380 -540.4452 0.484 -0.874 0.035 238 163 147
-1609.7319 6411.4780 -550.0775 0.484 -0.874 0.035 243 156 143
-1562.8334 6258.8745 -548.7144 0.806 -0.499 -0.319 244 155 141
-1528.6926 6279.7104 -586.6655 0.650 -0.731 0.206 244 155 143
-1520.4398 6286.2412 -596.2804 0.715 -0.683 0.151 247 158 148
-1507.7631 6273.8145 -604.4201 0.731 -0.661 0.166 248 160 151
-1483.6639 6211.7686 -608.5519 0.624 -0.780 -0.050 255 165 159
-1443.9667 6080.9224 -606.9041 0.605 -0.786 0.132 255 166 160
-1384.6437 5862.2383 -597.6077 0.494 -0.837 0.234 254 168 161
-393.7160 4125.2124 -1007.8613 -0.616 -0.620 -0.485 250 134 128
-155.4548 3498.2922 -1044.7311 0.959 -0.043 0.281 255 80 101
-62.3224 3921.8718 -1256.5151 -0.246 -0.896 0.370 254 71 79
-3779.3762 5496.8589 1723.3547 0.339 -0.864 -0.373 66 31 7
-3772.7295 5516.6519 1711.2692 0.487 -0.673 -0.556 153 118 96
-3777.0237 5538.1118 1708.8729 0.434 -0.695 -0.573 105 69 45
-3774.1306 5548.8003 1702.9945 0.548 -0.654 -0.522 86 47 20
-3770.0051 5557.6680 1696.5117 0.441 -0.687 -0.577 81 41 11
-3772.9124 5592.5405 1688.8275 0.347 -0.898 -0.269 152 109 76
-3759.1565 5602.1992 1673.1436 0.308 -0.932 -0.191 165 125 91
-3750.7468 5604.6992 1664.5695 0.389 -0.894 -0.222 167 124 91
-3582.5818 5771.7627 1458.2360 0.982 -0.182 0.044 115 71 44
-3561.7456 5770.9365 1439.0844 0.900 -0.214 -0.379 93 51 23
-3337.9431 5715.0664 1247.3798 0.287 -0.943 -0.171 88 56 31
-3308.3027 5697.8252 1224.9231 0.297 -0.706 -0.643 116 89 69
-3299.9688 5718.3340 1211.0536 -0.385 -0.918 0.091 127 101 80
-3251.4954 5667.0317 1181.2129 0.355 -0.925 -0.134 107 83 61
-3234.0349 5653.3267 1169.0414 0.364 -0.927 -0.095 67 44 24
-3206.0881 5638.2642 1147.5121 0.623 -0.683 -0.382 29 15 5
-3173.1797 5759.0454 1080.8875 -0.005 -0.996 -0.085 132 113 97
-3170.3877 5772.4229 1074.3022 -0.196 -0.981 -0.009 135 116 101
-3102.0342 5718.1577 1026.8367 0.147 -0.718 0.681 146 125 109
-3050.3552 5828.7070 945.7860 0.527 -0.526 0.667 52 34 20
-3054.3005 5856.1455 941.2836 -0.365 -0.909 -0.201 62 43 29
-3010.5686 5868.6255 896.8521 -0.435 -0.878 -0.198 59 45 36
-3104.9248 6099.5386 915.8909 0.207 -0.978 0.006 43 33 25
-3095.5085 6101.4678 906.5500 0.207 -0.978 0.006 38 28 19
-2689.9277 5927.6040 580.7744 0.697 -0.715 0.053 38 27 16
-1805.4716 5081.8970 9.3675 0.915 -0.381 0.129 253 220 219
-1803.5791 5100.5347 2.0524 0.912 -0.408 0.053 251 220 220
-1763.5802 6133.0645 -342.8389 0.515 -0.832 -0.206 179 129 110
-1761.7512 6161.4785 -353.0080 0.399 -0.895 -0.202 184 133 114
-1743.7146 6131.3657 -360.8269 0.519 -0.846 -0.117 181 132 113
-1737.2517 6143.1401 -370.3519 0.501 -0.847 -0.176 148 101 80
-1712.7357 6160.1230 -398.2356 0.457 -0.832 -0.316 164 106 88
-1604.3713 6431.9263 -580.1057 0.727 -0.675 0.124 247 167 152
-1591.4379 6419.8677 -588.5532 0.528 -0.848 0.049 247 167 152
-1492.2710 6086.0811 -581.4182 0.105 -0.913 0.395 252 173 160
-1017.7834 5388.1626 -815.1954 0.177 -0.892 0.417 250 164 151
-387.5794 4060.0156 -1006.1547 -0.583 -0.756 -0.297 244 95 106
-362.9697 3846.8853 -965.5608 -0.436 -0.751 -0.496 243 72 95
-132.3568 3976.7588 -1218.9498 0.538 -0.840 0.069 230 10 35
-81.9696 3191.7710 -1031.9624 0.378 -0.663 -0.646 213 22 34
-70.7415 3735.7451 -1204.4985 -0.356 -0.784 -0.508 250 57 71
-68.0390 3956.0715 -1272.6632 -0.244 -0.852 0.464 254 71 79
-58.5711 4170.0688 -1345.2405 0.417 -0.599 0.684 246 97 90
-43.9731 3145.7766 -1053.6311 -0.433 -0.844 -0.317 252 114 103
-3913.3142 5576.0571 1806.6766 0.466 -0.885 0.005 99 68 40
-3918.4397 5598.4214 1804.7200 0.477 -0.879 -0.008 94 60 33
-3804.6262 5504.2075 1727.1534 0.360 -0.723 -0.590 78 47 25
-3799.7212 5556.5449 1706.8497 0.376 -0.734 -0.566 80 48 25
-3794.8728 5564.3154 1700.0015 0.376 -0.734 -0.566 71 36 11
-3792.9880 5576.6035 1694.5525 0.379 -0.718 -0.584 82 45 17
-3763.3284 5592.4995 1662.1746 0.301 -0.935 -0.187 176 139 111
-3684.0718 5531.9336 1606.6431 0.566 -0.630 0.531 118 69 47
-3724.1504 5609.3994 1620.6379 0.286 -0.866 -0.410 105 55 34
-3728.8247 5663.6948 1608.6588 0.479 -0.842 -0.248 93 46 25
-3571.6658 5753.0298 1435.5610 0.745 -0.235 0.624 86 41 15
-3573.0378 5772.1655 1431.0829 0.977 -0.193 0.087 79 35 10
-3546.6482 5796.1387 1399.3185 0.723 -0.226 0.652 100 59 33
-3342.5417 5618.8188 1262.7301 0.287 -0.932 -0.220 106 72 44
-3345.8171 5676.0122 1248.5776 0.296 -0.938 -0.182 56 22 0
-3338.3032 5680.2134 1240.3226 0.290 -0.944 -0.155 71 37 12
-3314.4207 5690.5420 1214.9944 0.266 -0.953 -0.146 126 89 74
-3292.2358 5686.3486 1195.6133 0.095 -0.992 0.083 123 94 77
-3257.9656 5660.4482 1171.5149 0.361 -0.927 -0.105 79 62 40
-3214.5989 5635.4404 1138.6843 0.623 -0.683 -0.382 26 19 3
-3215.8511 5655.4238 1133.8396 0.419 -0.672 -0.611 27 21 9
-3183.7864 5759.8037 1072.6138 -0.005 -0.996 -0.085 116 98 85
-3156.0403 5763.6758 1045.6323 0.158 -0.719 0.677 135 118 104
-3101.5876 5754.4102 997.7522 0.527 -0.370 0.765 104 85 71
-3070.7925 5989.0376 898.5373 -0.022 -0.899 -0.438 71 58 49
-3078.4871 6108.6445 869.7266 0.133 -0.985 0.111 55 43 34
-2752.6848 5720.8203 683.2104 0.695 -0.698 0.173 57 48 41
-2752.8708 5741.9604 677.0260 0.341 -0.876 -0.341 57 48 41
-2273.9309 5763.6094 224.8759 -0.037 -0.678 -0.734 47 31 21
-2226.3723 5813.5039 165.6191 0.425 -0.631 0.649 32 13 3
-1808.7600 5067.6963 1.3349 0.912 -0.395 0.112 249 219 220
-1779.1754 6120.2349 -342.7292 0.461 -0.509 -0.727 148 102 96
-1772.2218 6130.0195 -352.1419 0.515 -0.832 -0.206 148 102 94
-1743.3770 6130.9399 -379.2580 0.505 -0.840 -0.199 60 17 10
-1721.8380 6158.6987 -407.6475 0.457 -0.832 -0.316 231 171 164
-1706.3354 6209.9272 -437.4784 0.898 -0.407 -0.168 231 171 163
-1697.8759 6289.7148 -469.3449 0.869 -0.399 0.292 218 158 150
-1616.2593 6399.5898 -578.3299 0.698 -0.701 0.145 252 181 173
-1215.8490 6889.5361 -1098.2443 -0.176 -0.974 0.141 242 160 150
-1105.4292 6533.7812 -1093.9983 -0.231 -0.914 -0.332 239 154 143
-580.8670 4332.1724 -919.9837 0.107 -0.407 0.907 253 33 80
-523.8384 4349.3594 -978.2159 -0.782 -0.611 -0.124 247 28 75
-516.3017 4340.6143 -982.5986 -0.782 -0.611 -0.124 236 50 81
-449.5717 4463.7734 -1081.7273 -0.629 -0.617 -0.473 254 164 142
-375.6186 3928.7222 -989.6291 -0.505 -0.779 -0.370 246 68 105
-150.6310 3528.2048 -1078.5231 0.954 -0.269 0.130 241 39 65
-99.0223 3133.7554 -1007.9182 0.368 -0.680 -0.634 211 0 20
-87.6292 3253.9160 -1054.6558 0.796 -0.581 -0.169 216 25 37
-76.4535 3778.8064 -1222.9081 -0.289 -0.724 -0.627 253 64 77
-72.7569 3911.3611 -1266.2117 -0.170 -0.980 0.105 252 72 79
-3920.0229 5599.9790 1787.8730 0.438 -0.889 -0.135 73 41 16
-3826.3889 5476.9214 1738.1451 0.097 -0.961 0.260 75 43 18
-3816.1995 5505.8979 1719.8744 0.325 -0.742 -0.586 74 46 24
-3810.8123 5587.6313 1690.0573 0.376 -0.733 -0.566 99 62 36
-3686.6416 5519.9204 1595.1324 0.566 -0.630 0.531 143 92 71
-3679.6008 5524.3198 1587.2493 0.563 -0.633 0.531 132 81 60
-3719.8015 5601.9507 1601.0732 0.233 -0.972 -0.014 121 73 51
-3719.5066 5632.7075 1591.4637 0.235 -0.892 -0.387 107 56 35
-3352.1479 5617.8423 1254.3402 0.287 -0.932 -0.220 119 85 57
-3362.0100 5669.1021 1247.9539 0.306 -0.934 -0.187 73 39 11
-3355.3000 5674.6816 1240.0203 0.296 -0.938 -0.182 69 35 8
-3347.7051 5678.7393 1231.7255 0.290 -0.944 -0.155 77 43 16
-3339.7661 5682.2095 1223.2889 0.266 -0.953 -0.146 102 68 40
-3331.8379 5685.7104 1214.8535 0.266 -0.953 -0.146 120 83 62
-3323.9045 5689.2129 1206.4126 0.266 -0.953 -0.146 123 85 71
-3266.7563 5658.0225 1162.7327 0.361 -0.927 -0.105 68 52 29
-3211.2886 5611.3418 1125.3171 0.632 -0.677 -0.376 28 21 4
-3221.9517 5737.9922 1096.7935 -0.062 -0.743 -0.667 25 19 7
-3200.4380 5753.2988 1072.1406 -0.089 -0.994 -0.063 46 30 17
-3119.9995 5695.4600 1014.8895 0.081 -0.738 0.669 75 57 45
-3110.7720 5696.5757 1005.9693 0.147 -0.718 0.681 68 50 38
-3059.6196 5826.4863 918.9693 0.694 -0.550 0.464 86 70 57
-3053.2190 6035.7993 849.4875 0.506 -0.333 0.796 76 63 54
-3042.6375 6035.1387 839.8475 0.915 -0.388 0.114 72 62 53
-2756.0750 5748.5654 660.3295 0.351 -0.875 -0.335 66 57 49
-2755.0376 5767.2354 653.6983 0.354 -0.855 -0.379 65 57 45
-2750.9753 5779.4810 646.2036 0.358 -0.849 -0.389 65 55 40
-2759.7710 5819.7256 642.1686 0.155 -0.710 0.687 71 57 41
-2698.6721 5750.0913 606.4830 0.203 -0.853 0.481 82 49 42
-2676.2844 5722.0674 594.1685 0.364 -0.792 0.490 85 48 43
-2811.3237 6155.9033 588.0773 0.643 -0.698 0.315 67 47 25
-2641.3130 6117.3735 441.6653 0.837 -0.426 -0.342 59 42 19
-2411.3423 5774.6641 331.8146 0.765 -0.631 0.128 63 34 18
-2189.3640 5542.5889 195.8175 0.214 -0.525 -0.824 41 24 14
-2212.9380 5752.0903 154.1544 0.280 -0.698 0.659 33 13 2
-1836.4753 4983.3008 37.3900 -0.085 -0.908 0.410 235 200 194
-1807.9016 5017.9937 0.2874 0.517 -0.822 0.241 249 220 218
-1794.0870 5001.6675 -7.6046 0.505 -0.831 0.231 249 219 221
-1753.9838 4932.1260 -23.7931 0.462 -0.879 -0.119 247 220 221
-1784.5680 6105.7524 -351.5613 0.480 -0.495 -0.724 155 110 105
-1784.9918 6141.6284 -362.0559 0.504 -0.844 -0.182 157 109 105
-1771.5201 6128.2705 -370.5301 0.503 -0.841 -0.199 155 110 104
-1752.0256 6127.9453 -388.5607 0.505 -0.840 -0.199 182 139 133
-1729.7516 6152.8867 -416.8452 0.239 -0.906 -0.350 230 171 166
-1597.2933 6014.6709 -498.0781 0.962 -0.194 0.191 240 173 167
-1326.4596 6248.0635 -820.7851 -0.673 -0.738 -0.049 232 169 160
-1315.9525 6243.8125 -829.2662 -0.668 -0.743 -0.050 237 174 165
-1310.9987 6266.9497 -840.8956 -0.681 -0.731 -0.038 244 181 172
-159.9015 3380.1201 -1035.2000 0.861 -0.493 0.126 255 66 92
-154.8807 3512.3938 -1080.0160 0.954 -0.269 0.130 240 38 65
-104.6030 3182.1611 -1026.5432 0.291 -0.761 -0.580 210 1 20
-100.1955 3194.2471 -1034.3103 0.194 -0.744 -0.640 209 8 22
-81.1242 3446.1260 -1128.4948 0.160 -0.805 0.571 249 59 71
-3698.0916 4830.3926 1799.4464 0.919 -0.345 -0.190 147 108 79
-3935.9888 5578.1245 1791.5443 0.860 -0.510 0.033 81 50 22
-3854.1877 5546.6851 1725.1412 0.253 -0.889 0.381 74 46 24
-3819.6162 5554.8828 1690.4965 0.379 -0.723 -0.577 68 38 14
-3682.2161 5512.3945 1575.7990 0.563 -0.633 0.531 143 92 71
-3722.8230 5621.5078 1580.1218 0.358 -0.857 -0.370 116 65 44
-3710.7893 5618.4194 1569.8829 0.422 -0.784 -0.456 99 48 28
-3543.7861 5672.3604 1398.1343 0.698 -0.138 0.702 91 45 19
-3414.7346 5656.7710 1282.9576 0.107 -0.569 0.815 139 104 74
-3355.2961 5656.8735 1227.6788 0.427 -0.586 0.689 93 60 30
-3343.6021 5653.7461 1217.7673 0.427 -0.586 0.689 88 54 25
-3348.1287 5678.9097 1214.2676 0.202 -0.619 0.759 103 67 40
-3338.1736 5678.8555 1205.0311 0.195 -0.625 0.756 115 77 56
-3326.0410 5674.9668 1194.9449 0.275 -0.950 -0.152 116 78 64
-3318.1860 5678.5806 1186.5370 0.275 -0.950 -0.152 114 78 66
-3191.5129 5736.2881 1051.1208 0.484 -0.612 0.625 48 32 19
-3170.4070 5752.4097 1026.5652 0.145 -0.728 0.670 69 53 40
-3078.8472 5805.2607 925.2740 0.739 -0.547 0.393 71 55 42
-3073.5291 5814.2842 917.5670 0.734 -0.549 0.400 65 49 36
-3049.9031 5966.7363 848.9123 0.581 -0.340 0.740 84 71 62
-3050.4072 6008.9238 836.4592 0.506 -0.333 0.796 84 71 62
-3046.7441 6022.2563 828.9709 0.915 -0.388 0.114 75 65 56
-2835.5955 5731.6230 721.7297 0.015 -0.828 0.560 69 58 52
-2822.0774 5723.6851 711.5963 0.005 -0.831 0.556 77 68 61
-2780.2278 5696.7363 680.9518 0.711 -0.683 0.167 87 78 71
-2765.2053 5747.0576 651.5756 0.341 -0.876 -0.341 80 71 63
-2767.4517 5772.7280 645.8010 0.358 -0.849 -0.389 69 59 48
-2760.7664 5779.3115 637.5705 0.358 -0.849 -0.389 63 51 37
-2682.1045 5713.4785 584.6196 0.364 -0.792 0.490 100 60 55
-2817.1653 6054.5771 605.6812 -0.037 -0.942 0.334 93 60 44
-2815.5361 6073.5059 598.3691 0.396 -0.896 0.201 88 59 41
-2496.8059 5865.7046 365.7617 0.707 -0.512 0.488 70 42 26
-2405.3340 5783.3916 305.9517 0.769 -0.627 -0.122 70 41 25
-2389.7319 5768.3540 296.0557 -0.364 -0.911 -0.192 69 41 25
-2362.3921 5747.5698 277.0099 0.666 -0.652 -0.361 70 44 29
-2348.3840 5808.5312 245.3176 -0.059 -0.946 -0.319 66 40 25
-2254.9553 5641.3628 209.6792 0.533 -0.335 0.777 54 35 24
-2238.3494 5622.3716 200.0610 0.482 -0.394 0.782 48 31 21
-2227.4937 5618.1787 191.2551 0.482 -0.394 0.782 41 24 14
-2216.0220 5612.3271 182.3845 0.480 -0.395 0.783 36 19 9
-2219.7283 5646.2593 175.4365 0.583 -0.423 0.694 33 16 6
-2218.2732 5741.2866 144.9779 0.280 -0.698 0.659 33 13 2
-1870.7668 4988.1680 52.6496 0.220 -0.904 0.366 65 30 24
-1852.4165 4982.5029 37.3284 0.217 -0.898 0.382 214 177 171
-1844.5662 4983.3257 29.7796 -0.083 -0.906 0.414 222 185 179
-1829.9568 5057.9683 -6.6618 0.822 -0.547 -0.159 249 220 218
-1827.7368 5099.1733 -21.3461 0.679 -0.724 0.120 249 219 221
-1814.6332 5109.3301 -36.6367 0.852 -0.319 -0.415 255 233 235
-1785.7850 6145.1890 -380.7253 0.504 -0.844 -0.182 210 165 160
-1760.6758 6124.9497 -397.8648 0.505 -0.840 -0.199 209 166 160
-542.2710 4401.3667 -1002.4354 -0.796 -0.605 0.017 246 29 74
-158.3071 3349.6143 -1037.1815 -0.381 -0.771 -0.511 249 53 79
-181.2439 4775.9946 -1452.7501 -0.216 -0.967 0.132 231 11 36
-87.1391 3265.0430 -1077.4276 0.417 -0.711 -0.567 239 48 61
-85.8864 3449.8523 -1135.1974 0.111 -0.822 0.559 248 59 71
-3893.5085 5544.7202 1744.5842 0.058 -0.951 0.304 77 47 21
-3885.5217 5562.5366 1731.6580 -0.121 -0.946 0.300 74 46 24
-3821.5317 5527.1479 1683.1495 0.365 -0.731 -0.577 104 76 54
-3819.7776 5539.4238 1677.7258 0.357 -0.720 -0.595 111 80 58
-3815.0918 5547.3682 1670.9174 0.357 -0.720 -0.595 137 104 80
-3809.6799 5569.3159 1659.1063 0.345 -0.746 -0.570 114 77 51
-3766.1748 5548.9473 1624.9860 0.747 -0.424 0.513 100 64 40
-3726.3213 5610.6343 1568.8965 0.422 -0.784 -0.456 114 63 42
-3651.4480 5666.9604 1481.9310 0.838 -0.249 0.485 92 51 29
-3485.0581 5690.7549 1320.0018 0.701 -0.135 0.700 92 55 26
-3453.6367 5671.5068 1296.7607 0.110 -0.517 0.849 136 99 70
-3345.5254 5673.7954 1195.6189 0.204 -0.614 0.763 109 71 50
-3344.8462 5689.9722 1189.9880 0.273 -0.944 -0.187 111 73 59
-3337.7402 5694.9502 1181.8480 0.265 -0.948 -0.178 110 74 63
-3398.5935 5947.2793 1160.3925 0.438 -0.363 0.822 27 21 10
-3258.9316 5786.3657 1080.3815 -0.073 -0.744 -0.664 26 18 7
-3220.6870 5771.2861 1049.5132 -0.202 -0.965 -0.167 67 51 38
-3215.1726 5779.5581 1041.8337 -0.201 -0.967 -0.157 85 69 56
-3093.9507 5700.9795 953.5060 -0.071 -0.716 0.694 96 80 67
-3036.8396 5919.7476 832.8351 0.516 -0.292 0.805 75 62 53
-2841.0798 5702.4062 718.1498 0.447 -0.510 0.735 78 67 61
-2823.8960 5706.9399 700.7849 0.024 -0.817 0.576 66 57 50
-2817.0869 5712.9385 692.6054 -0.029 -0.799 0.601 51 42 35
-2786.0359 5688.3560 671.3569 0.711 -0.683 0.167 51 42 35
-2771.2925 5718.4209 648.3682 0.537 -0.826 0.170 39 30 23
-2774.8589 5746.6528 642.9556 0.341 -0.876 -0.341 40 31 23
-2777.2485 5772.5542 637.1702 0.358 -0.849 -0.389 38 30 18
-2770.5679 5779.1416 628.9279 0.358 -0.849 -0.389 44 34 19
-2827.6541 6055.0371 596.6890 0.261 -0.897 0.358 106 68 56
-2557.2537 5987.8901 366.2426 0.589 -0.465 0.661 75 46 30
-1832.5519 4949.8271 13.8356 -0.073 -0.993 -0.094 252 215 209
-1834.3407 4977.6265 6.9055 -0.262 -0.928 0.265 254 216 213
-1587.9215 5322.7754 -328.6919 0.894 -0.435 0.105 213 174 171
-1777.0940 6115.0674 -397.8269 0.505 -0.840 -0.199 226 181 176
-1698.7726 6040.7764 -447.6256 0.739 -0.474 0.478 231 170 167
-1584.2064 5822.7539 -486.6723 -0.259 -0.848 0.463 241 172 169
-649.3862 4607.0049 -979.3599 0.702 -0.630 -0.332 249 66 79
-537.8217 4366.0801 -1008.5394 -0.817 -0.574 0.061 232 52 80
-529.3494 4349.6724 -1011.3390 -0.817 -0.573 0.064 253 120 128
-410.7097 3998.2285 -1012.9331 -0.545 -0.784 -0.297 240 82 108
-177.0661 3331.9470 -1024.0576 -0.399 -0.720 -0.567 254 78 99
-166.6350 3844.1270 -1192.0482 0.208 -0.939 -0.275 244 23 48
-156.9329 3733.0427 -1166.7285 0.564 -0.816 -0.130 238 16 41
-3849.2842 5523.1201 1692.5406 0.303 -0.868 0.394 128 100 78
-3784.7136 5486.3481 1644.0544 0.189 -0.834 0.518 126 94 70
-3769.8223 5553.7500 1609.2084 0.756 -0.406 0.513 127 90 64
-3775.6028 5577.7261 1607.0985 0.759 -0.406 0.509 136 92 69
-3750.1760 5569.5020 1586.0546 0.866 -0.469 0.172 123 72 51
-3744.3523 5591.2798 1573.8557 0.495 -0.655 0.571 108 57 36
-3714.1497 5575.5918 1550.7048 0.537 -0.674 0.507 112 61 40
-3693.4163 5574.4087 1531.8228 -0.046 -0.905 0.423 144 96 72
-3666.0540 5562.8247 1510.0295 -0.046 -0.905 0.423 157 116 84
-3644.4377 5655.0859 1461.1868 0.840 -0.250 0.482 96 55 33
-3471.2900 5650.2715 1301.9209 0.717 -0.138 0.683 74 37 8
-3465.5125 5657.2954 1294.3660 0.697 -0.224 0.681 103 66 37
-3460.1917 5665.1201 1286.9854 0.130 -0.574 0.808 127 90 61
-3435.2563 5639.8350 1271.7183 0.118 -0.584 0.803 150 113 84
-3397.0417 5608.6055 1245.9749 0.087 -0.597 0.797 122 87 57
-3387.3689 5608.9233 1236.8947 0.156 -0.601 0.783 140 105 75
-3369.0659 5696.9180 1192.4587 0.259 -0.755 -0.602 105 67 46
-3358.3000 5695.5234 1182.8977 0.280 -0.727 -0.626 118 80 66
-3353.1267 5703.9014 1175.4814 0.280 -0.727 -0.626 119 83 72
-3173.5732 5720.4180 1003.6154 0.408 -0.780 0.473 102 86 73
-3159.7524 5713.1060 993.0632 0.423 -0.791 0.443 94 78 65
-3133.9250 5720.2090 966.8672 0.412 -0.794 0.447 73 57 44
-3114.7363 5702.6440 954.5282 -0.062 -0.711 0.700 69 53 40
-3103.7017 5700.3765 944.9898 -0.045 -0.695 0.717 65 49 36
-3094.2583 5701.1030 935.9951 -0.072 -0.716 0.694 70 54 41
-3089.0801 5728.7114 922.5772 0.837 -0.531 -0.131 43 27 14
-2995.5745 5816.6875 808.3217 0.493 -0.295 0.818 67 54 45
-2836.1589 5691.8965 699.2210 0.013 -0.816 0.577 27 16 10
-2798.3752 5693.7012 663.5760 0.549 -0.820 0.163 23 14 7
-2790.4451 5697.3213 655.0839 0.549 -0.820 0.163 22 13 6
-2786.1238 5708.5732 647.5627 0.551 -0.818 0.163 21 12 5
-2782.4038 5762.4565 627.3051 0.353 -0.872 -0.338 21 15 2
-2772.8391 5762.8286 618.3082 0.354 -0.874 -0.335 26 18 2
-2756.4348 5748.4985 607.5456 0.353 -0.874 -0.334 45 31 15
-2739.1941 5732.2529 596.6041 0.349 -0.875 -0.337 82 62 47
-2733.9524 5741.8403 588.7473 -0.087 -0.975 0.202 105 78 67
-2693.9695 5696.9048 565.6364 0.369 -0.765 0.528 115 75 69
-2792.1760 5954.5786 576.4647 -0.005 -0.945 0.327 116 73 63
-2755.1523 5939.0405 546.9338 -0.302 -0.939 -0.161 115 73 59
-2895.1233 6296.4502 565.4373 -0.724 -0.688 0.040 114 72 58
-2624.4490 6052.8613 390.0805 0.661 -0.484 0.574 102 64 49
-2221.2258 5578.0503 163.7594 0.444 -0.153 0.883 28 11 3
-2265.3167 5841.5229 122.5327 0.824 -0.489 -0.286 36 16 5
-1619.5538 5286.5850 -303.9984 -0.070 -0.860 -0.506 253 244 245
-1586.5148 5318.4863 -344.6237 0.864 -0.454 0.217 220 176 173
-651.1225 4570.6230 -979.9113 0.703 -0.617 -0.354 244 61 75
-655.5553 4655.9814 -1002.4149 0.189 -0.353 0.916 248 46 71
-652.3707 4685.4360 -1014.5572 0.199 -0.367 0.909 253 31 79
-651.5815 4733.9062 -1030.4056 0.207 -0.369 0.906 254 30 84
-435.0463 4127.1543 -1042.2408 -0.556 -0.831 0.007 249 129 126
-3695.5754 4593.4502 1824.7601 -0.747 -0.619 -0.243 152 114 91
-3954.4128 5500.5640 1779.5515 0.977 -0.212 0.022 121 87 59
-3786.1079 5472.9326 1632.0571 0.177 -0.817 0.549 87 54 29
-3781.9502 5526.1279 1611.4617 0.757 -0.351 0.551 78 40 17
-3688.5496 5550.7026 1517.0533 -0.082 -0.926 0.368 160 111 87
-3667.6667 5549.1416 1498.1652 -0.006 -0.906 0.424 177 136 104
-3631.7053 5650.1318 1433.0173 0.838 -0.251 0.485 98 57 35
-3105.5210 5684.8057 933.8055 0.121 -0.858 0.499 48 32 19
-3084.9568 5701.6377 909.4257 0.831 -0.539 -0.136 54 38 25
-3091.5874 5733.0454 905.6971 0.829 -0.537 -0.154 64 48 35
-2771.8943 5637.8809 638.9621 0.395 -0.854 0.337 21 12 5
-2760.5796 5634.1938 629.6221 0.394 -0.851 0.347 21 12 5
-2745.2671 5703.5220 593.5986 0.313 -0.882 -0.352 42 30 14
-2738.3108 5709.2852 585.3299 0.313 -0.882 -0.352 82 62 49
-2730.2854 5712.7734 576.7849 -0.151 -0.982 0.114 105 79 68
-2803.4849 5957.1411 567.8274 -0.358 -0.933 -0.046 122 75 66
-2736.8784 6125.8018 452.9494 -0.256 -0.732 -0.631 121 76 63
-2719.9751 6134.0176 434.6780 0.859 -0.503 0.092 116 72 59
-2713.6792 6143.1729 425.9548 0.859 -0.503 0.092 114 71 57
-2647.2554 6059.0137 390.7925 0.706 -0.547 0.451 113 69 56
