ply
format ascii 1.0
element vertex 791
property float x
property float y
property float z
property float nx
property float ny
property float nz
property uchar diffuse_red
property uchar diffuse_green
property uchar diffuse_blue
end_header
-3676.3257 2721.8889 1302.6857 0.116 -0.782 -0.612 80 95 105
-3668.4946 2726.5530 1298.2073 0.116 -0.782 -0.612 59 55 53
-3820.6582 3051.9299 1305.5027 0.187 -0.941 -0.282 38 37 37
-3001.4673 2553.0850 1026.1306 0.531 -0.845 -0.062 94 56 33
-2837.9314 2637.0479 935.1844 0.175 -0.846 -0.504 149 97 69
-2880.5422 2750.8645 932.8771 0.905 0.007 -0.426 100 58 33
-2752.4407 2747.6313 874.8604 0.650 0.174 -0.739 94 47 17
-2687.8809 2869.3569 821.9821 0.287 -0.931 0.224 178 96 49
-2748.2900 3043.9014 816.1837 -0.138 0.041 -0.990 181 93 45
-2314.2300 2884.2515 648.0955 0.831 0.481 -0.279 166 88 39
-2324.1074 3099.6929 611.3298 0.275 -0.086 -0.958 145 110 88
-2324.9812 3111.3623 609.4935 0.278 -0.092 -0.956 140 105 85
-2316.1794 3110.7175 605.5881 -0.152 -0.807 -0.570 127 92 70
-2282.9165 3284.2153 557.1137 0.341 -0.590 -0.732 27 10 2
-2283.0234 3295.5679 554.9871 0.512 -0.554 -0.657 24 12 5
-2271.2354 3313.0396 546.2430 0.527 -0.439 -0.728 16 10 6
-2970.5298 5275.7900 490.1931 -0.494 -0.264 -0.829 134 101 94
-2958.1167 5272.9014 485.0648 -0.495 -0.271 -0.825 131 98 91
-2962.1514 5354.6055 471.2539 -0.303 -0.146 -0.942 131 100 95
-2971.6836 5390.2402 468.7881 -0.337 -0.162 -0.928 135 104 99
-3182.7380 5926.4912 462.6280 -0.138 -0.040 -0.990 169 141 133
-3223.6946 6021.9106 463.0890 -0.133 -0.039 -0.990 159 133 124
-3284.3254 6153.8184 465.5630 -0.135 -0.043 -0.990 161 134 123
-2601.9919 5834.8940 214.3553 0.912 -0.374 -0.169 123 85 64
-2611.3333 5876.7451 210.6108 0.935 -0.286 -0.209 114 78 56
-2614.0989 5926.2056 202.3981 0.178 -0.973 -0.150 118 82 60
-2595.2686 5906.5039 197.5545 -0.221 -0.664 -0.714 115 77 56
-2575.8757 5885.3452 192.7326 -0.358 -0.706 -0.611 116 78 57
-2556.8225 5864.7207 187.9638 -0.340 -0.739 -0.582 119 81 60
-2510.1328 5890.2148 161.7068 0.970 -0.018 0.243 115 80 58
-2512.6189 5917.8091 157.5566 0.975 0.008 0.223 109 74 52
-2515.2771 5945.9463 153.3812 0.976 0.017 0.216 110 75 53
-2507.0823 5949.2617 148.9947 0.971 0.044 0.234 109 77 56
-2496.0708 6013.0117 131.7374 0.861 -0.422 0.283 94 71 53
-2377.6187 5888.8823 101.3062 0.788 -0.324 0.524 21 12 7
-2347.9185 5839.5659 97.1623 0.980 -0.192 0.045 23 14 9
-2365.1760 5903.3706 92.8342 0.763 -0.645 0.040 21 12 7
-2180.6008 5624.8481 61.7239 -0.406 -0.767 -0.497 37 27 15
-2075.8369 5425.1636 52.0375 0.035 -0.051 -0.998 79 66 57
-2051.2317 5404.2002 44.7923 0.288 0.079 -0.954 155 135 131
-1916.7964 5081.6460 45.0709 0.981 -0.073 -0.181 166 142 140
-1995.2693 5302.2969 38.7052 0.238 -0.904 0.355 152 131 128
-2020.0006 5386.3208 33.9232 0.227 -0.926 0.301 161 140 137
-2012.6910 5388.1665 30.2236 0.171 -0.970 0.175 178 157 154
-2002.5284 5382.5708 26.6442 0.867 -0.486 0.108 200 179 176
-1995.7961 5385.8086 22.9422 0.865 -0.491 0.104 215 196 194
-4639.3911 2783.5125 1720.1620 0.296 -0.928 -0.226 50 40 28
-4499.5620 2736.3755 1665.4944 0.612 -0.785 -0.099 90 82 71
-4488.2871 2740.7959 1659.5004 0.621 -0.775 -0.115 94 85 74
-4526.1235 2784.9294 1668.2386 0.989 -0.145 -0.003 108 96 80
-4529.2676 2797.8979 1667.1703 -0.058 -0.991 0.120 111 98 81
-4544.3506 2897.1084 1654.9069 0.738 0.340 -0.584 132 119 103
-3699.5525 2714.0952 1304.9888 0.169 -0.755 -0.634 113 169 210
-3692.4055 2719.2781 1300.7299 0.169 -0.755 -0.634 117 154 182
-3687.6292 2726.1138 1297.2329 0.158 -0.772 -0.616 78 93 103
-3682.5894 2732.7649 1293.6515 0.146 -0.798 -0.585 57 52 50
-3827.4893 3052.8311 1297.9739 0.187 -0.941 -0.282 54 54 54
-3025.7883 2550.5813 1029.3000 0.516 -0.851 -0.097 89 55 36
-2692.8740 2650.0330 858.3033 0.969 0.214 0.124 92 50 30
-2800.7915 2798.8523 878.8011 0.482 0.166 -0.860 76 39 21
-2805.9661 2813.5332 878.3284 0.452 -0.887 -0.095 73 40 27
-2776.3523 2795.0557 868.3895 0.797 -0.572 -0.195 45 35 34
-2742.9197 2792.0596 853.7222 0.811 -0.208 -0.546 51 33 27
-2745.6931 2833.7664 846.9401 0.084 -0.449 -0.889 83 37 10
-2742.1128 2840.0789 844.0897 0.084 -0.449 -0.889 158 83 39
-2722.8867 2830.9590 837.0822 -0.167 -0.553 -0.816 178 96 49
-2661.7026 2917.6458 792.4572 -0.195 0.014 -0.981 200 114 66
-2729.1833 2998.2183 807.6831 -0.172 0.033 -0.985 200 112 64
-2290.8567 2842.1685 637.9138 0.792 0.440 -0.424 171 93 44
-2303.6099 2866.8806 638.9614 0.821 0.440 -0.364 172 94 45
-2303.2991 2925.5261 627.5048 0.900 -0.255 -0.354 173 93 53
-2386.6392 3350.9844 583.4219 0.429 -0.881 0.201 157 96 67
-2371.6072 3342.2068 578.2609 0.682 -0.522 0.512 149 95 61
-2368.0049 3348.7456 575.3566 0.675 -0.528 0.516 121 71 43
-3293.5337 6070.7808 472.2209 -0.138 -0.040 -0.990 176 140 134
-3125.1821 5871.9072 433.8223 -0.071 -0.983 -0.171 177 138 131
-2470.4236 5376.4458 230.8446 0.232 -0.831 -0.506 144 102 80
-2614.8813 5935.4824 188.8593 0.152 -0.988 -0.027 123 87 65
-2589.4346 5901.1250 183.8844 0.595 -0.654 -0.467 122 86 64
-2576.2241 5893.5938 179.3135 -0.239 -0.946 -0.219 123 87 65
-2524.7502 5843.7129 165.4651 -0.130 -0.224 -0.966 92 59 40
-2491.5232 5790.5190 160.5765 -0.176 -0.281 -0.943 76 43 24
-2483.8865 5794.7163 156.2844 -0.077 -0.634 -0.770 85 53 32
-2495.1697 5841.8218 152.3413 -0.198 -0.959 -0.204 101 69 48
-2499.5291 5873.4512 148.2268 0.937 -0.183 0.297 115 80 60
-2472.2339 5832.8784 143.6081 -0.265 -0.943 -0.199 120 88 67
-2479.6719 5871.6582 139.5177 0.921 -0.169 0.351 115 84 63
-2384.5249 5890.4854 92.4984 0.793 -0.598 0.114 19 12 6
-2365.0396 5888.0024 84.0921 0.743 -0.590 0.316 19 12 4
-2367.3779 5915.9077 79.7745 0.726 -0.637 0.258 20 13 5
-2368.5173 5941.0532 75.4426 0.891 -0.260 0.373 20 13 4
-2198.5989 5655.0210 53.1454 -0.398 -0.658 -0.639 53 45 34
-2191.3591 5658.4814 49.1766 -0.391 -0.752 -0.532 74 66 55
-1973.8737 5233.6035 31.9771 -0.022 -0.984 0.176 153 132 129
-2016.0831 5362.0098 26.4506 0.146 -0.976 0.161 161 140 137
-2009.6062 5365.9199 22.7427 0.832 -0.518 0.201 178 157 154
-2008.7478 5405.0786 14.7961 0.903 0.221 -0.367 224 205 204
-1966.7426 5357.5610 4.8096 0.985 0.144 -0.090 219 207 209
-1980.4630 5414.4985 0.0808 0.822 -0.457 -0.340 213 201 201
-1860.2595 5320.3135 -36.5603 0.122 -0.089 -0.989 239 228 232
-4492.7134 2728.9080 1652.6174 0.797 -0.552 -0.245 96 88 77
-4552.0112 2818.8389 1662.0875 -0.163 -0.889 0.428 116 103 86
-4451.3125 2803.4961 1619.3231 0.275 -0.840 0.467 126 113 96
-4430.4819 2802.0366 1610.1437 0.837 -0.495 0.231 128 112 96
-3688.0781 2732.9011 1286.3196 0.147 -0.801 -0.580 55 51 48
-3536.9739 2695.6772 1224.9072 0.236 -0.122 -0.964 79 43 26
-2921.1396 2654.9524 953.0617 0.852 -0.021 -0.524 114 84 81
-2915.2542 2659.2671 949.5501 0.678 -0.569 -0.465 170 138 134
-2911.8040 2665.6829 946.7366 0.678 -0.569 -0.465 186 155 150
-2819.9023 2802.9080 878.3353 0.300 0.280 -0.912 63 37 29
-2809.3955 2812.4980 871.6996 0.452 -0.887 -0.095 60 38 33
-2774.7913 2789.2969 860.4863 0.812 -0.567 -0.139 42 40 42
-2738.2676 2812.3740 839.4124 0.362 -0.700 -0.616 61 29 11
-2748.3838 2841.8398 838.2847 0.077 -0.444 -0.893 139 66 21
-2744.8254 2848.1838 835.4361 0.077 -0.444 -0.893 178 96 49
-2687.5300 2801.4080 818.4938 0.656 -0.751 -0.080 174 90 43
-2766.8064 3011.8975 813.6235 -0.306 -0.106 -0.946 213 129 82
-2303.9478 2921.3496 620.9473 0.897 -0.266 -0.354 182 102 61
-2330.6521 3107.7163 596.8805 0.942 -0.293 -0.162 139 103 81
-2328.6523 3115.7375 594.4141 0.956 -0.269 -0.121 132 97 75
-2358.9893 3330.5840 566.4657 0.364 -0.837 0.409 146 82 51
-2249.0730 3418.2449 499.5077 0.927 0.020 0.375 13 13 6
-2247.3843 3450.9290 492.3924 0.943 0.024 0.332 30 20 11
-3135.0010 5713.5581 456.1417 -0.151 -0.148 -0.977 176 141 137
-3186.2505 5845.3086 453.8331 -0.229 -0.186 -0.955 179 139 134
-3117.9182 5764.0293 438.5786 0.195 -0.915 0.353 178 137 135
-3095.6602 6393.0361 306.2958 0.092 -0.051 -0.994 165 124 106
-2588.8672 5842.6108 182.9833 -0.128 -0.980 -0.156 122 87 65
-2526.5859 5855.2085 152.2439 -0.287 -0.552 -0.783 96 65 45
-2499.1824 5815.0820 147.5889 -0.281 -0.677 -0.680 78 47 27
-2500.5039 5839.6167 143.4240 -0.195 -0.959 -0.207 72 39 20
-2485.3047 5826.7363 139.0211 -0.273 -0.938 -0.212 92 60 39
-2470.5063 5814.6128 134.6535 -0.259 -0.952 -0.160 120 88 67
-2476.2419 5914.9370 117.7731 0.990 0.140 0.002 103 81 64
-2392.6921 5917.2754 79.3646 0.956 -0.218 0.199 17 10 4
-2373.8586 5938.8301 66.6226 0.922 -0.229 0.311 29 21 14
-2376.5542 5967.8423 62.2121 0.965 0.104 -0.242 30 21 12
-2179.1785 5613.4507 41.3833 -0.353 -0.800 -0.486 111 102 91
-2179.3103 5635.1484 37.2289 0.043 -0.049 -0.998 128 118 109
-2197.1707 5701.4600 32.4626 0.038 -0.055 -0.998 144 131 123
-2003.4379 5295.2124 23.3607 0.338 -0.773 0.537 153 132 129
-1996.5011 5297.7324 19.7200 0.338 -0.770 0.541 161 140 137
-1989.7722 5300.7520 16.0768 0.366 -0.765 0.530 178 157 154
-1980.9791 5318.7793 8.5809 0.928 -0.312 0.204 224 205 204
-1977.4412 5330.0498 4.7846 0.926 -0.319 0.203 228 212 211
-4494.3027 2726.3286 1642.6667 0.588 -0.768 0.253 102 94 83
-4531.1484 2791.7896 1646.5421 0.016 -0.891 0.453 115 103 87
-3904.6338 2754.1719 1370.3711 0.188 -0.289 -0.939 90 154 202
-3074.9958 2591.7461 1026.6804 -0.568 -0.610 -0.553 186 150 127
-2993.5044 2572.3879 993.5869 0.132 -0.623 -0.771 93 55 32
-2925.1311 2654.5020 946.5899 0.852 -0.021 -0.524 165 128 128
-2769.1321 2703.3911 866.4345 0.037 0.055 -0.998 51 38 30
-2737.0847 2806.8940 831.6947 0.425 -0.802 0.421 54 24 1
-2729.2495 2808.9709 827.7428 0.425 -0.802 0.421 69 29 1
-2687.6665 2806.8757 809.3343 0.854 -0.239 -0.463 183 99 52
-2765.5969 2954.5732 815.7233 -0.207 -0.015 -0.978 188 106 59
-2305.2822 2918.0115 614.5590 0.901 -0.273 -0.337 181 102 61
-2320.9885 3111.1067 583.9125 0.978 -0.195 0.078 126 92 67
-2350.4578 3313.1409 557.7468 0.464 -0.794 0.392 155 81 43
-2194.7266 3321.8972 485.5594 0.900 -0.272 -0.340 13 12 7
-2192.3779 3329.8208 482.9472 0.904 -0.268 -0.332 14 13 6
-2242.8643 3449.5852 482.3782 0.953 -0.054 -0.300 30 21 13
-2955.7124 5127.5034 476.9057 -0.347 -0.909 0.231 183 153 143
-3196.0178 6651.3140 287.7178 0.333 0.091 -0.938 160 119 101
-2532.4900 5461.6909 220.0380 0.125 -0.991 -0.042 146 103 84
-2468.8530 5348.1582 213.4375 0.402 0.024 -0.915 145 102 83
-2479.2900 5389.5234 210.0728 0.404 0.014 -0.915 138 95 76
-2622.5188 5923.7979 170.4285 -0.162 -0.982 -0.096 123 87 63
-2600.9736 5898.1865 165.6859 -0.092 -0.989 -0.112 122 86 62
-2487.8108 5818.1758 130.1183 -0.257 -0.956 -0.139 71 39 18
-2469.4395 5797.9409 125.7609 -0.282 -0.957 -0.063 90 58 37
-2447.1455 5768.5337 121.4216 -0.259 -0.948 -0.184 107 77 56
-2417.1094 5721.0947 117.1042 -0.263 -0.954 -0.143 111 83 64
-2379.7925 5938.0513 57.7971 0.828 -0.533 0.174 42 30 25
-2239.2422 5704.7544 39.8062 -0.178 -0.885 -0.430 91 78 69
-2179.0942 5598.7095 33.3206 -0.345 -0.797 -0.495 140 127 118
-2091.5522 5442.8311 24.1814 0.471 0.136 -0.871 151 134 127
-2015.3365 5311.5693 15.3548 0.342 -0.778 0.527 153 132 129
-1990.5447 5309.0107 4.6356 0.354 -0.765 0.537 203 182 179
-1985.5215 5316.4058 0.9165 0.403 -0.732 0.550 225 207 203
-1968.8296 5334.3716 -10.1500 0.987 0.158 -0.038 206 196 195
-1955.9070 5321.0376 -13.3909 0.493 -0.819 0.293 201 190 189
-1951.2681 5329.3638 -17.1182 0.486 -0.826 0.286 203 192 190
-1879.0815 5199.0854 -24.3138 0.234 -0.969 -0.077 220 208 208
-2954.8577 1675.3182 1144.3474 0.121 -0.079 -0.990 43 33 19
-4537.8926 2726.0276 1651.2240 0.690 -0.686 0.230 54 44 32
-4461.7290 2758.4573 1610.5052 0.764 -0.481 0.430 115 103 87
-4371.8403 2792.2688 1563.3270 0.607 0.273 -0.746 130 118 105
-4240.0229 2863.5095 1489.8799 0.680 -0.691 0.246 97 153 195
-4238.7466 2873.7097 1487.2969 0.678 -0.697 0.233 95 151 195
-4108.1953 2930.8435 1417.1971 0.792 0.054 -0.609 100 165 215
-3705.2041 2686.7891 1283.5522 -0.097 -0.810 -0.578 105 170 220
-2718.1501 2615.5674 852.5839 0.057 0.117 -0.992 66 40 28
-2767.3564 2688.3098 860.4507 0.103 0.100 -0.990 54 44 29
-2436.1387 2800.7202 689.0070 0.898 -0.239 0.370 175 89 40
-2433.3591 2807.2375 686.4712 0.898 -0.239 0.370 176 92 42
-2426.4316 2809.2134 682.9592 0.910 -0.263 0.322 178 97 48
-2266.4436 3077.6707 557.9979 0.609 -0.780 0.147 134 102 77
-2261.9355 3092.7222 553.0034 0.334 -0.901 -0.277 145 103 79
-2256.1204 3095.6267 549.8101 0.332 -0.897 -0.292 156 117 88
-2251.1494 3099.6199 546.7833 0.322 -0.921 -0.220 131 89 58
-2279.2500 3168.4375 545.9075 0.907 0.391 -0.157 151 89 65
-2283.1345 3184.3484 544.5274 0.880 0.436 -0.189 159 87 60
-2281.3091 3192.7268 542.0554 0.913 -0.196 0.358 162 80 48
-2246.4099 3413.2693 482.9171 0.934 0.114 0.337 26 19 17
-2174.0374 3319.6306 468.7191 0.695 -0.181 -0.695 28 22 16
-2217.2354 3405.5710 471.2796 0.906 -0.238 -0.351 26 21 15
-2226.3882 3430.6426 470.4716 0.899 -0.288 -0.330 18 12 6
-2449.9502 5258.1104 211.5940 0.654 -0.700 -0.287 148 105 86
-2500.4248 5382.2617 209.9149 0.380 -0.909 0.170 148 105 86
-2869.6926 6241.3706 207.3074 -0.216 -0.785 -0.580 141 96 75
-2530.1931 5856.4502 130.0099 -0.201 -0.977 -0.070 121 86 65
-2518.3589 5851.4263 125.6636 -0.197 -0.978 -0.066 115 80 59
-2481.8066 5811.8408 116.9758 -0.274 -0.961 -0.044 70 35 13
-2454.6919 5771.5977 112.6722 -0.267 -0.944 -0.194 78 44 22
-2424.6326 5724.2563 108.4380 -0.264 -0.953 -0.150 101 71 50
-2432.2607 5763.0024 104.2513 0.954 0.024 0.300 106 80 60
-2416.4526 5921.8677 65.8584 0.862 -0.429 0.270 105 90 77
-2411.3787 5931.9844 61.5799 0.897 -0.385 0.219 106 92 80
-2410.7285 5952.7056 57.2086 0.729 -0.611 0.310 94 80 68
-2403.9790 5958.8696 52.9526 0.772 -0.568 0.284 85 71 59
-2255.7034 5774.0703 22.4772 0.455 0.111 -0.883 149 131 120
-1999.0326 5216.5142 16.4970 0.685 -0.170 -0.709 154 132 127
-2036.5968 5331.2593 10.8488 0.023 -0.946 0.323 153 131 126
-2009.5808 5283.0664 8.1543 0.312 -0.845 0.434 154 132 127
-2002.0352 5284.0127 4.5663 0.312 -0.845 0.434 159 135 131
-1994.5070 5284.9570 0.9865 0.312 -0.845 0.434 177 156 151
-1942.4963 5211.4106 -7.9863 0.814 -0.489 0.314 220 204 202
-1996.8264 5372.4634 -15.1900 0.721 0.168 -0.672 210 198 196
-1964.5240 5370.5562 -29.3772 -0.342 -0.825 -0.449 207 196 194
-1820.4010 5107.5225 -42.5833 0.565 -0.823 -0.057 225 217 218
-1852.9125 5215.5518 -49.1877 0.846 -0.418 -0.331 233 225 226
-1850.1342 5228.3213 -52.9535 0.868 -0.494 -0.054 234 225 226
-1846.9749 5240.0986 -56.6956 0.871 -0.488 -0.055 238 229 232
-1841.2097 5244.7661 -60.2132 0.868 -0.494 -0.054 236 227 230
-1791.5327 5168.7373 -67.6455 -0.269 -0.938 -0.218 242 234 238
-4237.3711 2460.2952 1557.6925 0.133 0.308 -0.942 44 33 22
-4519.9600 2712.3193 1634.6783 0.421 -0.887 0.192 49 37 25
-4490.6938 2760.9429 1611.9027 0.911 -0.221 -0.349 120 108 92
-4480.3208 2765.8323 1606.2756 0.381 -0.343 -0.859 118 106 91
-4433.6396 2848.3850 1568.9575 0.982 -0.187 -0.003 56 48 38
-4239.0244 2870.0803 1477.2578 0.678 -0.697 0.233 98 138 169
-4164.0581 2887.1646 1440.2058 0.770 -0.622 0.142 94 144 181
-4115.4917 2931.8479 1409.5430 0.790 0.053 -0.611 90 160 212
-4164.8354 2976.5852 1422.8409 0.449 0.276 -0.850 103 166 210
-3864.8430 3075.2329 1268.5718 0.896 0.165 -0.412 163 150 144
-3867.9526 3088.8689 1267.2672 0.896 0.165 -0.412 169 148 141
-3815.7144 3071.3564 1247.2760 -0.236 -0.758 -0.608 174 146 135
-3457.2744 2898.8169 1120.4794 -0.587 -0.555 -0.589 181 146 125
-2912.5266 2589.8091 937.0455 0.638 0.091 -0.765 104 72 59
-2815.4526 2598.0911 891.8087 0.135 -0.972 -0.192 74 52 42
-2693.7292 2699.6499 817.0240 0.074 -0.751 -0.656 46 14 6
-2680.4897 2696.4006 811.7217 -0.268 -0.839 -0.473 51 16 3
-2691.4956 2725.6719 810.8659 0.910 -0.293 -0.294 59 22 2
-2778.5049 2958.3909 803.8410 0.026 -0.105 -0.994 192 107 59
-2837.6675 3081.2483 806.0734 0.194 -0.206 -0.959 184 97 47
-2357.0845 3051.7119 596.0936 0.364 -0.921 -0.138 37 6 0
-2354.5869 3079.7615 589.4153 0.485 -0.852 0.195 87 63 47
-2265.8594 3092.3831 547.0674 0.324 -0.902 -0.286 140 103 85
-2259.8633 3095.0554 543.8451 0.324 -0.854 -0.407 149 117 94
-2256.3423 3100.9431 541.0975 0.339 -0.892 -0.298 132 100 72
-2250.7473 3104.1155 537.9563 0.339 -0.892 -0.298 109 70 43
-2284.2705 3190.9844 535.8032 0.883 0.364 -0.297 161 82 45
-2285.4148 3214.2021 531.7177 0.858 -0.412 0.307 168 85 40
-2224.3103 3352.0901 476.9604 0.849 -0.510 0.136 17 8 11
-2198.3889 3326.1274 470.4621 0.530 -0.690 0.493 17 8 12
-2219.7439 3414.4619 462.5539 0.921 -0.152 -0.360 20 16 13
-2231.4121 3443.2798 462.0854 -0.219 -0.972 -0.080 21 18 15
-2450.3267 5246.7842 203.1315 0.708 -0.654 -0.267 154 111 93
-2452.1714 5269.5693 199.4462 0.671 -0.667 -0.325 154 111 92
-2838.4285 6138.5361 200.7755 -0.357 -0.780 -0.514 143 100 80
-2640.4968 5806.3486 177.6892 -0.167 -0.975 -0.148 140 95 74
-2427.5828 5738.1465 95.5797 -0.286 -0.889 -0.357 85 56 35
-2395.4463 5685.5654 91.5633 0.900 -0.142 0.413 113 86 65
-2417.9988 5888.6426 61.4627 0.916 -0.253 0.312 104 86 66
-2408.5952 5888.3921 57.2892 0.914 -0.226 0.336 104 87 69
-2414.9663 5925.5938 52.7808 0.685 -0.584 0.435 104 86 66
-2349.0950 5922.5146 23.8078 0.794 -0.600 0.100 130 110 93
-2330.1255 5898.3740 20.0708 -0.222 -0.937 -0.271 149 127 114
-2261.9551 5752.8682 18.2796 0.393 0.072 -0.917 154 132 119
-2290.0811 5844.1455 12.8293 0.458 0.110 -0.882 154 133 120
-2019.7379 5274.8965 4.1841 0.130 -0.276 -0.952 155 130 125
-2016.3381 5286.3638 0.3856 -0.147 -0.983 0.114 154 131 125
-1996.0178 5274.9399 -6.4772 0.267 -0.875 0.404 148 128 121
-1973.2202 5297.0947 -21.1045 0.704 0.130 -0.698 208 195 192
-1985.1682 5369.0317 -29.9891 0.586 -0.668 0.458 197 186 184
-1962.9093 5351.9180 -36.5954 -0.335 -0.824 -0.457 214 203 201
-1860.8890 5222.8945 -56.8538 0.789 -0.581 -0.200 231 227 226
-1829.9534 5179.3369 -62.1185 0.752 -0.646 -0.132 228 222 222
-1844.5967 5239.6128 -67.4826 0.868 -0.494 -0.054 228 222 224
-4301.4341 2522.7883 1563.5637 0.189 0.391 -0.901 53 38 22
-4522.6509 2699.5510 1627.2896 0.537 -0.808 0.240 73 60 44
-4491.8418 2758.0715 1601.8381 0.448 -0.276 -0.850 120 110 97
-4492.0757 2769.1760 1599.7286 0.381 -0.343 -0.859 128 119 106
-4489.0044 2778.3623 1596.5231 0.191 -0.951 0.242 117 109 96
-4427.7183 2829.9661 1558.8157 0.798 0.298 -0.523 39 36 28
-4434.2090 2845.0244 1558.7172 0.955 -0.295 0.032 34 30 22
-4255.1587 2865.6523 1474.4999 0.777 -0.585 -0.234 36 59 75
-4249.1338 2872.7947 1470.3804 0.778 -0.584 -0.231 66 94 112
-4193.0708 2902.4580 1439.3842 0.803 -0.587 -0.100 115 153 181
-3747.6028 2780.3616 1264.4320 -0.100 -0.994 -0.031 83 35 25
-3871.0886 3086.9221 1258.5552 0.896 0.170 -0.411 167 140 132
-4073.6741 3349.3232 1296.8711 -0.543 -0.470 -0.696 165 133 118
-2919.9719 2619.9514 926.1447 0.861 0.236 -0.451 125 75 58
-2923.0513 2641.1367 923.2983 0.662 -0.637 -0.394 103 65 45
-2875.6536 2628.2009 904.6724 0.209 -0.903 -0.375 91 70 47
-2870.2456 2632.7620 901.3436 0.361 -0.794 -0.489 75 60 49
-2701.8713 2703.2720 811.9570 0.074 -0.751 -0.656 76 21 3
-2697.7893 2708.7573 809.0370 -0.251 -0.841 -0.479 85 27 3
-2704.1475 2733.6379 806.9208 0.103 -0.977 -0.187 98 38 11
-2373.0801 3055.7920 594.5744 0.984 0.089 -0.155 101 64 41
-2353.2817 3083.2651 580.2393 0.342 -0.838 0.425 57 45 37
-2338.2449 3074.9128 575.1773 0.550 -0.755 0.356 79 67 57
-2332.2168 3077.7661 571.9115 0.550 -0.755 0.356 105 92 79
-2252.6306 3101.1116 531.6512 0.312 -0.883 -0.351 91 66 37
-2230.9341 3083.1169 525.5322 0.230 -0.914 -0.335 114 79 49
-2242.8474 3109.2522 525.6512 0.290 -0.883 -0.369 153 104 75
-2359.5598 3352.7043 529.3268 -0.534 -0.687 -0.493 161 82 33
-2185.0359 3289.5779 463.8335 0.645 -0.752 0.136 18 7 14
-2222.0938 3423.1301 453.7849 0.017 -0.997 -0.074 18 19 18
-2212.8369 3421.1365 450.0410 -0.006 -0.997 -0.075 18 18 16
-2768.1460 5933.8584 197.4878 0.898 -0.158 -0.411 152 109 90
-2753.4329 5946.1045 188.4636 0.858 -0.481 -0.180 145 100 79
-2682.3323 5881.7397 169.4875 0.014 -0.994 -0.105 140 95 74
-2666.9844 5870.3765 164.8866 -0.117 -0.623 -0.774 140 95 72
-2703.5798 5970.1919 161.3576 0.462 0.113 -0.880 140 95 72
-2394.9893 5841.5024 48.9568 0.944 0.059 0.325 107 86 64
-2389.1357 5849.4526 44.7529 0.950 0.063 0.306 106 86 62
-2398.6101 5893.9019 40.1293 0.867 -0.394 0.305 104 85 61
-2352.7297 5916.2534 15.1465 0.794 -0.600 0.100 133 108 95
-2333.0981 5890.5532 11.4878 0.781 -0.621 0.070 150 125 112
-2033.6456 5296.1431 -3.9684 0.178 -0.238 -0.955 155 130 125
-1998.5347 5348.4541 -30.1065 0.961 0.227 -0.158 202 190 187
-4476.1689 2669.7812 1601.4410 0.686 -0.434 0.584 121 108 92
-4451.6113 2709.4419 1582.5381 0.573 -0.715 0.400 88 77 64
-4475.8579 2734.3281 1588.3502 0.504 -0.311 -0.806 78 70 57
-4490.3081 2775.5598 1586.5166 0.191 -0.951 0.242 120 112 99
-4409.3306 2804.1147 1544.6973 0.673 0.306 -0.674 30 27 20
-4421.9214 2833.8232 1544.3472 0.905 -0.425 -0.004 35 32 25
-4376.3408 2816.9668 1527.4156 0.955 0.009 -0.296 34 31 24
-4259.5381 2864.6758 1465.7864 0.779 -0.578 -0.242 2 19 33
-4252.8418 2871.3828 1461.4562 0.778 -0.584 -0.231 14 38 53
-4197.3345 2901.4004 1430.6948 0.798 -0.595 -0.092 66 99 122
-4190.6133 2908.0098 1426.3732 0.795 -0.603 -0.067 85 122 149
-3876.0161 3008.2263 1266.0559 0.925 -0.094 -0.367 110 153 173
-3953.3823 3226.4041 1256.7555 -0.518 -0.681 -0.517 161 129 114
-3426.8982 2907.8728 1086.0338 -0.519 -0.424 -0.743 182 149 132
-3271.9915 2802.7070 1038.0991 -0.501 -0.388 -0.774 193 160 143
-3106.3528 2706.1582 983.6525 -0.522 -0.490 -0.699 77 40 22
-2929.7183 2642.9946 917.6060 0.913 0.175 -0.369 71 40 18
-2874.5852 2632.6782 895.1048 0.503 -0.848 -0.169 63 51 39
-2589.8936 2513.7815 792.0839 -0.353 -0.626 -0.695 34 27 19
-2713.0786 2709.7817 807.6539 0.064 -0.754 -0.654 116 54 28
-2711.5220 2717.6887 805.3736 -0.260 -0.808 -0.529 124 59 29
-2707.2744 2723.0488 802.4049 -0.221 -0.837 -0.501 130 65 34
-2699.5244 2725.0591 798.5476 0.022 -0.996 0.081 135 70 37
-2510.0078 2828.5090 693.3266 -0.317 -0.823 0.472 173 90 40
-2308.0544 2951.1338 578.7153 0.854 0.519 0.011 137 68 24
-2360.0891 3076.0227 576.8450 0.696 -0.555 0.455 27 18 5
-2354.4607 3079.4373 573.6514 0.342 -0.838 0.425 29 22 13
-2341.5042 3073.6926 569.0298 0.777 -0.564 0.279 32 24 15
-2336.4431 3077.7576 565.9586 0.766 -0.575 0.287 50 41 28
-2251.0186 3072.7356 528.8948 0.676 -0.525 -0.518 143 116 99
-2243.3914 3073.1980 525.4029 0.487 -0.711 -0.508 128 109 83
-2241.6685 3081.3389 523.0014 0.230 -0.914 -0.335 80 59 25
-2235.7456 3083.9946 519.8289 0.230 -0.914 -0.335 99 68 34
-2229.8335 3086.6460 516.6619 0.230 -0.914 -0.335 149 99 68
-2238.9558 3119.6426 514.1063 0.603 -0.356 -0.714 163 85 43
-2341.3250 3355.9333 512.3145 -0.617 -0.778 -0.119 140 67 28
-2186.1025 3285.0364 457.3625 0.643 -0.755 0.132 17 9 15
-2199.4753 3360.6638 448.1468 0.895 0.188 -0.404 29 27 28
-2214.2029 3393.6118 448.0989 0.989 0.136 -0.053 20 20 20
-2197.5872 3380.7812 443.2683 0.535 -0.234 -0.812 17 19 18
-2199.3706 3406.4521 438.9120 0.030 -0.734 -0.679 19 18 16
-2207.2051 3441.3320 435.4044 0.100 -0.701 -0.706 30 23 20
-2212.6599 3461.1938 433.8500 -0.462 -0.682 -0.567 34 25 23
-2732.2463 6017.4521 152.4668 0.328 0.054 -0.943 140 95 74
-2892.9348 6384.2041 150.4873 0.093 -0.053 -0.994 139 94 71
-2597.2854 5941.7383 107.5114 0.311 -0.777 -0.548 126 88 65
-2392.0244 5841.6509 36.1161 0.945 0.061 0.320 106 86 62
-2350.3672 5807.7471 24.3540 0.758 -0.512 0.403 104 84 60
-2356.8242 5845.0239 19.7516 0.945 0.185 0.271 104 83 62
-2350.5774 5851.8901 15.5898 0.908 -0.332 0.258 104 81 65
-2349.6042 5871.5156 11.2179 0.918 -0.340 0.202 115 89 76
-2344.2695 5880.6328 7.0109 0.725 -0.673 0.147 135 108 97
-2336.9001 5884.7964 2.8912 0.781 -0.621 0.070 151 125 112
-2045.2642 5311.5396 -12.0510 0.220 -0.213 -0.952 154 131 125
-2027.5410 5287.0898 -15.0436 -0.138 -0.984 0.115 154 131 125
-1950.0834 5310.1709 -54.1959 0.214 -0.886 0.412 196 188 182
-1943.5801 5313.4595 -57.7541 -0.218 -0.972 -0.090 202 194 191
-1926.8237 5289.5820 -60.4306 -0.263 -0.943 -0.206 109 105 102
-1919.2888 5289.9658 -63.8657 0.535 -0.194 -0.822 172 170 168
-3343.0168 1823.6078 1258.2754 -0.447 -0.348 -0.824 60 57 52
-4151.4751 2384.6680 1503.8976 -0.047 0.317 -0.947 118 105 90
-4481.1069 2744.7571 1577.5238 0.463 -0.397 -0.793 102 94 81
-4453.3970 2783.0671 1557.4851 -0.279 -0.944 -0.178 51 44 33
-4310.5088 2740.7236 1502.5992 0.072 -0.952 0.298 34 31 24
-4182.4707 2876.7905 1418.2775 0.802 -0.594 -0.068 14 33 46
-4179.0396 2885.5007 1414.9952 0.808 -0.583 -0.086 33 57 75
-4173.9473 2893.1243 1411.1949 0.808 -0.583 -0.086 40 69 89
-4168.8535 2900.7490 1407.3938 0.808 -0.583 -0.086 61 93 117
-4147.7856 2908.7305 1396.4285 0.570 -0.822 -0.004 99 142 173
-3625.5718 2727.0627 1201.2721 0.363 -0.422 -0.831 69 42 19
-3900.4851 3022.1545 1263.7312 0.333 -0.916 0.223 93 132 153
-3800.4387 3193.5164 1184.7090 -0.537 -0.451 -0.712 140 107 90
-3374.1025 2892.0029 1056.3207 -0.481 -0.363 -0.798 185 148 130
-3298.6309 2840.5579 1033.2030 -0.510 -0.410 -0.756 159 122 104
-3111.0142 2706.1228 977.0566 -0.551 -0.486 -0.679 89 52 34
-2898.4895 2621.7395 899.7445 0.807 -0.449 -0.385 52 31 12
-2922.7620 2651.8269 904.4445 0.859 -0.459 -0.228 48 34 13
-2587.8235 2516.8521 783.0019 -0.297 -0.554 -0.778 48 24 4
-2716.7439 2718.5242 799.5112 -0.081 -0.985 -0.155 144 74 37
-2711.0061 2722.4702 796.1670 -0.092 -0.978 -0.188 151 81 44
-2703.8433 2734.4612 790.5656 0.931 -0.271 -0.245 153 81 44
-2696.1399 2764.9246 780.9937 0.958 -0.240 0.158 177 93 43
-2339.0935 2714.3030 632.7014 -0.081 -0.799 0.596 171 97 50
-2335.8442 3071.7166 559.0814 0.512 -0.659 0.551 20 12 3
-2255.6670 3073.3811 523.1496 0.673 -0.540 -0.506 143 118 100
-2250.0476 3076.4631 520.0323 0.616 -0.601 -0.509 126 109 83
-2246.6223 3082.3906 517.3146 0.542 -0.646 -0.537 70 53 21
-2241.6807 3086.3389 514.3234 0.235 -0.915 -0.328 88 58 23
-2236.2637 3089.6538 511.2491 0.248 -0.905 -0.346 143 93 62
-2242.8223 3119.2402 508.1860 0.644 -0.378 -0.666 166 87 45
-2177.4709 3266.6594 449.4022 0.752 -0.652 0.098 13 10 13
-2215.3103 3446.8911 429.8048 0.157 -0.696 -0.701 28 21 19
-2213.3894 3455.7554 427.1618 0.046 -0.814 -0.579 28 19 16
-2426.2100 5161.2217 177.2380 0.350 -0.842 0.411 155 112 95
-2528.3081 5817.2388 90.0872 -0.239 -0.965 0.112 126 88 65
-2407.5686 5755.9668 48.8570 -0.471 -0.643 -0.604 78 50 26
-2354.7939 5869.1758 2.5651 0.734 -0.668 0.125 118 92 79
-2347.9978 5874.7393 -1.5755 0.725 -0.673 0.147 135 108 97
-2341.4521 5880.8936 -5.7244 0.725 -0.673 0.147 151 125 112
-2017.3411 5208.3379 -13.7991 0.056 -0.998 -0.019 153 130 122
-2060.0542 5334.7817 -20.3706 0.321 -0.183 -0.929 155 132 126
-2035.5165 5293.4062 -22.9089 -0.125 -0.988 0.087 156 133 127
-2021.9205 5279.2173 -26.0796 -0.244 -0.969 -0.050 155 132 126
-1953.8112 5305.7866 -61.6831 0.214 -0.886 0.412 197 188 183
-1949.7754 5315.5557 -65.4476 -0.218 -0.972 -0.090 198 189 187
-1936.9531 5302.1553 -68.4341 0.289 -0.907 0.306 97 92 89
-1927.5477 5297.6494 -71.6998 0.633 -0.173 -0.755 162 158 157
-1911.7632 5337.5112 -86.7574 0.425 -0.338 -0.840 218 214 213
-4465.6724 2753.9905 1557.7687 0.840 -0.541 0.035 73 65 52
-4444.2944 2817.9790 1535.3102 0.307 -0.060 -0.950 35 32 25
-4450.1929 2832.6006 1534.9475 0.289 -0.078 -0.954 34 31 24
-4267.4629 2862.1975 1448.1195 0.766 -0.552 0.329 17 26 31
-4263.5913 2870.7095 1444.6775 0.797 -0.518 0.310 12 25 31
-4198.7344 2883.6191 1413.3707 0.792 -0.604 -0.089 10 22 30
-4195.0684 2892.2004 1410.0055 0.790 -0.605 -0.100 20 33 42
-4182.3145 2894.7957 1403.8376 0.804 -0.583 -0.114 26 41 52
-4179.8877 2904.1931 1400.8546 0.796 -0.598 -0.088 33 51 65
-4159.4395 2901.6228 1392.3336 0.832 -0.549 -0.082 37 61 79
-4150.6724 2906.7727 1387.4098 0.570 -0.822 -0.004 53 83 105
-3730.7439 2746.9924 1234.1650 0.021 -0.868 -0.495 77 38 33
-3604.0317 2717.9949 1184.0189 0.698 -0.490 -0.522 69 46 25
-3902.2852 3019.3030 1254.6908 0.333 -0.916 0.223 75 105 129
-3870.1440 3062.0735 1231.7843 0.992 -0.021 -0.121 149 127 116
-3895.3794 3241.6885 1206.4432 -0.284 -0.730 -0.621 147 114 97
-3531.0566 3026.5042 1089.0497 -0.541 -0.462 -0.703 168 131 113
-3426.1411 2951.2473 1057.9441 -0.541 -0.460 -0.704 161 124 106
-2623.5107 2528.2300 788.9430 -0.250 -0.478 -0.842 54 27 10
-2722.5391 2719.8999 793.7875 -0.081 -0.985 -0.155 156 79 37
-2756.3799 2780.5691 796.4244 0.737 -0.384 -0.557 166 89 45
-2754.8491 2798.3333 792.1373 0.917 -0.100 -0.387 172 93 52
-2274.2917 2900.3469 558.8772 0.849 0.528 -0.003 151 82 37
-2260.8633 3043.8086 523.7839 0.745 -0.641 0.183 122 101 90
-2262.3679 3066.3267 519.8732 0.662 -0.570 -0.486 137 103 94
-2260.7979 3074.6472 517.4879 0.641 -0.580 -0.502 129 101 89
-2254.4763 3076.8274 514.2491 0.616 -0.601 -0.509 112 93 70
-2251.3704 3083.1707 511.5864 0.542 -0.646 -0.537 76 58 28
-2247.5974 3088.6504 508.8042 0.542 -0.646 -0.537 70 39 10
-2241.5935 3091.2080 505.6292 0.250 -0.902 -0.353 141 90 64
-2245.3323 3117.0488 502.0313 0.674 -0.331 -0.660 172 92 52
-2169.6548 3249.5144 441.6427 0.801 -0.543 0.252 7 13 15
-2180.0356 3376.6855 420.3899 0.740 -0.303 -0.601 22 16 15
-2367.8882 5029.8394 167.5127 0.532 -0.773 0.345 158 115 98
-2758.1680 6000.8481 142.7863 0.069 -0.998 0.009 152 107 86
-2732.5144 5968.2183 138.0719 0.037 -0.998 0.041 152 107 86
-2490.1553 5888.9263 47.0013 -0.512 -0.329 -0.793 116 88 64
-2320.1873 5728.0747 4.5206 0.957 0.032 -0.287 104 82 61
-2010.1681 5177.1406 -20.6255 0.247 -0.966 0.072 151 128 120
-2068.7830 5342.7905 -28.3664 0.720 -0.175 -0.671 155 135 128
-2045.3346 5304.3008 -30.9145 -0.112 -0.993 0.036 164 141 135
-2012.8783 5343.0977 -53.1529 0.611 0.064 -0.789 154 144 139
-1933.2219 5298.4604 -79.3100 0.616 -0.156 -0.772 120 112 113
-1933.2356 5318.8896 -83.4556 0.616 -0.156 -0.772 190 185 186
-1920.8712 5306.4561 -86.3971 0.422 -0.115 -0.899 188 186 185
-1919.2677 5343.2148 -94.5764 0.051 -0.597 -0.800 203 199 198
-1875.4263 5307.0093 -106.6078 -0.093 -0.652 -0.753 218 212 214
-4472.5767 2721.9761 1556.3389 0.804 -0.582 -0.121 73 64 49
-4489.4375 2786.3037 1550.6122 -0.135 -0.952 0.275 40 30 18
-4165.2075 2901.5881 1384.1973 0.797 -0.600 -0.066 21 34 42
-4157.0464 2907.1450 1379.4656 0.565 -0.825 -0.029 23 42 55
-3755.1885 2760.3608 1232.4435 -0.051 -0.976 -0.212 80 37 31
-3619.8101 2715.5439 1181.9673 0.671 -0.479 -0.566 66 43 20
-3611.8518 2719.8879 1177.5730 0.651 -0.487 -0.582 68 47 25
-3608.6968 2727.6628 1174.5930 0.651 -0.487 -0.582 75 66 51
-3887.1299 3003.9565 1240.7560 0.659 -0.733 -0.169 53 76 104
-3917.7483 3254.8655 1202.9349 -0.283 -0.732 -0.620 153 120 103
-3872.8940 3254.1460 1183.3214 -0.451 -0.754 -0.478 152 119 102
-3923.8372 3330.8232 1190.0844 -0.482 -0.363 -0.798 161 124 108
-3724.1431 3191.1802 1130.6654 -0.553 -0.484 -0.678 160 123 105
-2760.8967 2761.5520 794.1639 0.940 0.311 -0.141 167 85 37
-2757.5146 2767.8750 791.3808 0.976 0.217 0.026 168 86 38
-2769.0417 2788.4441 792.2528 0.976 0.218 0.013 171 89 41
-2502.4905 2816.5876 669.0682 0.697 0.114 -0.708 176 90 39
-2255.5354 3083.1902 505.7526 0.452 -0.625 -0.636 85 64 35
-2252.8237 3090.0535 503.1545 0.291 -0.711 -0.640 64 32 6
-2248.2854 3094.5381 500.2380 0.291 -0.711 -0.640 141 90 62
-2243.4834 3109.1228 495.1401 0.581 -0.542 -0.607 172 94 53
-2190.5500 3306.6333 431.4301 0.423 -0.892 -0.157 24 25 26
-2337.2344 4955.6821 158.8275 0.604 -0.724 0.334 158 115 98
-2330.4856 4959.5728 155.0586 0.604 -0.724 0.334 158 115 98
-2586.4475 5983.7490 58.3826 -0.072 -0.675 -0.734 128 92 68
-2470.7607 5873.3320 29.9965 -0.560 -0.378 -0.737 114 86 62
-2331.0835 5718.3770 0.1493 -0.466 -0.552 -0.692 105 85 61
-2337.2722 5840.9937 -22.1989 0.979 -0.105 0.177 151 125 112
-2329.6689 5844.4224 -26.2497 0.990 -0.051 0.133 155 129 116
-2018.7446 5185.1157 -28.4018 0.251 -0.963 0.098 151 128 120
-2052.2021 5287.8286 -34.6665 0.424 -0.064 -0.904 157 134 128
-2050.9539 5304.6572 -38.6578 -0.112 -0.993 0.036 162 141 134
-2030.6635 5273.8496 -41.2968 -0.227 -0.972 -0.056 163 140 134
-2022.0128 5272.0278 -44.7352 -0.227 -0.972 -0.056 177 154 148
-1946.7010 5299.5020 -83.5322 0.607 -0.265 -0.749 97 89 87
-1941.2697 5305.5215 -87.1560 0.616 -0.156 -0.772 120 116 115
-1941.3042 5325.9966 -91.3279 0.616 -0.156 -0.772 210 207 206
-1938.9829 5340.3213 -95.2799 0.510 -0.108 -0.853 226 225 223
-1929.9171 5336.7197 -98.5372 0.490 -0.067 -0.869 164 163 161
-1928.3690 5353.1611 -102.5816 0.051 -0.597 -0.800 149 148 146
-1922.7324 5358.6899 -106.1954 0.105 -0.895 0.433 226 222 221
-1886.0378 5321.4004 -114.7356 -0.106 -0.650 -0.753 101 97 98
-4423.8057 2690.3223 1530.4800 0.637 -0.771 -0.012 54 45 33
-3614.8245 2718.3140 1169.6989 0.650 -0.479 -0.591 69 48 26
-3905.9724 3013.6875 1236.6903 0.161 -0.987 0.008 29 45 74
-4004.7466 3201.2710 1241.4385 0.663 0.147 -0.734 145 113 101
-3875.8657 3159.4460 1193.4854 0.501 -0.812 0.301 143 111 96
-3920.2244 3287.5112 1186.6003 -0.467 -0.742 -0.481 155 122 105
-3871.3611 3259.9600 1170.8259 -0.431 -0.751 -0.500 157 124 107
-2963.6714 2582.6621 911.8535 -0.445 -0.895 0.045 160 123 105
-2599.9714 2439.5149 781.6992 0.250 -0.105 -0.963 29 12 3
-2780.7485 2766.6179 793.7254 0.906 0.312 -0.286 171 84 34
-2515.7727 2826.2620 665.1678 0.697 0.120 -0.707 174 91 39
-2211.8633 2805.9351 535.9800 0.435 -0.730 -0.527 181 109 60
-2326.9856 3044.9404 537.3214 0.484 -0.672 0.561 104 95 92
-2245.9473 3106.8970 489.0090 0.533 -0.624 -0.571 171 96 53
-2385.0312 3379.7830 493.8944 -0.404 -0.902 -0.154 172 86 31
-2189.1118 3276.2900 429.2108 0.576 -0.745 0.335 2 17 16
-2195.8152 3296.9529 427.9009 0.996 -0.052 -0.079 14 23 25
-2194.2942 3305.9194 425.3884 0.423 -0.892 -0.157 24 27 27
-2778.3198 6037.1426 119.6861 0.076 -0.951 0.301 151 106 85
-2442.2554 5444.7505 94.1003 0.062 -0.998 -0.002 140 95 72
-2458.5664 5852.4595 17.3646 -0.546 -0.406 -0.733 120 93 68
-2320.0181 5741.6016 -20.6262 -0.554 -0.510 -0.657 127 101 87
-2346.8762 5849.4307 -31.0274 0.845 -0.330 0.420 152 126 113
-2336.8533 5847.0386 -34.9338 0.842 -0.328 0.428 155 129 116
-2011.6095 5154.2354 -35.1094 0.323 -0.940 0.111 151 126 119
-2093.1260 5375.7573 -44.9183 0.881 -0.055 -0.469 157 133 128
-2058.0466 5308.6792 -46.5103 0.814 -0.578 -0.066 163 139 134
-2041.6168 5287.6353 -49.3902 -0.145 -0.989 0.036 179 156 150
-2029.0496 5276.0645 -52.5244 -0.216 -0.976 0.021 166 142 137
-1947.7671 5288.2163 -90.6958 0.574 -0.187 -0.797 90 86 82
-1946.7723 5305.8550 -94.7618 0.619 -0.053 -0.783 118 116 112
-1951.9491 5339.8628 -99.4877 0.571 -0.037 -0.820 211 210 208
-1950.0466 5355.3311 -103.5056 0.507 -0.118 -0.854 233 228 228
-1931.5094 5347.1382 -109.9547 0.489 -0.763 0.422 154 149 149
-1924.0675 5347.8081 -113.3584 0.103 -0.899 0.427 230 225 225
-1955.6595 5517.0791 -134.3251 -0.447 -0.257 -0.857 176 172 173
-4419.6470 2684.5049 1519.0403 0.758 -0.651 -0.032 39 32 21
-4319.5034 2658.0195 1480.7458 0.500 -0.819 0.280 39 34 23
-4255.7778 2631.1143 1458.4585 0.668 -0.705 0.238 36 32 21
-4171.9751 2909.3357 1364.2212 0.537 -0.841 -0.062 10 12 12
-4005.2195 3197.1531 1231.7338 0.664 0.147 -0.733 140 108 95
-3871.2656 3140.0427 1184.9998 0.927 0.019 -0.374 143 111 96
-3909.2393 3274.0173 1173.8619 -0.321 -0.744 -0.587 160 127 110
-3888.9282 3269.4478 1165.9291 -0.327 -0.766 -0.553 154 121 104
-2986.4041 2588.5222 912.3676 -0.487 -0.868 -0.100 159 124 105
-2701.3208 2534.1843 798.9929 -0.022 -0.974 -0.225 78 28 9
-2524.6101 2831.1777 660.2540 0.686 0.107 -0.719 173 92 43
-2215.3093 2814.8027 528.4329 0.545 -0.829 0.124 176 106 58
-2326.6660 3039.3467 530.6232 0.490 -0.671 0.557 73 61 57
-2307.5762 3025.8057 525.0815 0.134 -0.985 -0.112 107 90 89
-2248.6296 3104.9658 482.9236 0.513 -0.557 -0.654 169 95 55
-2384.9585 3362.2979 489.2421 -0.394 -0.919 -0.019 176 91 38
-2373.9871 3358.8428 485.1613 -0.393 -0.919 -0.016 175 90 32
-2171.0820 3233.7319 422.3639 0.787 -0.569 0.240 3 18 10
-2192.9084 3275.6941 423.2175 0.557 -0.780 0.286 4 19 14
-2201.7153 3299.3284 422.1742 0.977 0.055 -0.208 16 23 24
-2194.3411 3299.9116 418.8297 0.534 -0.832 -0.151 26 28 28
-2179.2678 3356.6934 400.4843 0.792 0.046 -0.608 21 17 16
-2959.1729 6334.9668 124.8002 0.092 -0.866 0.492 162 119 101
-2921.0896 6300.9087 115.2034 0.119 -0.860 0.495 153 110 92
-2463.3601 5497.2573 81.4940 0.486 -0.845 -0.224 139 96 75
-2490.3176 5824.9438 25.4344 0.853 -0.244 -0.461 122 94 70
-2453.8735 5827.3359 9.0075 -0.536 -0.637 -0.555 121 93 69
-2344.6245 5807.5942 -34.6637 -0.553 -0.496 -0.670 142 116 103
-2344.6453 5829.3237 -39.1535 0.844 -0.389 0.370 150 124 111
-2307.0623 5760.2607 -41.2842 0.826 -0.351 0.441 154 128 115
-2017.7285 5156.1733 -42.6968 0.308 -0.946 0.101 156 129 122
-2057.4697 5293.6382 -53.7845 0.765 -0.641 -0.055 167 140 136
-2052.1519 5300.3047 -57.4896 0.765 -0.641 -0.055 179 152 148
-2036.4420 5280.9692 -60.3539 -0.197 -0.979 0.052 192 166 159
-2031.8802 5289.4307 -64.1000 -0.217 -0.976 0.027 189 163 156
-2039.6017 5369.2808 -77.2566 0.652 0.049 -0.756 189 169 164
-1960.7135 5308.0112 -99.0575 0.732 -0.079 -0.676 107 97 95
-1958.0248 5321.2578 -102.9755 0.596 -0.030 -0.802 123 114 112
-1963.7036 5356.5732 -107.8046 0.582 -0.026 -0.813 195 188 186
-1960.3589 5368.2734 -111.6892 0.566 -0.166 -0.807 216 207 205
-2018.5762 5694.9209 -153.8684 -0.442 -0.249 -0.862 235 226 229
-4408.0513 2663.8330 1507.5048 0.795 0.462 -0.392 26 22 12
-3922.9563 2844.6985 1258.5909 -0.540 -0.767 -0.346 51 32 32
-3850.2642 3119.3770 1169.7190 0.932 0.020 -0.362 145 113 98
-2673.9624 2532.4932 779.7426 -0.174 -0.984 -0.025 145 77 47
-2547.5305 2851.0283 658.3335 0.035 -0.262 -0.965 165 87 40
-2227.1953 2805.4788 528.3295 0.096 -0.947 -0.306 174 102 55
-2309.1213 3022.5647 518.7841 0.115 -0.985 -0.131 55 45 37
-2258.1257 3009.2295 499.3555 0.625 -0.523 0.580 50 47 39
-2253.5769 3013.5703 496.4704 0.784 -0.414 0.463 33 27 20
-2261.8337 3127.3147 476.3720 0.132 -0.617 -0.775 178 94 48
-2357.3062 3352.8901 470.9571 -0.574 -0.777 -0.260 167 89 28
-2191.1743 3289.3320 411.8534 0.118 -0.861 0.495 15 17 16
-2298.9644 5130.1265 75.3391 0.025 -0.199 -0.980 142 99 82
-2314.8743 5258.6738 55.4896 -0.185 -0.983 -0.013 132 97 75
-2425.4248 5705.7573 10.4986 -0.445 -0.741 -0.503 124 94 70
-2303.3430 5715.4731 -44.6868 0.990 0.078 0.117 145 122 108
-2270.4988 5657.6001 -46.9335 0.848 -0.262 0.461 152 126 113
-2055.5725 5275.4048 -60.9104 0.880 -0.449 -0.153 174 145 141
-2060.7163 5308.0103 -65.4623 0.724 -0.685 -0.080 189 160 156
-2050.6858 5302.9453 -68.7752 0.622 -0.782 -0.031 194 165 159
-2047.1274 5314.0015 -72.6278 0.504 -0.863 0.032 194 165 159
-2040.6188 5317.6699 -76.2262 0.504 -0.863 0.032 194 166 162
-2034.1184 5321.3335 -79.8201 0.504 -0.863 0.032 195 167 163
-2065.0454 5419.8203 -86.8682 0.625 0.008 -0.780 195 169 165
-2031.4546 5354.8828 -87.9685 0.643 -0.764 0.042 194 169 167
-1975.5991 5292.3511 -99.2654 0.055 -0.567 -0.822 177 150 149
-1966.9159 5330.4038 -110.9733 0.583 -0.023 -0.812 147 131 131
-1972.3195 5364.9556 -115.8176 0.583 -0.023 -0.812 175 161 161
-1965.5660 5367.6958 -119.3292 0.555 -0.195 -0.808 206 192 193
-1935.1647 5348.6860 -128.6079 0.106 -0.902 0.419 226 214 213
-1942.2349 5388.1816 -133.7563 -0.056 -0.589 -0.806 225 214 213
-2050.6704 5789.0347 -170.0383 -0.488 -0.277 -0.828 230 221 224
-3864.6758 2811.1326 1230.2103 -0.557 -0.783 -0.275 63 37 35
-3918.4031 3010.3828 1211.7578 0.142 -0.990 0.002 1 10 21
-3932.9646 3156.0112 1187.5541 0.056 -0.898 0.436 131 102 84
-4014.9424 3230.5923 1207.4829 -0.090 -0.959 0.268 131 102 84
-4053.5686 3272.1677 1215.5245 0.415 -0.681 0.603 147 118 100
-4041.2927 3274.5029 1209.7102 0.415 -0.681 0.603 149 120 102
-4040.6516 3285.8613 1207.0518 0.367 -0.694 0.620 149 120 102
-2215.5007 2796.2439 517.9755 0.449 -0.892 -0.057 177 102 53
-2313.7766 3013.0667 515.1638 0.853 -0.467 0.232 57 41 32
-2305.6204 3013.0715 511.6249 0.587 -0.778 0.225 41 36 23
-2257.3511 3003.0840 492.7804 0.775 -0.426 0.466 115 113 98
-2251.0698 3005.2095 489.6105 0.617 -0.523 -0.588 110 111 99
-2250.3879 3014.4351 487.3812 0.678 0.104 -0.727 58 59 52
-2254.2910 3029.5410 485.9084 0.678 0.104 -0.727 23 26 21
-2270.6604 3060.6831 486.4823 0.756 0.178 -0.630 14 8 3
-2268.9111 3131.1245 470.9608 0.168 -0.661 -0.731 180 93 50
-3010.5583 6435.4595 100.1590 0.366 -0.844 0.392 163 117 102
-2330.9663 5243.4072 55.1986 0.257 -0.622 -0.739 138 102 80
-2305.1235 5206.0225 51.8239 -0.285 -0.946 0.153 137 102 80
-2294.8120 5202.3154 48.1279 -0.285 -0.946 0.153 137 102 80
-2287.0706 5204.1768 44.3798 -0.279 -0.955 0.105 135 100 78
-2323.3179 5727.7070 -49.6156 0.926 -0.029 0.375 147 121 108
-2231.8540 5550.4600 -52.1432 0.873 -0.320 0.368 153 127 112
-1991.0917 5045.8906 -50.8329 0.047 -0.930 -0.365 158 129 121
-2061.2349 5335.5942 -81.1216 0.719 -0.675 -0.166 194 165 161
-2055.2876 5340.7627 -84.7845 0.727 -0.664 -0.172 194 165 161
-2029.8621 5296.8760 -86.6156 0.464 -0.876 0.132 192 163 159
-1995.5928 5411.6533 -125.5348 0.381 -0.082 -0.921 191 176 179
-1996.2461 5434.0479 -129.9447 0.380 -0.091 -0.921 221 205 208
-1983.4178 5421.0029 -132.7753 0.420 -0.145 -0.896 236 218 220
-1995.2498 5473.1011 -138.5614 0.449 -0.160 -0.879 240 225 225
-1952.4982 5401.1113 -142.0185 -0.289 -0.621 -0.728 237 225 227
-1953.0768 5423.4321 -146.4453 -0.151 -0.674 -0.724 233 223 224
-1931.7986 5387.0825 -148.0571 -0.049 -0.575 -0.817 230 221 224
-1972.7538 5518.4492 -157.8233 -0.158 -0.722 -0.673 230 221 225
-1918.2803 5412.9272 -159.3373 -0.101 -0.439 -0.893 230 221 222
-3871.9194 2812.3677 1223.1039 -0.571 -0.770 -0.285 64 37 36
-3902.7869 2994.8206 1197.9730 0.425 -0.885 -0.188 9 19 28
-3916.1238 3059.9365 1190.0067 0.904 -0.426 -0.018 129 111 92
-3844.6187 3061.6726 1158.7450 0.992 -0.090 -0.086 135 109 91
-3879.2690 3110.4670 1163.4290 0.995 -0.034 -0.095 138 109 91
-2578.1003 2854.9634 655.0939 0.393 -0.294 -0.871 157 86 42
-2574.7568 2861.1279 652.3495 0.089 -0.246 -0.965 157 86 42
-2562.5737 2867.6365 645.7133 0.359 -0.120 -0.926 154 83 39
-2209.7610 2784.7466 510.7474 0.489 -0.855 0.174 174 101 53
-2211.0071 2795.5747 509.0028 0.694 -0.461 0.553 172 103 56
-2300.8735 2992.0217 506.4135 0.851 -0.520 -0.074 50 31 21
-2297.5125 2997.9038 503.7212 0.851 -0.520 -0.074 45 35 24
-2257.6340 2998.2939 486.4084 0.505 -0.793 0.342 216 208 195
-2254.7134 3004.6597 483.8043 0.463 -0.635 -0.618 204 198 187
-2253.9136 3013.7268 481.5471 0.316 -0.042 -0.948 187 184 177
-2256.1340 3026.6687 479.7778 0.588 0.147 -0.796 120 120 116
-2266.9307 3050.6299 479.3909 0.552 0.153 -0.820 57 47 40
-2293.2273 3136.3945 472.6706 0.535 -0.308 -0.787 165 100 82
-2275.2695 3133.9785 465.4209 0.201 -0.657 -0.727 176 95 45
-2639.1060 5835.6748 53.0067 0.640 -0.766 -0.063 153 112 94
-2612.3455 5799.1772 49.1393 0.058 -0.188 -0.980 153 112 94
-2350.5317 5292.6074 42.8196 0.046 -0.865 0.500 143 108 86
-2320.0449 5245.1753 39.6474 -0.253 -0.962 0.103 143 108 86
-2293.0803 5205.0605 36.4544 -0.279 -0.955 0.105 138 103 81
-2433.6147 5802.1128 -28.7051 -0.472 -0.870 -0.144 118 92 69
-1998.5356 5051.2939 -58.3918 0.058 -0.811 -0.582 158 129 121
-2058.5898 5236.4248 -71.4763 0.915 -0.391 0.102 168 138 136
-2054.3101 5245.4609 -75.2307 0.915 -0.391 0.102 174 145 141
-2069.7239 5303.2144 -80.7473 0.852 -0.020 -0.523 188 159 155
-2052.2969 5279.8335 -83.3475 0.892 0.014 -0.452 194 165 161
-2056.0825 5309.0806 -87.8782 0.822 -0.569 -0.020 194 165 161
-2057.8501 5333.4507 -92.2527 0.821 -0.562 -0.102 194 165 161
-2074.2798 5518.2788 -124.1225 -0.116 -0.175 -0.978 179 149 147
-2004.7992 5359.9795 -120.7680 -0.050 -0.347 -0.937 177 150 149
-1988.4479 5337.9941 -123.1977 0.685 0.097 -0.722 173 149 150
-2004.8440 5462.9653 -142.4619 -0.080 -0.260 -0.962 238 222 223
-1983.7017 5469.7031 -153.0176 -0.190 -0.197 -0.962 233 221 221
-1986.9404 5499.3584 -157.8707 -0.189 -0.198 -0.962 232 221 223
-1984.6519 5514.3647 -162.0234 -0.184 -0.194 -0.964 230 221 224
-3717.0481 2949.8650 1117.3140 0.980 -0.191 -0.052 132 110 92
-3732.5969 2972.3633 1119.2341 0.969 -0.208 -0.135 140 114 96
-3926.4033 3328.1438 1127.1860 0.923 -0.249 -0.292 151 120 102
-2927.1431 2561.3936 859.7402 -0.493 -0.869 -0.044 144 113 95
-2883.5481 2552.0601 842.9570 -0.347 -0.547 -0.762 133 104 90
-2588.9216 2881.2732 646.3266 0.060 -0.287 -0.956 157 86 42
-2210.1531 2780.5874 504.6633 0.501 -0.847 0.178 176 101 51
-2210.3176 2790.0991 502.7166 0.692 -0.461 0.556 174 103 53
-2224.6111 2864.0791 493.1774 0.903 0.428 0.039 62 29 9
-2294.0815 2988.5742 496.6715 0.822 -0.557 -0.118 46 32 21
-2268.2246 2986.4326 485.9971 0.144 -0.986 -0.087 47 35 24
-2262.3796 2989.1155 482.9125 0.153 -0.985 -0.075 127 114 102
-2263.7166 3000.8196 481.0055 0.463 -0.635 -0.618 169 157 145
-2260.0034 3006.1917 478.2680 0.463 -0.635 -0.618 135 125 113
-2266.7502 3024.8210 477.2205 0.305 -0.021 -0.952 118 111 102
-2270.5188 3039.7568 475.6745 0.305 -0.021 -0.952 96 95 85
-2276.1401 3057.1252 474.4101 0.552 0.153 -0.820 75 65 52
-2283.0549 3076.2346 473.3330 0.552 0.153 -0.820 61 38 25
-2288.5005 3093.5527 472.0036 0.515 0.104 -0.851 56 20 7
-2304.8550 3135.5125 470.1429 0.561 -0.126 -0.818 136 75 61
-2299.1868 3138.6763 467.0323 0.542 -0.314 -0.780 169 98 78
-2256.0698 3093.0242 458.1578 0.121 -0.622 -0.773 171 91 56
-2280.4814 3135.3225 459.6929 0.165 -0.697 -0.698 178 95 45
-2164.7034 3233.7063 388.9960 0.155 -0.829 0.537 14 16 15
-2162.5659 3318.6980 370.0495 0.795 -0.472 -0.382 10 14 15
-2712.2700 5392.1416 166.8617 0.223 -0.940 0.259 182 140 126
-2603.3140 5311.8438 136.9991 -0.081 -0.120 -0.990 169 127 111
-2633.0242 5408.6519 129.2534 0.046 -0.049 -0.998 171 128 112
-2476.9197 5475.0850 47.9768 0.127 -0.836 -0.534 159 117 101
-2326.0322 5245.8882 31.6487 -0.253 -0.962 0.103 149 114 92
-2211.4788 5050.6719 23.7510 -0.042 -0.986 0.163 134 99 77
-2179.5654 4998.3975 21.1033 0.897 -0.194 -0.397 134 99 77
-2178.0444 5013.1514 17.3192 0.897 -0.194 -0.397 130 98 75
-2358.2642 5655.6992 -41.3995 -0.421 -0.854 -0.305 122 96 73
-2038.1488 5173.1411 -76.8242 0.118 -0.223 -0.968 168 137 135
-2045.1798 5209.7217 -81.5569 0.135 -0.233 -0.963 173 144 140
-2052.3506 5246.8750 -86.3509 0.333 -0.142 -0.932 187 158 154
-2043.4730 5264.1704 -93.8400 0.959 0.003 -0.285 192 163 159
-2062.9678 5516.4839 -138.9650 -0.215 -0.969 -0.122 181 155 157
-2049.6841 5502.9995 -141.8221 -0.137 -0.969 -0.206 169 149 151
-2040.9109 5501.0957 -145.1943 -0.129 -0.968 -0.217 187 169 173
-2018.9563 5485.5132 -151.3383 -0.035 -0.630 -0.776 217 201 201
-3189.7278 1916.8274 1101.7881 0.988 0.145 0.053 33 30 25
-2288.1174 2976.1497 489.2449 0.869 -0.485 -0.100 55 33 27
-2272.2339 2986.3523 480.2587 0.144 -0.986 -0.087 55 36 30
-2266.3108 2988.9417 477.1670 0.153 -0.985 -0.075 56 34 29
-2262.9578 2994.7415 474.4920 0.569 -0.786 -0.242 55 34 28
-2280.8174 3027.2883 475.2045 0.323 -0.036 -0.946 48 30 24
-2287.0522 3065.7664 469.6678 0.557 0.148 -0.817 70 53 34
-2293.7432 3084.5950 468.5190 0.557 0.148 -0.817 89 59 41
-2300.4956 3103.5974 467.3595 0.557 0.148 -0.817 109 68 46
-2302.3457 3126.8340 463.1949 0.620 -0.633 -0.463 151 85 62
-2302.8916 3138.0273 461.0408 0.502 -0.353 -0.790 169 92 65
-2267.3967 3102.3801 453.4295 0.781 -0.576 -0.242 176 94 52
-2283.0500 3133.2114 453.5620 0.206 -0.776 -0.596 182 95 48
-2231.3193 3267.0732 402.8242 -0.482 -0.780 -0.399 11 6 1
-2170.6907 3236.3206 383.3935 0.126 -0.845 0.520 7 9 8
-2171.5127 3314.4653 367.0730 0.725 -0.597 -0.345 11 13 12
-2175.4412 3331.3540 365.1538 0.691 -0.722 -0.034 9 13 12
-2647.0620 5310.8550 144.9992 -0.449 -0.492 -0.746 173 131 115
-2503.1406 5084.7852 131.5327 -0.363 -0.250 -0.898 168 126 110
-2661.5320 5414.7944 129.0262 -0.085 -0.123 -0.989 170 128 112
-2170.2168 4606.5645 90.8376 0.919 0.125 -0.375 176 133 117
-2331.0034 5023.5850 70.7935 0.754 -0.583 0.302 171 128 112
-2323.3372 5079.6816 55.5382 -0.324 -0.939 -0.116 167 126 108
-2616.5095 5843.9331 18.1644 -0.203 -0.915 0.348 153 118 96
-2613.6313 5858.8208 13.7541 -0.206 -0.914 0.349 153 118 96
-2388.9099 5389.6899 17.5071 -0.021 -0.917 0.399 147 112 90
-2251.0325 5219.3579 -5.2604 0.026 -0.996 0.080 131 101 77
-2298.9634 5464.3691 -36.9873 0.977 -0.124 0.171 127 101 78
-2384.2202 5722.9575 -55.6088 0.928 0.346 -0.137 139 111 89
-2066.3044 5248.3145 -90.6332 0.081 -0.229 -0.970 171 142 138
-2054.9434 5239.9468 -93.7184 0.297 -0.060 -0.953 184 155 151
-2047.1074 5240.1675 -97.1248 0.267 -0.081 -0.960 189 160 156
-1988.2019 5309.4512 -137.1603 -0.219 -0.915 -0.338 179 156 157
-1978.7832 5305.2144 -140.2943 -0.202 -0.909 -0.365 181 162 164
-3509.1328 2019.4211 1208.5010 0.558 0.056 -0.828 63 56 46
