ply
format ascii 1.0
element vertex 781
property float x
property float y
property float z
property float nx
property float ny
property float nz
property uchar diffuse_red
property uchar diffuse_green
property uchar diffuse_blue
end_header
-2270.6794 5508.6680 22.2901 -0.235 -0.972 -0.006 148 102 78
-2252.7261 5515.0679 7.6452 0.753 -0.535 0.384 149 103 79
-2252.3472 5540.7373 0.2606 0.731 -0.527 0.433 149 104 82
-2244.1565 5546.0669 -7.0885 0.731 -0.527 0.433 157 115 100
-2235.9648 5551.3975 -14.4383 0.731 -0.527 0.433 183 141 129
-2220.2119 5536.6670 -21.6503 0.956 -0.227 0.187 202 159 150
-2053.9702 5274.6250 -68.2214 -0.572 -0.771 -0.278 224 185 186
-1952.4335 5097.4355 -91.9162 -0.256 -0.959 0.118 219 180 181
-1938.1195 5083.0552 -98.1935 -0.185 -0.940 0.286 219 180 181
-1922.5208 5169.5889 -133.3558 0.735 -0.256 -0.629 225 193 196
-1921.8450 5221.2925 -148.1675 0.861 0.026 -0.508 254 224 229
-898.7383 6031.8022 -1106.2639 -0.105 -0.610 0.785 194 103 84
-432.7856 3845.3564 -834.4448 0.514 -0.631 -0.581 251 20 64
-3010.6780 2890.7341 1267.7152 -0.670 -0.742 0.019 48 107 148
-3209.7947 3159.0220 1335.2780 -0.216 -0.713 0.667 67 109 134
-3194.8337 3226.2607 1305.7927 0.180 -0.557 -0.811 49 36 28
-3067.8679 3149.6943 1236.3175 0.528 -0.371 0.764 32 21 15
-2984.6602 3224.2725 1155.9437 0.282 -0.911 -0.300 33 29 26
-2976.0356 3224.9861 1149.5725 0.357 -0.906 -0.228 34 30 27
-2927.8152 3179.2559 1127.8369 0.391 -0.902 -0.181 27 23 20
-2307.6660 3182.7725 683.0637 0.692 -0.715 0.102 72 33 16
-3031.9172 5578.8589 532.1581 -0.111 -0.698 0.708 204 161 155
-2808.3469 5229.7568 469.6662 -0.038 -0.700 0.713 208 165 159
-2310.1123 5307.6074 91.3772 0.643 -0.696 -0.320 170 114 87
-2435.9333 5667.5820 80.8812 0.864 -0.170 0.474 170 115 85
-2288.7891 5534.6743 12.7012 0.725 -0.341 0.598 124 78 54
-2278.1838 5533.8145 5.3521 0.707 -0.366 0.604 130 84 60
-2258.5500 5509.4741 -1.9004 0.754 -0.530 0.388 137 91 67
-2257.4248 5533.1060 -9.3057 0.702 -0.588 0.403 144 98 76
-2251.7666 5545.0415 -16.6882 0.703 -0.589 0.399 167 124 109
-2162.6179 5389.5356 -37.0541 0.877 -0.393 0.277 202 160 148
-2051.3132 5195.0220 -62.3810 0.905 -0.165 -0.392 204 162 155
-2063.6479 5306.8467 -84.7851 0.924 -0.177 -0.339 234 195 196
-1936.7305 5297.7842 -173.0788 -0.150 -0.828 0.541 254 233 235
-1736.1224 5489.5894 -370.2063 0.566 -0.816 0.113 255 242 247
-1723.0645 5540.3960 -393.7405 0.081 -0.995 0.058 255 238 242
-3567.8474 3353.7668 1524.8347 0.517 -0.856 -0.020 94 139 183
-2980.0007 2861.5308 1243.4797 -0.636 -0.758 0.144 57 111 149
-3205.1484 3146.8530 1323.9957 -0.219 -0.711 0.668 79 126 149
-3165.4858 3114.9888 1304.6333 -0.240 -0.842 0.484 70 91 100
-2987.6782 3230.8503 1145.0131 0.365 -0.907 -0.208 34 30 27
-2803.2056 3271.1841 1001.8904 0.968 -0.133 -0.214 202 116 56
-2808.2910 3288.8406 1000.5532 0.953 -0.111 -0.280 201 116 57
-2755.4766 3429.3906 923.2675 0.470 -0.281 0.837 225 168 137
-2748.1455 3431.5483 917.4236 0.354 -0.405 0.843 231 171 144
-2362.5359 3128.4573 727.2900 -0.436 -0.860 0.265 186 155 137
-2348.9521 3120.1699 719.9196 -0.421 -0.869 0.260 88 56 41
-3022.6411 5200.4487 615.6129 0.736 -0.022 0.677 205 168 159
-3127.9456 5477.7793 612.7735 0.862 -0.272 0.427 207 170 161
-3115.9316 5477.2622 604.3375 0.884 -0.251 0.394 207 170 161
-3051.3467 5465.4546 561.5274 0.983 -0.181 0.039 203 162 156
-2813.8491 5202.9146 465.7775 0.150 -0.532 0.834 205 162 156
-2316.5986 5304.3257 82.0445 0.671 -0.713 -0.204 170 114 87
-2358.9224 5666.7310 10.2718 0.605 -0.261 0.752 135 89 65
-2261.3311 5522.4722 -18.8343 -0.230 -0.967 0.108 113 68 46
-2240.5315 5521.4160 -33.3943 -0.228 -0.967 0.113 184 142 130
-2084.3257 5238.1401 -65.2406 -0.305 -0.952 -0.032 204 161 152
-2072.4121 5257.7314 -79.2648 0.855 0.020 -0.518 213 173 174
-2091.6975 5362.8813 -95.0852 0.862 0.058 -0.503 234 195 196
-1901.7473 5424.9727 -248.2444 0.658 -0.382 0.649 255 243 247
-1743.4396 5489.2744 -379.4234 0.542 -0.833 0.106 255 240 243
-450.0742 3878.1855 -849.8165 -0.298 -0.574 -0.763 254 19 65
-401.2963 3742.4741 -846.4608 0.578 -0.711 -0.402 254 135 144
-3569.9094 3348.3262 1515.5728 0.538 -0.843 -0.004 131 150 184
-3552.7036 3341.6890 1505.1877 0.017 -0.905 -0.424 130 150 178
-3085.7200 2955.3354 1281.8179 -0.635 -0.759 0.146 83 114 149
-3180.1221 3113.2048 1304.3472 0.685 -0.649 0.331 96 147 166
-3192.2866 3198.1208 1288.9347 0.172 -0.877 -0.448 45 29 20
-3185.1548 3200.8594 1283.0731 0.125 -0.628 0.768 38 24 15
-2841.9167 3200.9192 1038.3293 0.743 -0.448 0.498 185 103 60
-2096.9587 2622.7852 671.1628 -0.384 -0.908 -0.167 212 163 119
-2339.2209 3120.3630 702.7595 0.752 -0.469 -0.463 47 15 3
-2324.8269 3191.1475 672.4189 0.724 -0.669 -0.166 63 35 27
-2348.1536 3422.5942 623.4023 0.727 -0.425 -0.540 213 180 173
-3031.0493 5001.5864 662.4318 0.737 -0.021 0.675 208 171 163
-2997.0054 5138.5171 599.3191 0.771 0.013 0.637 214 177 168
-2995.7898 5156.5620 593.3342 0.748 -0.002 0.664 221 184 175
-3006.9712 5259.4038 572.1360 0.513 -0.126 0.849 207 170 161
-2962.5151 5239.3901 546.1158 0.543 -0.124 0.831 210 169 163
-2936.5776 5317.4116 505.4922 0.630 -0.051 0.775 212 169 163
-3017.5200 5676.4541 461.3635 0.087 -0.991 -0.105 193 146 138
-3006.6975 5678.2739 453.1310 0.087 -0.991 -0.105 213 166 158
-2371.3459 5295.4907 108.7031 0.535 -0.736 -0.415 182 116 90
-2379.3684 5338.8252 102.1315 0.867 -0.174 -0.468 182 116 90
-2344.8394 5403.6221 59.1332 0.808 -0.579 0.110 170 114 87
-2313.1218 5350.7188 51.5245 0.908 -0.357 0.218 167 111 84
-2396.8132 5661.4380 23.0625 0.714 -0.222 0.664 165 118 94
-2275.4675 5511.9341 -21.0503 -0.220 -0.974 0.047 144 98 75
-2267.8625 5518.6938 -28.3900 -0.194 -0.976 0.099 143 98 76
-2235.5825 5514.2334 -50.1405 -0.088 -0.951 -0.296 196 153 144
-2092.9985 5241.2202 -74.3635 -0.305 -0.952 -0.032 204 161 152
-2088.2170 5280.0776 -88.7943 0.822 0.035 -0.569 213 173 174
-2105.4038 5379.3809 -104.7070 0.824 0.034 -0.565 234 195 196
-1950.7019 5187.5474 -160.5962 0.850 -0.022 -0.527 216 184 187
-1945.1024 5198.1060 -167.5833 0.867 -0.011 -0.499 223 188 192
-1947.0756 5284.6699 -190.7299 0.601 -0.139 -0.787 248 222 225
-1912.2413 5492.3687 -274.4789 0.097 -0.541 0.836 244 229 234
-1872.6636 5458.2764 -293.0275 0.693 -0.652 0.308 252 240 244
-1858.0272 5442.0410 -298.8581 0.651 -0.692 0.312 255 244 248
-1808.0776 5462.5225 -340.2814 0.870 -0.488 0.075 255 239 245
-1750.8364 5489.2119 -388.6643 0.579 -0.808 0.107 255 237 241
-1696.8810 5526.8721 -437.8163 0.335 -0.939 -0.078 227 188 193
-1224.2007 5429.5601 -747.2325 0.444 -0.551 -0.707 237 186 185
-927.8868 6025.7886 -1127.6190 0.270 -0.524 0.808 202 113 97
-427.5139 3873.7654 -873.9742 -0.404 -0.755 -0.517 255 121 139
-3580.4368 3351.3972 1509.9282 0.749 -0.648 -0.141 152 155 179
-2853.6248 2743.9951 1166.2766 0.971 -0.230 -0.071 57 132 153
-3203.9067 3151.5393 1299.0819 -0.313 -0.775 -0.550 76 71 62
-3178.8374 3176.2529 1274.1768 0.002 -0.908 -0.419 46 26 12
-2339.8223 3349.7102 627.4867 0.392 -0.898 -0.199 215 181 172
-2343.5405 3367.9712 624.9137 0.671 -0.668 -0.321 215 181 173
-2956.7749 5233.7046 528.0771 0.695 0.007 0.719 210 169 163
-2907.9553 5183.6274 507.6461 0.618 -0.078 0.783 203 162 156
-2896.6726 5246.1045 481.7592 0.449 -0.156 0.880 181 138 132
-2905.2393 5305.2812 470.9420 -0.211 -0.614 0.761 181 138 132
-2840.4263 5201.1963 454.5654 -0.138 -0.599 0.789 151 108 102
-3026.6917 5676.8672 451.1708 0.065 -0.997 -0.041 225 179 171
-3016.3704 5679.7041 443.0146 0.065 -0.997 -0.046 217 171 163
-3005.6082 5681.6406 434.8016 0.053 -0.998 -0.045 200 154 145
-2994.3799 5682.6167 426.5316 0.053 -0.998 -0.045 208 161 153
-2631.8550 5866.7363 115.9040 -0.272 -0.817 0.507 183 120 96
-2588.8843 5817.9751 99.2594 0.264 -0.942 0.208 180 117 93
-2359.2495 5573.0786 5.8288 0.297 -0.707 -0.642 156 110 86
-2282.4263 5509.2773 -30.6093 -0.125 -0.932 -0.340 163 117 94
-2309.2754 5604.8652 -38.8222 0.824 -0.237 0.514 172 126 104
-1961.6439 5197.8022 -169.8786 0.854 -0.015 -0.521 213 179 183
-1973.5237 5508.9419 -250.3540 0.983 -0.092 -0.160 251 236 236
-1872.1874 5433.4355 -300.8921 0.647 -0.701 0.299 252 240 244
-1765.3253 5481.7192 -390.7443 0.564 -0.817 0.121 244 222 228
-1755.8547 5481.1626 -397.3253 0.555 -0.824 0.112 252 232 237
-1746.9183 5545.4854 -422.0699 0.931 -0.358 0.067 255 236 239
-1728.0223 5512.7700 -426.1672 0.421 -0.904 0.071 255 233 236
-1221.0092 5421.5591 -760.9297 0.608 -0.439 -0.661 234 183 180
-453.5456 3766.9390 -834.1959 0.031 -0.996 0.080 254 18 64
-3536.6025 3310.5605 1478.2787 0.734 -0.597 0.324 142 141 155
-3609.2493 3394.3545 1505.7524 -0.666 -0.723 -0.181 150 151 165
-3197.6560 3189.1467 1272.4672 0.014 -0.729 0.685 83 44 19
-3153.8904 3162.6926 1248.9960 -0.153 -0.638 0.755 78 47 22
-2667.2969 3274.4871 871.1375 0.423 -0.454 0.784 210 115 54
-2328.5166 3191.0637 654.5029 0.771 -0.539 -0.339 57 28 20
-2944.5415 5195.0752 514.9630 0.689 -0.003 0.724 150 111 104
-2935.8267 5199.5078 507.4956 0.697 0.003 0.717 149 110 103
-2896.4854 5146.3281 494.8641 0.618 -0.078 0.783 149 110 103
-2886.6108 5148.3379 487.2708 0.618 -0.078 0.783 149 110 103
-2893.7512 5182.5776 482.4822 0.595 -0.092 0.799 149 110 103
-2934.0764 5322.9297 470.7073 0.803 -0.252 0.540 173 133 125
-2839.5078 5183.3740 443.7199 -0.089 -0.587 0.805 206 166 158
-3032.5757 5670.7817 440.4984 0.047 -0.998 -0.040 209 166 159
-3009.9639 5672.5068 423.9388 0.047 -0.998 -0.040 209 166 159
-2943.2817 6375.5786 174.0881 0.747 -0.569 0.343 193 135 116
-2654.1787 5898.6685 106.0654 -0.271 -0.809 0.521 188 130 111
-2629.5989 5893.9780 89.9556 0.258 -0.949 0.179 183 125 106
-2483.5481 5650.1470 56.4275 0.194 -0.981 -0.028 173 122 97
-2343.7766 5566.1382 -18.6681 -0.019 -1.000 0.019 169 123 99
-2316.3831 5575.6660 -40.8715 0.824 -0.237 0.514 177 132 109
-2309.3103 5584.0952 -48.3234 0.824 -0.237 0.514 198 154 132
-2306.5898 5630.6733 -63.6703 0.696 -0.352 0.626 199 157 145
-2333.3562 5727.4912 -72.5395 -0.097 -0.937 0.336 199 157 145
-2122.4177 5253.6880 -85.9308 -0.385 -0.731 -0.564 202 160 148
-1983.0603 5264.2407 -187.9657 -0.411 -0.911 0.015 218 180 183
-1964.9020 5266.1787 -201.4228 -0.413 -0.909 -0.061 229 194 198
-1968.8890 5359.7051 -225.5257 -0.515 -0.856 -0.047 255 240 245
-1938.2196 5466.9287 -278.1924 0.205 -0.487 0.849 215 194 199
-1768.9979 5438.5493 -390.2296 0.885 -0.444 0.139 245 216 224
-1763.9735 5452.5972 -397.8445 0.858 -0.377 0.349 244 218 224
-1756.5175 5552.7036 -431.9713 0.908 -0.401 0.124 249 221 228
-925.4276 5847.6426 -1107.2953 0.880 0.015 -0.475 212 125 113
-462.6928 3869.2744 -866.2474 -0.127 -0.640 -0.758 252 20 64
-3914.0828 3681.5413 1626.1698 -0.146 -0.655 0.741 134 132 145
-2854.7080 2714.7886 1155.5302 0.322 -0.913 0.251 131 171 175
-2854.5005 2741.2332 1147.7096 0.957 -0.228 -0.178 135 192 206
-2838.1565 3057.8738 1044.2411 0.286 -0.390 -0.875 37 44 34
-2576.3569 5799.9922 62.9291 0.187 -0.976 0.112 185 131 110
-2487.5781 5744.4185 16.1052 -0.126 -0.967 -0.219 172 122 97
-2324.5117 5497.3218 -27.8189 0.972 -0.117 0.206 169 123 99
-2319.2959 5510.1021 -35.2258 -0.093 -0.996 -0.018 167 121 97
-2315.9990 5527.8218 -42.7050 0.492 -0.870 -0.005 163 117 93
-2127.2954 5272.1289 -102.3133 -0.380 -0.736 -0.561 201 159 147
-1999.9031 5290.8594 -198.0773 -0.430 -0.863 -0.263 223 184 187
-1990.2659 5290.4155 -204.7819 -0.447 -0.888 -0.110 226 190 192
-1966.4287 5303.4175 -225.4566 -0.365 -0.885 0.288 255 243 246
-1965.3591 5327.6826 -233.2561 -0.126 -0.961 -0.247 255 239 243
-1927.4878 5440.5596 -292.8627 0.233 -0.509 0.828 230 209 214
-1882.6447 5419.4883 -318.5450 0.934 -0.187 0.304 254 237 243
-1764.7847 5461.5449 -414.3186 0.859 -0.450 0.243 249 222 229
-1759.6311 5537.9409 -440.1406 0.872 -0.481 0.091 251 220 228
-1753.3752 5548.4585 -447.6283 0.899 -0.420 0.120 253 220 228
-624.3263 4508.0889 -946.3099 0.309 -0.306 -0.900 248 49 73
-460.0361 3744.2117 -841.1478 -0.015 -0.960 0.280 255 18 64
-458.7329 3837.4365 -869.1228 0.359 -0.416 -0.836 246 25 66
-449.2988 3906.4561 -895.8396 0.298 -0.483 -0.823 255 120 133
-445.0650 3918.7781 -902.4172 -0.389 -0.593 -0.705 253 132 139
-2860.4697 2714.5327 1149.7593 0.217 -0.967 0.132 164 200 206
-2855.5330 2727.1179 1142.5861 0.936 -0.268 -0.227 112 179 183
-2364.3691 3168.9006 665.8117 0.096 -0.955 -0.279 115 81 69
-2926.1643 5009.5879 525.3127 0.594 -0.103 0.798 213 176 168
-2906.3567 4993.2690 516.0644 0.258 -0.271 0.927 213 176 168
-2872.3147 5070.0439 469.5266 0.615 -0.084 0.784 208 169 162
-2819.7815 5031.8755 443.5045 0.631 -0.073 0.772 204 164 156
-2520.8577 5673.5874 44.3406 0.226 -0.973 0.045 184 133 110
-2534.4744 5838.1504 5.8691 0.393 -0.525 0.755 179 129 104
-2532.9670 5861.4502 -2.0093 0.267 -0.615 0.742 179 129 104
-2302.4849 5551.6753 -74.5733 0.612 -0.142 0.778 199 156 144
-2296.8425 5563.6558 -82.0691 0.611 -0.144 0.779 199 157 145
-2157.3059 5331.2041 -112.8709 -0.467 -0.812 -0.351 201 159 147
-2123.3982 5267.3716 -118.2083 -0.540 -0.841 -0.038 200 159 148
-2111.5674 5287.3726 -132.4288 -0.107 -0.769 0.630 207 169 168
-2093.5049 5290.7617 -146.2033 -0.029 -0.779 0.626 219 181 180
-2071.2568 5256.5820 -151.9573 -0.025 -0.783 0.621 227 189 188
-1987.1749 5233.9287 -204.8439 0.245 -0.360 -0.900 208 169 172
-1979.5081 5265.5200 -219.5058 -0.404 -0.914 -0.043 218 182 186
-1971.9935 5270.9541 -226.4127 -0.412 -0.910 -0.045 227 193 197
-1961.0302 5293.5874 -240.7887 0.213 -0.675 -0.706 243 219 223
-1981.8529 5494.1982 -284.6985 0.781 -0.539 -0.315 242 217 221
-1966.8601 5478.3730 -290.6833 0.531 -0.487 0.693 244 219 223
-1797.1871 5513.1895 -420.9481 0.705 -0.533 0.468 254 228 237
-1766.7068 5536.6094 -449.3672 0.873 -0.481 0.077 251 220 228
-1756.2522 5532.9121 -455.6856 0.902 -0.416 0.119 254 220 228
-1731.0997 5574.7754 -485.7259 0.980 -0.026 -0.196 240 189 198
-1059.2738 6546.8940 -1245.4039 0.859 -0.505 0.086 220 133 123
-460.4846 3705.5261 -838.5461 0.274 -0.962 -0.008 255 17 62
-464.1280 3846.9885 -877.3229 0.699 -0.699 0.149 247 27 70
-460.3099 3862.4407 -884.5425 0.675 -0.725 0.133 248 61 93
-456.1761 3874.9409 -891.1227 0.706 -0.681 0.194 255 101 123
-3855.8525 3618.5432 1576.7738 -0.111 -0.647 0.754 190 189 202
-3003.3940 3058.3047 1139.5573 0.356 -0.882 0.309 15 14 10
-2331.1631 3424.8870 556.7000 0.175 -0.760 -0.626 18 13 7
-2815.0264 6239.1479 69.6836 0.841 -0.419 0.343 197 142 122
-2576.3994 5865.1445 11.2562 -0.224 -0.748 0.625 188 138 113
-2560.3181 5853.1567 3.4262 -0.221 -0.752 0.622 184 134 109
-2549.0649 5852.7417 -4.4013 -0.241 -0.753 0.612 183 133 108
-2536.9412 5850.1509 -12.2030 0.270 -0.614 0.742 184 134 109
-2526.0823 5850.5894 -20.0032 -0.177 -0.726 0.664 182 133 108
-2504.7327 5825.1548 -27.5948 -0.153 -0.718 0.679 170 123 100
-2148.6262 5288.2563 -121.0402 -0.075 -0.770 0.634 201 159 147
-2133.5269 5274.0938 -127.5361 -0.023 -0.752 0.659 199 159 148
-2128.1123 5285.4199 -134.6967 -0.032 -0.747 0.664 198 159 157
-2120.6934 5291.4702 -141.7197 0.299 -0.881 0.366 202 164 163
-2104.3787 5299.6382 -155.6507 0.104 -0.856 0.507 215 177 176
-2082.6465 5267.0498 -161.4056 -0.461 -0.875 -0.150 227 189 188
-2041.1154 5310.8887 -203.6561 0.237 -0.348 -0.907 224 185 188
-1987.0669 5265.8965 -228.5876 -0.114 -0.650 0.751 197 161 163
-1974.3335 5256.4727 -234.8075 -0.114 -0.650 0.751 200 165 169
-1953.9021 5251.6899 -247.8327 -0.218 -0.820 0.530 214 185 190
-1954.0751 5279.2305 -255.8216 0.181 -0.723 -0.666 231 202 207
-1953.5465 5416.2925 -296.5616 0.589 -0.444 0.675 253 232 238
-1928.6666 5427.3809 -317.4035 0.281 -0.463 0.841 255 235 240
-1738.3594 5510.2065 -476.2383 0.884 -0.216 -0.413 250 202 210
-1736.3551 5535.1069 -484.9877 0.884 -0.216 -0.413 241 190 199
-1045.0294 6461.1250 -1246.0959 0.547 -0.447 0.708 216 129 119
-623.8925 4469.0205 -956.9034 0.098 -0.682 -0.724 254 28 67
-615.6580 4452.5850 -957.8801 0.560 -0.567 0.605 255 25 71
-464.8221 3705.6904 -844.4666 0.686 -0.630 0.364 255 17 62
-3842.9153 3597.5754 1560.6904 -0.111 -0.647 0.754 203 202 216
-2880.1177 2713.5552 1144.0610 -0.201 -0.828 0.524 217 216 229
-2864.4902 2723.9202 1129.9663 0.935 -0.287 -0.209 110 167 179
-2866.1406 2734.5073 1127.9890 0.936 -0.270 -0.225 127 175 195
-3061.7185 2985.8289 1191.3351 0.306 -0.769 0.562 199 153 126
-2856.3682 3129.5488 1003.8956 0.910 -0.218 0.351 143 92 60
-2847.3828 3171.7998 985.0246 0.810 -0.364 0.460 187 96 45
-2371.8284 3162.8604 652.3460 0.033 -0.974 0.226 168 124 102
-2351.4365 3156.0840 639.9773 0.636 -0.585 -0.503 145 98 75
-2425.6853 3435.4690 609.4437 0.435 -0.624 0.649 161 122 103
-2318.8438 3370.5239 553.3741 0.111 -0.651 -0.751 19 12 5
-2330.3279 3414.0273 548.5651 0.587 -0.788 -0.185 22 14 11
-2705.1721 4747.6968 417.2036 -0.162 -0.598 0.785 215 176 169
-2563.3799 5839.7529 -6.7749 -0.258 -0.755 0.603 193 143 118
-2533.9204 5848.7661 -30.2221 -0.276 -0.742 0.612 192 144 118
-2467.6975 5739.8687 -44.6100 -0.109 -0.961 0.255 188 142 118
-2183.5664 5333.9688 -124.5373 -0.019 -0.810 0.587 199 159 147
-2175.9690 5339.8330 -131.6344 -0.633 -0.772 -0.065 198 158 146
-2137.4380 5289.9751 -144.0119 -0.039 -0.746 0.665 184 145 143
-2121.5493 5299.3398 -157.9942 -0.553 -0.800 -0.234 198 160 159
-2048.9324 5311.6729 -212.8579 0.236 -0.342 -0.909 228 189 192
-1987.2875 5245.5332 -236.7034 -0.098 -0.676 0.730 213 177 179
-1991.2728 5310.4619 -253.1566 -0.314 -0.876 0.367 196 168 172
-1902.3125 5382.3438 -337.2119 0.020 -0.926 -0.378 247 228 232
-1799.0082 5594.4121 -472.9730 -0.126 -0.856 0.501 253 220 229
-1785.3345 5580.3433 -478.4408 -0.136 -0.855 0.500 253 216 225
-1746.7271 5545.0947 -495.2065 0.999 -0.032 0.034 245 194 203
-1733.6587 5532.2920 -500.6231 0.981 -0.024 -0.192 239 188 197
-1377.4387 5954.8125 -877.1619 0.839 -0.539 0.073 224 174 175
-615.2951 4405.7915 -955.0080 0.536 -0.427 0.729 254 24 70
-2911.7463 2730.9199 1151.1968 -0.289 -0.825 0.486 220 198 214
-2843.2566 2704.5149 1110.8829 0.323 -0.909 -0.262 106 155 173
-2426.1560 3426.8284 601.4497 0.435 -0.624 0.649 142 92 69
-2234.0547 3364.4890 484.8734 0.492 -0.870 -0.016 14 10 7
-2209.5891 5355.7886 -127.4514 0.949 -0.217 0.229 198 158 146
-2108.9333 5297.1089 -180.7592 -0.508 -0.823 -0.256 217 179 178
-1943.0156 5285.8545 -294.1737 0.816 -0.494 -0.301 254 234 236
-1916.1227 5401.5103 -347.6658 -0.370 -0.655 -0.659 255 238 242
-1907.2675 5403.3169 -354.4383 -0.370 -0.655 -0.659 236 217 221
-1786.8318 5560.2046 -486.0907 -0.130 -0.846 0.518 253 216 224
-1762.1582 5540.4253 -497.5457 -0.019 -0.874 0.486 251 201 210
-1750.8192 5533.6753 -503.5092 0.536 -0.518 -0.667 245 194 203
-486.1327 3826.8738 -883.5516 0.722 -0.615 0.317 255 18 62
-482.0192 4637.1060 -1128.5867 0.924 -0.040 -0.381 255 135 147
-2912.8828 2725.8728 1143.5059 -0.301 -0.836 0.458 197 168 186
-2327.2871 4958.3511 60.0902 -0.174 -0.720 0.672 217 161 142
-2594.7271 5873.5449 -27.5183 -0.172 -0.694 0.699 205 155 132
-2307.1821 5380.2915 -81.0464 0.932 -0.287 0.223 195 149 126
-2285.4468 5351.3027 -87.5899 0.557 -0.194 0.808 195 149 126
-2159.9888 5334.8740 -170.7818 0.293 -0.899 0.325 195 157 156
-2080.0623 5302.9409 -217.3195 -0.405 -0.889 -0.213 228 189 192
-2043.0836 5306.8145 -244.4639 -0.571 -0.804 0.165 227 188 189
-1960.7682 5234.7778 -280.6081 0.453 -0.424 -0.784 215 186 191
-1948.5118 5280.3291 -302.9302 0.816 -0.482 -0.320 245 220 224
-1944.0461 5322.0811 -318.6357 0.731 -0.680 -0.058 246 218 223
-1952.9694 5376.0503 -328.6128 0.557 -0.782 -0.280 241 218 224
-1846.2631 5336.9736 -391.8136 0.557 -0.736 0.384 255 241 248
-1860.0134 5588.5024 -457.8688 0.960 -0.217 0.175 254 233 240
-1778.0121 5537.1250 -500.0112 0.690 -0.345 -0.636 254 207 216
-922.7302 5549.7939 -1104.6809 0.994 0.044 0.095 212 128 117
-619.1654 4352.4834 -957.5281 0.820 -0.412 0.397 254 24 70
-2914.8682 2721.7048 1136.1687 -0.310 -0.838 0.450 170 138 145
-2969.3142 2953.8271 1103.9709 0.918 -0.269 -0.293 45 41 28
-2860.9517 3030.5107 1004.7358 0.880 -0.469 -0.075 78 46 39
-2478.0979 3186.4504 688.9927 0.819 -0.251 0.515 192 110 42
-2391.4011 3165.9099 634.4268 0.693 -0.702 -0.167 171 117 86
-2443.9741 3422.7266 593.4288 0.300 -0.615 0.730 164 102 71
-2429.3213 3413.0349 586.0923 0.295 -0.597 0.746 185 107 82
-2269.7957 5293.0093 -95.7518 0.927 -0.338 -0.161 203 158 137
-2229.6345 5291.6890 -123.5134 0.526 -0.168 0.834 194 153 142
-2131.4131 5316.5337 -199.9206 0.256 -0.960 0.108 216 178 177
-2059.5283 5304.9824 -246.8255 -0.069 -0.530 -0.845 225 186 187
-2055.7612 5321.0591 -254.3412 -0.068 -0.536 -0.841 214 175 176
-2042.5333 5337.6494 -268.6469 -0.043 -0.530 -0.847 213 174 176
-2031.2000 5332.7583 -275.1111 -0.009 -0.519 -0.855 209 174 176
-1996.6914 5316.0664 -294.2484 -0.495 -0.848 0.189 195 165 170
-1987.2695 5316.2515 -300.9113 -0.306 -0.860 0.409 197 167 172
-2016.1876 5482.5713 -331.0593 0.370 -0.594 -0.715 248 217 222
-1985.2716 5448.7925 -342.4968 0.453 -0.891 -0.016 240 212 218
-1959.9974 5459.2910 -363.4026 -0.355 -0.639 -0.683 241 216 221
-1945.3827 5444.2388 -369.0872 -0.341 -0.661 -0.669 246 222 227
-1933.2321 5436.3960 -375.2296 -0.348 -0.660 -0.666 252 228 233
-1924.4714 5438.6729 -382.0630 -0.348 -0.660 -0.666 254 231 236
-1896.8120 5441.1177 -402.1996 -0.351 -0.662 -0.662 255 240 244
-1878.6866 5414.3643 -406.7981 -0.178 -0.814 0.553 255 239 244
-1839.4656 5559.2808 -478.2373 0.677 -0.442 0.588 252 227 233
-1788.8540 5517.1797 -500.9626 0.690 -0.345 -0.636 254 216 223
-1785.9755 5538.7378 -509.5173 0.690 -0.345 -0.636 254 206 213
-923.5233 5510.9790 -1105.8690 0.996 0.044 0.079 215 132 121
-619.0729 4212.8428 -925.7788 0.992 0.016 0.123 246 42 68
-489.8285 3827.8062 -899.6697 0.527 -0.844 -0.103 250 24 67
-484.8802 3831.4502 -904.2443 0.527 -0.844 -0.103 248 61 94
-500.1902 4651.7305 -1142.2062 0.850 -0.100 -0.518 255 130 146
-425.7166 4272.4116 -1079.4243 0.273 -0.360 0.892 253 75 117
-2946.5381 2747.6753 1140.4241 -0.438 -0.799 0.412 148 110 97
-2966.7102 2944.1990 1094.5343 0.881 -0.327 -0.343 13 25 4
-2974.0010 2961.6985 1094.2938 0.890 -0.220 -0.400 12 23 6
-2872.7056 3057.0293 994.2863 0.660 -0.684 0.311 126 88 62
-2310.7676 2934.9729 638.2477 0.880 -0.348 -0.323 189 108 45
-2430.8059 3123.4768 664.7043 0.828 -0.152 0.540 186 109 52
-2426.1165 3184.4023 642.8186 0.699 -0.654 -0.288 168 118 88
-2265.3738 3109.4255 553.2066 -0.170 -0.984 -0.042 189 130 96
-2256.9556 3108.2078 547.6865 -0.170 -0.984 -0.042 185 125 91
-2241.2908 3107.4465 536.9548 -0.164 -0.986 -0.040 150 84 48
-2231.7725 3357.6941 453.8795 0.727 -0.684 0.067 20 13 9
-2201.0076 3517.0015 383.7021 0.991 0.123 0.051 189 172 169
-2231.6641 4814.6997 8.9061 0.275 -0.865 -0.420 219 175 166
-2578.6980 5873.7827 -71.5915 -0.170 -0.691 0.702 207 166 156
-2558.6511 5852.1851 -79.0278 -0.198 -0.724 0.660 207 166 156
-2498.8767 5733.7964 -84.7147 -0.027 -0.998 0.048 207 166 156
-2211.8555 5083.0176 -86.8893 0.865 -0.501 -0.039 207 166 156
-2240.2930 5249.6240 -117.8590 0.923 -0.327 -0.204 206 166 156
-2236.5173 5264.8169 -125.1406 0.923 -0.327 -0.204 208 169 161
-2241.8455 5303.0415 -133.0833 0.937 -0.230 0.263 209 170 162
-2234.1721 5308.6641 -140.1709 0.933 -0.231 0.275 208 169 162
-2219.6814 5296.9604 -146.7394 0.518 -0.176 0.837 208 169 161
-2193.2832 5254.6885 -152.3081 0.991 -0.030 0.132 198 160 152
-2145.0364 5384.6211 -225.7519 0.638 -0.204 0.742 225 185 183
-2101.6934 5373.2236 -252.6081 0.398 -0.185 0.899 225 187 186
-2083.9338 5351.2134 -258.3173 0.623 -0.230 0.748 225 187 186
-2076.3950 5357.0918 -265.3889 0.470 -0.188 0.863 223 185 184
-2008.0831 5300.2529 -295.8456 -0.392 -0.837 0.381 207 172 172
-1999.4614 5302.7021 -302.6279 -0.365 -0.855 0.369 212 177 178
-1909.1899 5341.7915 -377.7461 -0.286 -0.793 0.539 250 217 221
-1933.9346 5444.4951 -391.7877 -0.172 -0.942 -0.287 251 217 222
-1907.1304 5420.8330 -403.3230 -0.277 -0.849 0.450 252 223 228
-1896.4673 5417.1196 -409.6525 -0.141 -0.811 0.568 252 223 228
-1884.6060 5409.6357 -415.6691 -0.178 -0.814 0.553 252 223 228
-1870.4658 5394.9834 -421.0920 -0.100 -0.821 0.563 253 226 231
-1858.3845 5474.6606 -453.8773 0.887 -0.160 0.433 253 228 232
-1844.2231 5550.2437 -486.8683 0.668 -0.442 0.599 252 220 226
-1806.5863 5489.4097 -494.6353 0.448 -0.558 0.698 253 215 221
-1797.0762 5488.9072 -501.1382 0.448 -0.558 0.698 254 214 221
-1803.5674 5541.0405 -512.5138 -0.471 -0.840 0.268 253 210 216
-1796.6569 5549.3174 -519.8780 0.627 -0.218 -0.748 251 199 205
-622.9861 4204.4150 -930.6803 0.982 -0.097 0.164 250 39 68
-616.4674 4200.0283 -933.9034 0.980 -0.115 0.163 253 26 64
-495.1973 3836.2815 -907.7119 -0.053 -0.975 -0.214 246 44 79
-490.2942 3840.4734 -912.4235 -0.089 -0.977 -0.195 250 87 111
-484.9070 3840.0322 -916.0594 -0.142 -0.988 -0.069 255 125 140
-477.3932 3818.7522 -914.8206 -0.174 -0.985 -0.004 255 127 140
-2998.3904 2885.7263 1124.1243 0.550 -0.595 0.586 209 181 164
-2972.1509 2943.2407 1088.1066 0.918 -0.260 -0.301 16 24 5
-2974.8044 2994.6213 1074.1602 0.409 -0.847 0.339 19 12 6
-2852.5652 3026.6243 978.9211 0.660 -0.731 0.172 123 77 47
-2377.9150 3175.3130 601.6013 0.511 -0.834 0.207 173 123 95
-2258.6204 3113.6733 537.2157 0.142 -0.978 0.154 130 72 37
-2253.1226 3116.8306 532.4039 0.661 -0.743 -0.107 133 71 35
-2250.7273 3124.6760 528.3182 0.752 -0.617 -0.230 185 105 62
-2246.9314 3130.4287 523.8972 0.750 -0.628 -0.208 189 105 58
-2267.6960 3368.3459 465.2408 0.400 -0.562 0.724 23 2 1
-2482.6848 4990.6567 116.5508 0.254 -0.661 -0.706 211 171 163
-2408.1716 5544.4678 -105.8097 -0.139 -0.979 0.146 211 171 163
-2323.6658 5387.6040 -116.6085 -0.476 -0.876 0.071 210 170 162
-2202.5042 5233.9375 -153.9987 0.960 -0.084 0.267 213 176 168
-2165.3262 5164.1172 -158.5009 0.998 -0.014 0.060 220 183 175
-2152.1831 5254.5156 -195.4816 0.844 -0.053 0.534 196 156 154
-2000.0045 5283.1353 -310.5962 0.436 -0.206 0.876 212 173 174
-1982.4658 5368.6792 -349.1550 0.821 -0.204 0.533 235 197 198
-1983.8994 5428.4761 -366.5417 0.726 -0.066 0.684 237 201 203
-1962.3760 5421.4780 -379.4263 0.853 -0.033 0.520 236 200 202
-1954.9213 5427.6709 -386.5386 0.855 -0.025 0.519 235 199 201
-1825.1293 5494.9111 -497.8901 0.651 -0.477 0.591 248 209 217
-1808.7224 5472.1553 -502.3543 0.639 -0.488 0.594 249 208 214
-1798.9286 5470.6680 -508.7391 0.597 -0.630 0.498 251 208 215
-1806.2466 5556.1895 -529.9257 0.627 -0.218 -0.748 251 199 205
-667.7755 4417.5728 -975.1335 0.174 -0.560 0.810 241 60 77
-656.6797 4380.3428 -971.4365 0.317 -0.570 0.758 245 49 71
-499.0833 3830.7747 -912.5351 -0.066 -0.975 -0.211 251 57 89
-493.7923 3831.2515 -916.3781 -0.066 -0.975 -0.211 252 97 119
-488.6178 3832.7725 -920.4609 -0.161 -0.987 -0.028 255 127 139
-3010.9419 2911.0193 1114.6121 0.345 -0.731 0.589 214 184 167
-2981.9004 2956.5178 1080.2714 0.947 -0.274 -0.166 28 17 2
-2322.8203 2925.9585 630.1530 0.930 -0.306 -0.205 201 119 59
-2589.5920 5224.4854 104.3761 -0.615 -0.703 0.357 218 178 170
-2451.0847 5035.2310 66.4012 -0.646 -0.707 0.289 217 174 168
-2391.7002 5509.8594 -121.9892 -0.407 -0.913 0.032 217 176 170
-2143.0518 5211.1426 -202.8682 0.845 -0.054 0.532 215 175 173
-2149.1021 5328.5537 -235.0088 0.659 -0.196 0.726 214 174 172
-2132.2351 5335.5640 -248.9412 0.619 -0.228 0.752 216 176 174
-1997.6790 5363.3862 -351.3842 0.838 -0.111 0.534 181 142 143
-1986.2391 5357.8862 -357.6581 0.836 -0.123 0.535 184 145 146
-1928.8096 5384.1089 -405.8246 0.740 -0.139 0.658 200 164 166
-1919.4242 5384.2681 -412.4185 -0.177 -0.630 0.756 202 166 170
-1892.4556 5359.5806 -423.5789 -0.160 -0.636 0.755 204 169 173
-1816.8673 5157.6362 -413.7497 0.075 -0.634 0.770 205 170 174
-1819.6104 5453.1562 -503.3526 0.639 -0.490 0.593 244 203 209
-1803.0911 5460.0684 -517.0121 0.603 -0.625 0.495 246 201 206
-1801.9609 5486.7803 -526.0721 0.417 -0.693 0.588 250 202 208
-1802.0803 5580.0024 -554.8576 0.635 -0.214 -0.743 240 187 193
-935.2429 5458.5464 -1121.6985 0.993 0.063 -0.101 219 139 130
-774.4979 5132.6958 -1132.8792 0.918 -0.395 0.040 237 71 83
-666.2314 4413.8433 -985.7629 0.326 -0.623 0.711 247 49 72
-502.9849 3825.4971 -917.3993 0.573 -0.662 0.483 255 67 99
-499.0793 3838.8516 -924.2582 0.612 -0.738 0.284 255 105 126
-493.8572 3840.0522 -928.2715 0.578 -0.766 0.281 254 128 140
-482.9494 3786.9146 -919.4221 -0.275 -0.960 0.046 254 130 140
-2944.2407 2825.4258 1084.3826 0.823 -0.406 0.398 215 184 170
-3016.3008 2909.9751 1108.1713 0.352 -0.739 0.575 214 185 168
-2449.6460 3482.5085 535.2387 0.846 -0.302 -0.440 191 103 57
-2436.3867 3487.7500 524.3756 0.928 -0.083 -0.363 195 82 51
-2211.3567 3437.2791 383.4920 0.618 -0.783 0.064 29 16 15
-2635.8699 5283.5771 103.2121 -0.622 -0.709 0.332 222 182 174
-2445.4272 5027.8711 50.4014 -0.647 -0.706 0.288 218 175 169
-2384.1853 4936.5938 36.2402 0.049 -0.975 0.218 218 175 169
-2490.9258 5628.1191 -105.1108 0.302 -0.608 0.734 222 181 175
-2137.7014 5303.9805 -249.8788 0.935 -0.228 0.273 231 191 189
-2091.6580 5416.4121 -316.9857 0.767 -0.029 0.641 205 167 166
-2082.2295 5417.3071 -323.8270 0.772 -0.028 0.635 191 152 153
-1983.7649 5384.1040 -382.0052 0.726 -0.067 0.684 216 180 182
-1923.8903 5375.3062 -420.9348 -0.177 -0.630 0.756 219 183 185
-1810.1808 5399.2266 -507.5365 0.641 -0.471 0.606 240 199 205
-1806.4028 5477.0215 -534.4255 0.417 -0.693 0.588 248 200 206
-1234.2264 5038.1963 -795.8219 0.734 -0.015 -0.680 227 171 174
-937.5896 5381.0601 -1109.2006 0.990 0.035 0.136 224 144 135
-930.4363 5385.3613 -1115.5208 0.952 0.034 0.303 220 140 131
-923.6440 5392.0112 -1122.3218 0.960 0.033 0.277 213 133 124
-511.9492 3817.7529 -917.9523 0.873 -0.317 0.370 251 32 72
-508.2209 3832.4490 -925.1299 0.883 -0.312 0.350 255 72 102
-392.7950 3654.8062 -950.0715 0.648 -0.749 0.135 255 65 113
-3894.9336 3529.4712 1513.5477 0.245 -0.401 0.883 50 60 62
-2913.9333 2690.1084 1095.5988 -0.052 -0.651 0.758 143 102 84
-2897.9556 2770.8162 1059.1569 0.866 -0.436 0.244 210 179 165
-2406.3357 3145.6399 599.9326 0.613 -0.514 0.600 80 43 29
-2226.3672 3323.8069 418.9637 0.703 -0.643 0.305 14 11 14
-2223.1079 3447.1572 377.9679 0.601 -0.779 0.176 27 14 14
-2212.2612 3442.1099 372.0175 0.672 -0.739 0.047 33 19 18
-2455.7637 5033.6890 41.4300 -0.647 -0.706 0.288 228 185 179
-2337.4390 4880.7515 7.2510 -0.184 -0.979 0.085 226 185 179
-2439.6252 5638.6201 -159.7275 -0.436 -0.866 0.246 227 186 180
-2388.5955 5564.8140 -172.0034 -0.407 -0.864 0.296 231 193 185
-2141.0974 5267.3740 -250.5464 0.972 -0.181 0.150 237 197 195
-2123.8560 5272.8740 -264.2512 0.616 -0.229 0.754 237 197 195
-2072.7905 5370.0098 -330.2268 0.761 -0.034 0.648 237 198 199
-2044.0355 5343.6362 -341.9220 0.762 -0.041 0.646 237 198 199
-1970.8579 5352.4590 -395.5292 0.735 -0.062 0.675 241 205 207
-1956.0970 5337.0122 -400.9333 0.744 -0.073 0.665 242 206 208
-1874.5226 5316.9092 -451.2914 -0.140 -0.651 0.746 243 208 212
-1860.4587 5302.2466 -456.4575 -0.128 -0.661 0.739 244 209 213
-939.1661 5350.0449 -1111.4928 0.990 0.030 0.138 226 146 137
-515.4384 3809.0042 -921.9776 0.893 -0.313 0.323 253 34 74
-2892.3831 2749.7822 1051.9088 0.700 -0.714 -0.004 189 161 142
-2895.7217 2762.1724 1050.3065 0.863 -0.439 0.252 180 152 135
-2726.9700 3022.0300 851.1382 0.471 -0.308 0.827 194 103 51
-2462.1965 3470.0276 525.9065 0.962 -0.150 -0.230 198 112 63
-2224.0830 3310.7739 411.1462 0.713 -0.593 0.375 14 11 14
-2215.9058 3438.3574 365.1399 0.672 -0.739 0.047 33 19 18
-2193.4995 3534.6821 319.1500 0.980 0.056 -0.190 213 180 171
-2142.4490 5276.4478 -266.9157 0.968 -0.192 0.160 237 197 195
-2139.0740 5293.0825 -274.5151 0.939 -0.233 0.251 237 197 195
-1989.2834 5196.3105 -347.7857 0.149 -0.943 0.296 238 199 200
-1916.0212 5198.8350 -399.3843 0.828 -0.479 0.292 242 206 208
-1810.7606 5443.1138 -549.6022 0.721 -0.428 0.545 246 202 207
-1820.9771 5506.3467 -562.5096 0.566 0.003 -0.825 239 187 193
-937.4277 5397.4614 -1140.7424 0.953 0.003 0.303 215 135 126
-525.2704 3809.1604 -924.3859 0.553 -0.830 -0.067 254 21 66
-520.3356 3812.8159 -928.9634 0.553 -0.830 -0.067 253 40 80
-516.0915 3822.6479 -935.0148 0.447 -0.875 0.189 252 79 107
-511.6487 3830.8521 -940.6891 0.492 -0.833 0.252 255 114 134
-2892.6050 2743.7473 1044.0079 0.708 -0.705 -0.040 167 137 117
-2924.9995 2786.2075 1052.9130 0.759 -0.501 0.415 149 118 98
-2889.8420 2758.7058 1037.3344 0.460 -0.742 0.488 163 127 101
-2720.7795 3007.2991 841.1951 0.400 -0.445 0.801 195 103 51
-2401.5063 3133.5266 580.0449 0.621 -0.512 0.593 63 36 25
-2477.3154 3483.5859 521.0850 0.762 -0.116 -0.637 198 112 63
-2219.5454 3434.6091 358.2709 0.672 -0.739 0.047 31 20 18
-2191.7178 3400.9456 349.7267 0.735 -0.607 -0.301 40 26 25
-2056.5037 5231.5840 -326.5686 0.466 -0.852 0.241 236 198 197
-1989.6788 5176.9648 -355.4325 0.396 -0.255 0.882 238 199 200
-1813.5957 5428.4546 -557.3525 0.721 -0.428 0.545 247 201 207
-1262.0137 5075.7085 -826.8223 0.743 -0.046 -0.667 230 171 175
-983.8408 5704.1416 -1219.3846 0.610 -0.754 0.244 214 128 118
-528.9511 3802.3230 -928.8460 -0.278 -0.771 -0.573 254 28 70
-517.6376 3844.3230 -950.0452 -0.125 -0.738 -0.663 255 119 137
-411.9316 3672.2126 -968.4202 0.198 -0.776 -0.598 255 64 111
-2903.4709 2661.4983 1067.9158 -0.052 -0.657 0.752 110 81 64
-2896.0732 2741.0784 1037.3027 0.777 -0.629 0.028 156 118 98
-2928.0823 2783.0520 1045.9636 0.767 -0.508 0.392 137 98 76
-3074.0159 3140.9153 1032.0923 0.891 -0.438 0.119 187 88 40
-2268.7742 3301.7300 424.2902 0.957 -0.227 -0.182 33 9 2
-2200.2214 3418.5415 339.4992 0.748 -0.620 -0.237 43 30 30
-2219.7561 3615.4976 289.8761 0.996 -0.036 0.084 216 183 177
-1811.0043 5396.5586 -563.2631 0.689 -0.435 0.579 246 198 204
-986.8824 5679.9868 -1223.4011 0.599 -0.760 0.252 213 128 118
-523.4184 3629.1863 -886.3519 0.375 -0.918 0.126 255 13 61
-534.3636 3765.0269 -922.3232 -0.394 -0.701 -0.595 249 19 63
-532.1371 3791.3638 -932.3015 -0.158 -0.656 -0.738 252 35 74
-527.2731 3795.4417 -936.9683 -0.158 -0.656 -0.738 254 62 96
-498.3461 3679.4297 -919.7734 -0.213 -0.452 -0.866 255 128 141
-558.7857 4951.5845 -1285.7045 0.234 -0.586 -0.776 253 94 127
-2889.9102 2728.5090 1027.1592 0.844 -0.509 0.167 149 99 69
-2928.1404 2776.7837 1037.9448 0.767 -0.508 0.392 154 96 60
-2835.3291 2957.3989 915.6805 0.728 -0.216 0.650 195 98 40
-2695.0203 2912.7834 833.3300 0.482 -0.520 0.706 193 107 51
-2656.7559 2955.9556 793.0182 0.393 -0.476 0.786 200 104 45
-2214.0793 2842.6304 524.3502 0.448 -0.398 0.801 101 53 25
-2268.1160 3125.8982 470.2206 0.401 -0.833 -0.382 193 106 60
-2274.5894 3301.7500 417.9507 0.659 -0.450 -0.603 15 5 1
-2272.8401 3311.3088 413.6606 0.669 -0.444 -0.596 14 7 3
-2195.2700 3534.2297 288.2565 0.985 0.078 -0.153 205 177 177
-1291.1315 5042.1265 -821.6337 -0.105 -0.654 -0.749 233 172 175
-550.5725 3774.2207 -923.2026 0.418 -0.821 0.389 255 13 63
-540.0760 3731.5645 -916.6783 0.701 -0.466 -0.539 255 15 62
-535.2076 3734.9775 -921.1362 0.690 -0.462 -0.558 249 17 61
-532.9708 3760.6768 -930.9697 0.679 -0.470 -0.564 248 40 76
-531.0278 3789.4163 -941.5814 0.681 -0.482 -0.551 255 84 111
-421.8609 3688.3418 -984.2441 0.203 -0.847 -0.492 255 60 110
-3705.8650 3362.4824 1372.9026 0.671 -0.298 0.679 98 86 74
-2882.2678 2628.4292 1044.4949 -0.215 -0.742 0.635 93 76 66
-2890.7170 2723.1404 1019.5500 0.838 -0.517 0.172 153 102 70
-2887.9993 2729.1545 1015.7264 0.536 -0.753 0.383 166 105 66
-2982.7563 2845.0017 1043.3152 0.267 -0.841 0.471 177 115 59
-3008.3687 2899.4922 1043.2448 0.983 -0.028 -0.183 178 112 66
-2978.3015 2886.6973 1026.7076 0.805 -0.155 0.573 168 100 64
-2696.3137 2936.6746 816.4092 -0.147 -0.982 0.123 196 105 48
-2728.4214 2984.6592 822.9218 -0.294 -0.939 0.180 200 109 52
-2714.0117 2977.5266 815.3214 -0.295 -0.938 0.182 201 110 53
-2391.2693 3325.8530 480.0791 -0.171 -0.847 0.503 198 118 58
-2295.6396 3288.9016 426.2666 -0.163 -0.932 -0.324 121 77 50
-2285.9497 3298.2000 416.5780 -0.089 -0.944 -0.318 17 7 1
-2235.7100 3471.6953 325.6557 0.677 -0.736 0.010 45 41 42
-717.0057 4469.6011 -1043.6274 0.306 -0.628 0.716 247 43 66
-533.7698 3774.8926 -944.1094 0.975 -0.194 0.106 255 91 116
-520.1361 3748.7659 -945.0071 0.979 -0.104 -0.178 254 125 139
-519.5449 3789.8025 -958.7416 -0.197 -0.396 -0.897 255 127 139
-3699.4741 3348.8999 1360.6294 0.671 -0.298 0.679 98 86 72
-2984.3889 2840.2273 1035.7245 0.267 -0.841 0.471 177 115 58
-2859.6968 2819.1145 956.9738 0.543 -0.816 0.199 101 34 1
-2847.7424 2833.9172 943.9228 0.675 -0.710 0.202 181 99 46
-2716.0605 2913.7188 827.3794 0.502 -0.206 0.840 195 105 47
-2733.7153 2993.7734 813.3349 -0.517 -0.840 0.164 214 123 66
-2296.9751 3294.1123 415.1430 -0.175 -0.929 -0.326 31 1 0
-2303.0420 3340.5059 404.1434 -0.051 -0.966 -0.252 11 8 3
-1752.1571 5113.3643 -553.8599 -0.102 -0.824 0.557 235 186 189
-1084.1803 5891.1011 -1266.9650 -0.307 -0.949 -0.074 231 147 137
-519.1438 3747.6846 -954.3602 0.997 -0.071 -0.039 255 127 139
-444.9205 3734.2256 -1000.9452 -0.226 -0.792 -0.567 253 69 113
-2818.4502 2537.0173 1011.4740 0.094 -0.770 -0.631 53 34 25
-2814.2168 2540.9895 1007.2644 0.094 -0.770 -0.631 100 83 73
-2846.2124 2673.9456 985.4485 0.596 -0.599 0.535 182 120 81
-2869.9546 2814.4131 955.5023 0.594 -0.753 -0.285 87 24 1
-2862.4568 2815.5710 949.9807 0.543 -0.816 0.199 127 60 20
-2419.4658 2760.1057 664.5098 0.579 -0.452 -0.678 161 68 11
-1784.3057 5136.4497 -552.9649 0.083 -0.751 0.655 241 195 197
-731.9312 4454.6367 -1050.1254 0.574 -0.804 -0.159 243 49 71
-3688.3484 3323.4822 1336.8845 0.670 -0.297 0.681 97 86 74
-3817.3777 3480.7756 1373.0831 0.791 -0.505 0.346 96 67 61
-2958.3252 2809.5850 1007.5270 0.887 -0.193 0.420 181 116 57
-2910.4619 2769.1106 988.1790 0.861 -0.113 0.496 181 114 62
-2893.7869 2760.7581 979.5345 0.848 -0.059 0.527 178 110 66
-2875.4304 2813.7705 949.4138 0.614 -0.746 -0.258 117 55 21
-2283.4907 3081.4941 455.6582 0.358 -0.924 0.135 179 100 73
-1800.1580 5136.0908 -555.6306 0.321 -0.478 0.818 240 194 196
-1776.5487 5118.1274 -565.8371 0.448 -0.549 0.706 233 187 189
-537.2504 3781.6577 -971.2483 0.994 -0.026 0.103 255 128 140
-460.2146 3749.3716 -1013.2718 -0.304 -0.754 -0.583 253 72 115
-2844.1663 2550.9026 1005.6439 0.279 -0.890 -0.361 55 37 27
-2906.6074 2858.9353 945.6037 0.423 -0.859 -0.290 181 108 58
-2905.3289 2866.8794 942.0820 0.398 -0.904 -0.157 185 109 55
-2884.4028 2863.0459 929.0668 0.820 -0.561 -0.114 167 108 64
-2935.5969 2956.5591 932.8593 -0.363 -0.697 0.619 120 67 28
-2628.1003 2819.1709 768.6311 0.440 -0.220 0.870 205 114 57
-2741.1953 2981.0981 791.8964 -0.189 -0.930 0.315 199 108 51
-2779.5540 3036.4985 799.6276 -0.546 -0.822 0.160 200 107 50
-2287.4231 3079.0427 449.3041 0.358 -0.924 0.135 179 98 69
-2287.3931 3090.1609 445.5771 0.450 -0.832 0.324 189 105 69
-2280.8682 3091.7483 440.5912 0.450 -0.832 0.324 197 112 72
-1562.9618 4765.9624 -607.8967 0.959 -0.250 0.131 243 189 192
-691.3045 4143.9214 -995.8943 0.183 -0.272 -0.945 255 28 63
-465.4078 3757.8062 -1021.4688 -0.304 -0.754 -0.583 253 71 115
-2858.8394 2584.2771 995.0118 0.772 -0.358 0.525 123 106 96
-2848.7629 2658.4041 963.2713 0.665 -0.746 -0.028 183 121 84
-2855.3411 2673.7090 962.6209 0.351 -0.911 0.219 180 116 72
-2870.1450 2706.2327 961.8008 0.621 -0.748 -0.236 178 116 57
-2919.7532 2866.3823 941.8875 0.444 -0.896 -0.031 174 106 59
-2905.6418 2860.6213 934.2003 0.441 -0.897 0.026 171 101 51
-2899.5896 2863.4485 929.1256 0.441 -0.897 0.026 164 102 59
-2884.9250 2857.0063 921.2897 0.771 -0.624 -0.129 151 102 61
-2919.4556 2932.1367 919.6228 -0.396 -0.702 0.592 71 29 0
-2594.2654 2782.2524 748.2175 0.617 -0.615 0.491 197 106 49
-2289.3296 3029.6545 457.3235 0.966 -0.160 0.204 127 61 39
-1886.4723 5299.4165 -578.8658 0.817 -0.477 0.325 245 199 201
-1590.3978 4834.9961 -624.8893 0.482 -0.571 0.665 242 191 192
-1586.7837 4905.1909 -650.9048 0.259 -0.871 0.418 242 191 192
-551.9484 3742.0605 -966.1395 -0.379 -0.388 -0.840 254 109 133
-470.6697 3766.7039 -1029.8184 -0.320 -0.763 -0.562 254 71 117
-2850.6409 2654.3003 956.2665 0.614 -0.789 0.009 182 120 86
-2875.5442 2705.6340 955.8784 0.625 -0.745 -0.233 175 115 65
-2945.0637 2868.0757 948.3320 0.858 -0.494 -0.139 165 101 68
-2925.3584 2865.7698 935.7023 0.454 -0.891 -0.025 151 90 49
-2910.2063 2858.9207 927.7050 0.498 -0.867 0.010 140 78 38
-2786.1279 2826.3733 854.2663 0.803 -0.431 0.411 69 35 16
-2495.8972 2798.7979 666.0914 0.760 -0.323 -0.564 193 100 45
-2492.8979 2804.6335 662.0803 -0.199 -0.787 0.584 196 103 48
-2350.2803 2886.4751 537.4018 0.534 -0.802 0.269 199 118 63
-2338.7227 2891.1768 527.9500 -0.294 -0.937 0.189 197 120 68
-2307.5566 2859.1384 517.5615 -0.136 -0.907 0.399 197 120 68
-2287.8757 2842.4719 509.7973 -0.030 -0.904 0.426 198 120 67
-2257.6729 2811.3293 499.7615 0.241 -0.562 0.791 196 118 65
-1619.7043 4749.7236 -588.8651 0.366 -0.898 -0.243 239 189 192
-1578.6204 4748.4307 -616.3840 0.048 -0.673 0.738 241 195 197
-1570.1238 4827.6836 -648.9262 0.808 -0.136 0.574 236 189 191
-1564.1958 4835.1899 -655.4946 0.808 -0.136 0.574 236 188 191
-1555.3301 4832.8438 -660.7349 0.593 -0.327 0.736 243 194 197
-576.1954 3814.2825 -983.0516 -0.345 -0.361 -0.867 250 56 94
-572.4689 3827.6897 -990.1143 -0.345 -0.361 -0.867 255 94 126
-2843.6135 2574.1780 969.0641 0.358 -0.917 -0.175 140 121 112
-2891.9229 2707.5361 956.5574 0.267 -0.833 0.485 166 110 77
-2881.2283 2705.3235 950.0460 0.613 -0.765 -0.201 155 104 69
-2944.9609 2870.6941 937.1363 0.964 -0.093 0.251 120 72 45
-2934.7273 2869.1487 930.7112 0.403 -0.914 -0.045 106 61 33
-2791.1350 2825.3049 848.0884 0.825 -0.404 0.394 58 23 3
-2499.7480 2806.1687 656.6945 -0.175 -0.792 0.585 193 103 51
-2312.0984 2731.2480 554.7103 -0.280 -0.952 0.123 203 113 57
-2439.0503 2946.1541 567.9036 -0.320 -0.923 -0.215 200 113 63
-2329.5320 3017.0166 469.4442 -0.114 -0.718 0.687 125 51 12
-2287.0466 3098.4597 412.9153 0.317 -0.809 0.495 216 134 95
-2382.4287 3334.5942 397.4541 -0.250 -0.927 -0.281 48 15 5
-2358.4402 3322.4414 385.2918 -0.177 -0.954 -0.241 26 6 4
-1713.7389 4815.3838 -559.8709 -0.158 -0.984 0.077 227 178 181
-1622.6573 4712.8584 -586.8906 0.271 -0.929 -0.253 235 187 186
-1641.1028 4796.8232 -602.8950 0.040 -0.667 0.744 231 183 181
-1592.2184 4745.3057 -618.5891 0.050 -0.682 0.730 214 178 178
-1568.9093 4722.1431 -626.5488 0.204 -0.562 0.802 209 172 172
-570.0966 3816.0481 -996.9985 -0.445 -0.476 -0.759 254 113 131
-566.7529 3832.6309 -1004.9042 -0.434 -0.474 -0.766 255 111 132
-3928.7744 3539.2271 1365.1866 0.791 -0.505 0.346 88 76 55
-2854.3564 2570.7837 968.0374 0.579 -0.739 -0.344 112 94 80
-2885.4949 2703.5608 943.7421 0.613 -0.765 -0.201 122 77 45
-3103.4463 3031.4861 979.3493 -0.113 -0.947 0.299 81 46 21
-2949.7249 2878.4683 927.4717 -0.082 -0.993 -0.088 72 41 14
-2905.2690 2868.3835 900.7852 0.759 -0.476 0.445 55 38 28
-2881.2366 2889.2937 877.3442 0.966 -0.114 0.231 48 33 21
-2854.7634 2869.8274 866.0556 -0.058 -0.682 0.729 52 29 11
-2824.5820 2846.1577 853.6906 -0.091 -0.693 0.716 54 22 2
-2759.4229 2820.6890 818.2307 0.550 -0.794 -0.259 139 81 40
-2757.6768 2828.0342 814.5354 0.525 -0.812 -0.254 160 94 48
-2435.8245 2749.0620 623.3683 -0.290 -0.674 0.679 148 60 10
-2459.1321 2944.6294 572.2935 0.304 -0.700 -0.647 197 111 62
-2257.6475 2767.5129 496.2796 0.398 -0.315 0.862 157 85 47
-2381.3062 3082.0151 472.5593 -0.131 -0.741 0.659 142 65 23
-2300.3638 3010.7573 442.0580 0.113 -0.666 0.738 180 83 35
-2296.9822 3116.0645 403.7561 0.516 -0.758 -0.399 151 79 41
-2292.3804 3154.7473 387.4091 0.343 -0.825 -0.449 71 24 3
-1724.2385 4801.6479 -560.8692 -0.094 -0.995 0.043 235 185 186
-1659.7964 4783.0322 -598.1864 0.847 -0.526 0.075 237 189 187
-1280.0354 4728.5928 -836.9966 0.711 -0.083 -0.698 226 164 167
-814.1496 4654.4678 -1127.4562 0.491 -0.824 0.281 232 83 89
-584.5800 3727.2354 -966.0063 -0.511 -0.854 -0.102 247 18 65
-574.2785 3729.8503 -973.8835 -0.548 -0.800 -0.244 255 89 114
-576.8967 3791.6611 -993.2449 -0.498 -0.709 -0.499 255 111 129
-2851.1707 2545.5803 965.0840 0.685 -0.662 -0.305 104 86 72
-2869.0669 2571.2671 968.3536 0.687 -0.721 -0.094 107 89 75
-2859.3540 2569.9509 962.2350 0.573 -0.747 -0.337 117 99 85
-2906.0896 2649.5608 966.4620 0.612 -0.790 0.039 137 127 117
-2898.0085 2675.6038 952.0334 0.851 0.026 -0.524 176 128 105
-3143.7493 3057.1919 986.9942 -0.162 -0.789 0.592 60 39 14
-3130.0957 3052.6672 979.3133 -0.055 -0.821 0.569 55 35 10
-3098.8782 3029.5300 966.1537 -0.110 -0.966 0.235 52 36 9
-3009.7349 2954.3638 931.7059 0.523 -0.764 0.378 50 34 12
-2960.5935 2911.5283 913.1973 0.467 -0.753 0.464 50 31 16
-2788.4658 2736.8267 856.8538 0.416 -0.904 -0.094 50 31 18
-2757.5300 2839.8850 800.4620 0.758 -0.601 -0.253 192 102 45
-2364.6917 2691.2209 585.8323 0.025 -0.783 0.621 138 63 21
-2334.8184 2718.5371 556.2216 0.485 -0.573 0.660 191 110 59
-2284.9692 2748.6135 512.1460 0.696 -0.572 -0.435 156 75 31
-2218.6958 2717.7690 477.9206 0.281 -0.879 -0.386 130 60 24
-2213.7637 2720.6865 473.5798 0.299 -0.839 -0.456 130 60 24
-2586.0325 3361.4294 504.9732 0.546 -0.451 0.706 163 84 43
-2303.9509 3140.6697 390.0858 0.294 -0.902 0.317 73 10 0
-2295.3298 3139.2568 384.7392 0.318 -0.896 0.309 74 23 1
-2323.6021 3263.4949 361.1183 -0.106 -0.991 0.080 19 2 3
-1748.7416 4829.7422 -566.7467 -0.227 -0.915 -0.332 242 192 193
-1651.9105 4763.7764 -609.5617 -0.434 -0.888 0.152 228 178 177
-1571.0601 4739.9102 -656.0507 0.577 -0.232 0.783 80 51 48
-589.8414 3733.4546 -973.6047 -0.219 -0.884 0.412 243 16 62
-587.7795 3758.2446 -983.5297 0.951 -0.299 0.080 253 58 93
-584.8842 3818.6956 -1006.2891 0.957 -0.253 -0.140 254 111 129
-581.8270 3837.2195 -1014.7316 0.956 -0.249 -0.157 254 113 130
-554.5492 3664.9211 -973.9007 -0.035 -0.955 -0.295 255 111 132
-2872.4663 2568.8582 961.9987 0.687 -0.721 -0.094 126 108 94
-2903.5386 2641.0974 957.9699 0.690 -0.724 -0.004 124 105 99
-2903.1089 2674.7144 946.0405 0.857 0.026 -0.515 169 126 102
-2885.0527 2690.9128 928.2391 0.371 -0.787 0.492 54 20 3
-2928.3750 2788.2727 923.7850 0.958 -0.218 -0.187 78 52 29
-2773.2915 2832.1787 803.8583 0.527 -0.821 -0.221 181 92 43
-2347.0439 2671.7400 571.5691 0.533 -0.785 -0.315 166 91 49
-2254.0356 2672.9292 508.3505 0.502 -0.570 0.651 141 65 25
-2341.0857 3164.2476 397.0247 0.289 -0.909 0.301 96 32 9
-2312.1377 3133.0337 388.2838 0.508 -0.757 0.411 93 34 14
-2335.8494 3179.4473 388.2262 0.507 -0.824 0.253 74 17 3
-2431.2637 3368.9385 387.0502 0.151 -0.799 0.582 64 26 13
-993.0801 5104.2715 -1184.9550 0.997 -0.008 -0.074 228 135 128
-942.9518 5306.3359 -1288.7666 0.731 -0.424 0.535 217 108 99
-603.5170 3722.7114 -969.6828 0.975 -0.211 -0.076 254 4 50
-591.1114 3790.3599 -1001.4821 0.971 -0.226 -0.081 255 93 119
-558.0915 3658.6968 -978.1942 -0.082 -0.975 -0.205 254 111 131
-636.0036 4569.1289 -1240.8003 0.350 -0.227 -0.909 255 115 141
-2866.0481 2548.7280 955.2076 0.665 -0.663 -0.344 78 62 51
-2872.7634 2563.4263 954.6133 0.656 -0.750 -0.082 115 97 85
-2866.9399 2565.9204 949.8194 0.572 -0.762 -0.305 125 109 96
-2866.5437 2573.7393 946.8286 0.425 -0.883 -0.197 138 121 111
-2905.2559 2670.8616 939.0860 0.851 0.024 -0.525 145 107 83
-2746.5908 2670.9419 832.1187 0.020 -0.661 -0.751 45 27 6
-2885.6594 2892.8972 848.5279 -0.067 -0.691 -0.720 153 81 55
-2401.3000 2695.7344 590.7576 -0.244 -0.593 0.767 137 58 10
-2346.0012 2663.8450 564.5958 0.343 -0.936 0.076 132 59 16
-2332.9346 2656.6433 558.2978 0.821 -0.386 -0.421 143 69 24
-2304.3035 2675.4526 532.4481 0.255 -0.495 0.831 155 84 42
-2293.9226 2671.4216 526.8555 0.255 -0.495 0.831 134 63 21
-2281.8125 2665.1282 520.8859 0.224 -0.507 0.832 127 56 14
-2349.8208 3157.2527 395.2826 -0.599 -0.703 -0.383 84 21 4
-2380.4714 3319.9702 359.2552 -0.257 -0.915 0.310 28 6 7
-1670.5375 4755.4541 -619.3136 0.798 -0.572 0.190 236 191 188
-1546.7236 4915.3145 -758.4539 0.594 -0.671 0.445 237 181 184
-1278.4366 4589.9902 -825.9451 0.725 -0.053 -0.687 240 180 182
-822.2794 4599.7500 -1136.7926 0.925 -0.027 0.379 230 80 87
-656.4607 4694.3335 -1281.5033 0.347 -0.255 -0.902 255 113 138
-497.2565 4862.3940 -1447.3530 -0.125 -0.528 -0.840 247 60 91
-2870.4839 2547.3679 949.2474 0.665 -0.663 -0.344 40 21 10
-2876.4810 2561.3423 948.3835 0.664 -0.743 -0.084 95 76 64
-2866.9175 2560.1826 942.3567 0.670 -0.742 0.002 109 91 79
-2906.9312 2666.5474 931.9927 0.849 0.028 -0.528 111 79 52
-2949.2200 2788.1660 917.8127 0.863 -0.489 0.125 67 41 28
-2810.2666 2732.2898 843.9227 -0.269 -0.949 -0.161 45 18 0
-2903.8284 2896.5081 849.3030 0.722 -0.432 -0.540 158 73 51
-2349.7881 2661.9827 558.7987 0.343 -0.936 0.076 121 48 5
-2336.7427 2654.8291 552.5303 0.821 -0.386 -0.421 122 49 6
