ply
format ascii 1.0
element vertex 781
property float x
property float y
property float z
property float nx
property float ny
property float nz
property uchar diffuse_red
property uchar diffuse_green
property uchar diffuse_blue
end_header
-2801.6638 5530.3569 1556.6860 -0.077 -0.993 -0.089 91 68 46
-2049.4683 6054.6655 883.0402 0.953 -0.300 -0.045 39 34 31
-1820.0425 5927.0801 715.2077 0.706 -0.680 -0.199 67 57 57
-1636.6010 5847.3301 578.0999 0.648 -0.727 0.226 67 55 52
-3031.4578 2153.3879 2173.9465 -0.048 -0.883 -0.466 211 204 198
-3037.5098 2165.2654 2177.2241 0.555 -0.473 -0.684 216 209 201
-4213.8257 4955.2432 2750.1965 0.343 -0.795 0.500 231 226 218
-4167.3057 4932.3467 2715.8936 0.662 -0.749 0.004 232 225 215
-4210.2964 5020.2188 2738.7107 0.139 -0.688 -0.712 230 223 215
-4201.0542 5026.2144 2730.4915 0.159 -0.679 -0.716 211 204 194
-4189.0127 5028.7085 2720.4910 0.162 -0.674 -0.720 148 141 128
-4182.0762 5037.5879 2713.7393 0.162 -0.674 -0.720 127 115 99
-4057.1646 4915.0947 2629.7568 0.921 -0.238 -0.309 135 106 82
-4125.6221 5524.9263 2603.5183 -0.196 -0.342 -0.919 129 99 75
-4116.4243 5532.0845 2595.1799 -0.176 -0.344 -0.923 129 99 75
-3650.4219 6399.6909 2105.4905 0.974 -0.116 0.194 135 89 55
-3451.9644 6317.1816 1957.1328 -0.004 -0.999 0.045 127 86 56
-3400.9355 6403.8335 1904.6227 -0.135 -0.417 -0.899 134 97 71
-2821.6765 5529.4741 1555.9554 -0.288 -0.934 -0.211 71 51 35
-2806.8838 5523.0698 1544.9308 0.447 -0.832 -0.329 69 54 36
-1846.9839 5989.1909 712.1450 0.109 -0.764 -0.636 73 58 54
-1912.0151 6354.4932 715.7164 0.805 0.172 -0.568 68 58 51
-3041.9985 2150.4114 2173.1873 0.937 -0.326 -0.123 204 197 191
-3034.7957 2151.9253 2167.2092 0.479 -0.438 -0.761 211 204 198
-4468.2583 3278.9265 3163.5242 0.117 -0.758 -0.642 215 208 200
-4193.3208 4935.8452 2718.7952 0.277 -0.948 0.156 232 225 215
-4202.0811 5033.3232 2712.6167 0.171 -0.680 -0.713 148 141 129
-4193.8960 5040.6494 2705.0645 0.331 -0.629 -0.703 127 115 99
-4151.8223 5547.5771 2602.6985 -0.212 -0.339 -0.917 129 99 75
-4142.7534 5554.9932 2594.4255 -0.194 -0.368 -0.910 129 99 75
-3752.3628 6113.8018 2205.8572 0.395 -0.418 -0.818 145 100 67
-3739.4268 6236.8242 2178.8303 -0.656 -0.633 -0.412 135 90 57
-3538.2375 6228.2134 2018.7426 -0.757 -0.653 -0.025 127 83 52
-3439.2332 6122.0005 1953.7727 -0.763 -0.645 -0.047 119 76 44
-3469.8220 6331.6172 1949.9052 -0.029 -0.996 0.085 127 86 56
-2808.5442 5556.1851 1524.8917 0.321 -0.947 -0.005 24 21 2
-1946.5479 5815.3960 798.8992 0.912 -0.403 0.081 76 47 43
-1951.1616 5960.4194 782.9594 -0.226 -0.664 -0.713 109 65 44
-1914.9961 6152.3325 727.9853 0.040 -0.813 -0.581 71 56 49
-1649.5013 5798.5923 563.0911 -0.033 -0.907 0.419 25 21 18
-3044.6270 2141.3152 2166.9360 0.937 -0.333 -0.103 199 192 186
-3040.3574 2145.0940 2162.9998 0.611 -0.380 -0.695 204 197 191
-3037.4707 2149.9514 2160.0215 0.611 -0.386 -0.692 211 204 198
-4479.6245 3281.7959 3158.0659 0.117 -0.758 -0.642 215 208 200
-4189.0508 4818.3564 2714.0544 0.725 -0.501 -0.472 229 225 222
-4170.8071 4879.9912 2690.9731 0.672 -0.732 0.111 229 225 217
-4162.3623 4886.5757 2683.3098 0.672 -0.732 0.111 233 226 216
-4156.6592 4896.5361 2677.3760 0.402 -0.915 -0.041 232 225 215
-4217.8525 5041.2817 2706.4104 0.033 -0.602 -0.798 148 141 129
-4205.6279 5043.5850 2696.3125 -0.004 -0.602 -0.799 127 115 99
-4175.7476 5566.9683 2600.3555 -0.205 -0.315 -0.927 129 99 75
-4167.6631 5575.8184 2592.6689 -0.201 -0.312 -0.929 129 99 75
-3985.6226 5966.1377 2393.2876 0.739 -0.661 -0.133 63 40 26
-3707.2122 5997.3608 2166.2354 -0.140 -0.226 -0.964 147 102 69
-3495.5007 6334.6816 1950.4104 0.915 -0.026 -0.404 127 86 56
-3495.1013 6359.9185 1946.6167 -0.036 -0.995 0.095 127 86 56
-3507.9543 6410.3203 1949.9619 0.941 -0.149 -0.304 127 86 56
-3514.5503 6449.2139 1949.8853 0.982 -0.114 -0.149 127 86 56
-2755.5061 5849.6157 1425.1215 0.087 -0.900 0.427 30 19 10
-1985.8049 5975.9312 791.9007 -0.284 -0.651 -0.704 109 52 40
-1968.6326 5955.2881 781.0030 -0.239 -0.672 -0.701 119 60 45
-1946.1819 5917.7412 768.2092 -0.246 -0.693 -0.678 128 71 54
-1722.9806 5962.2642 583.4984 -0.781 -0.550 -0.296 24 20 17
-3045.0857 2137.6514 2158.2378 0.939 -0.323 -0.122 198 191 185
-3043.0923 2150.2708 2154.8801 0.611 -0.386 -0.692 209 202 196
-4498.3730 3290.4014 3157.6746 0.033 -0.813 -0.581 213 206 198
-4191.8291 4827.3394 2697.8115 0.733 -0.548 -0.404 171 167 164
-4188.9448 4840.5210 2693.6636 0.735 -0.555 -0.389 165 161 158
-4183.8774 4851.1108 2688.1350 0.735 -0.555 -0.389 186 182 179
-4172.2295 4853.7432 2678.4636 -0.145 -0.986 0.083 223 218 213
-4170.4502 4868.3760 2674.9951 0.687 -0.717 0.115 233 228 221
-4162.1616 4875.1128 2667.4326 0.687 -0.717 0.115 233 226 216
-4163.7305 4893.9438 2666.0510 0.402 -0.915 -0.041 231 224 214
-4243.4912 5043.9189 2708.7717 -0.220 -0.611 -0.760 214 207 197
-4231.0381 5045.9888 2698.5361 -0.095 -0.500 -0.861 152 145 133
-4222.2534 5052.6069 2690.5942 -0.069 -0.472 -0.879 127 115 99
-4216.4995 5063.0210 2684.5415 -0.069 -0.472 -0.879 132 108 86
-4110.6572 4947.8379 2616.1221 -0.007 -0.777 -0.630 135 107 81
-4206.5122 5595.7080 2602.0371 -0.220 -0.341 -0.914 129 99 75
-4201.7827 5609.3003 2596.3579 -0.218 -0.344 -0.914 129 99 75
-4099.7397 5752.9775 2494.7561 0.617 -0.775 -0.138 93 64 50
-3992.3826 5960.7637 2379.9404 0.737 -0.666 -0.114 58 35 21
-3782.4348 6059.1646 2198.4915 -0.118 -0.219 -0.969 140 95 62
-3505.9697 6361.0347 1935.4491 -0.032 -0.995 0.091 127 86 56
-2842.0928 5992.8218 1456.7377 0.356 -0.930 0.088 31 18 10
-1981.7878 5871.9717 786.5340 0.897 -0.427 0.116 76 46 43
-1899.1838 6112.4097 686.9202 -0.271 -0.911 -0.310 75 58 51
-1710.9077 5925.1528 562.7460 -0.757 -0.515 -0.402 11 7 4
-3047.2463 2135.3098 2150.7361 0.941 -0.313 -0.126 195 188 182
-3051.1445 2145.3799 2152.4124 0.946 -0.114 -0.302 200 193 187
-3048.5952 2150.4958 2149.6526 0.929 -0.069 -0.364 207 200 194
-4195.1626 4754.6367 2693.5972 -0.205 -0.923 -0.326 210 209 204
-4191.4321 4766.5371 2688.9314 -0.162 -0.984 -0.069 231 227 224
-4197.5664 4839.8921 2683.3943 0.715 -0.503 -0.486 16 12 9
-4193.1099 4851.2080 2678.2327 0.715 -0.503 -0.486 72 68 65
-4181.8774 4854.3525 2668.8303 -0.145 -0.986 0.083 189 184 179
-4165.0464 4867.4600 2653.5479 0.367 -0.504 -0.782 235 228 218
-4277.4214 5056.6699 2716.2454 -0.226 -0.593 -0.773 231 224 216
-4262.7012 5056.0225 2704.6011 -0.220 -0.611 -0.760 226 219 209
-4253.9531 5062.7363 2696.6721 -0.220 -0.611 -0.760 165 158 146
-4241.1938 5064.4658 2686.2537 -0.085 -0.478 -0.874 126 113 98
-4152.4238 4988.6265 2626.2600 0.020 -0.706 -0.708 136 108 82
-4006.9199 5989.7993 2367.9333 0.810 -0.496 0.313 58 31 16
-3867.4329 5950.9038 2262.2524 0.990 -0.116 -0.073 136 99 72
-3879.7537 6039.0601 2259.5439 0.443 -0.895 -0.058 143 102 72
-3871.8445 6049.3545 2251.7747 0.428 -0.902 -0.061 143 102 72
-3857.0842 6071.7524 2236.8228 0.195 -0.974 0.112 124 83 53
-3837.9199 6063.7358 2222.6829 0.203 -0.970 0.132 118 77 47
-3785.2349 6070.3696 2179.7354 -0.177 -0.252 -0.951 148 103 70
-3496.6084 6402.4551 1902.4132 0.918 -0.005 -0.397 127 86 56
-2960.5334 6175.5127 1507.2736 -0.627 -0.326 -0.708 49 36 28
-2917.0935 6135.7383 1478.2939 -0.735 -0.506 -0.451 38 25 17
-2836.2249 5986.2632 1435.0674 0.294 -0.373 -0.880 32 21 12
-1874.3359 6001.2432 666.0461 -0.257 -0.893 -0.369 70 53 46
-1734.9601 5945.2573 562.8835 0.265 -0.738 -0.621 18 14 11
-3051.8499 2134.8535 2144.9229 0.908 -0.317 -0.274 195 188 182
-3049.8669 2147.4460 2141.5266 0.947 -0.084 -0.310 207 200 194
-4207.3906 4758.3931 2685.7605 -0.194 -0.924 -0.330 202 201 196
-4208.1758 4775.6455 2683.8943 -0.185 -0.973 -0.135 240 236 233
-4192.8013 4856.4995 2659.9829 0.156 -0.944 -0.290 91 86 81
-4177.2153 4871.1367 2645.4653 0.367 -0.504 -0.782 237 230 220
-4193.8066 4908.2402 2653.3120 0.219 -0.640 -0.736 229 222 212
-4211.7090 4947.1582 2661.9407 -0.048 -0.613 -0.788 235 228 218
-4272.9316 5056.9980 2694.8059 0.224 -0.384 -0.896 226 219 209
-4270.2036 5071.1626 2690.5894 0.182 -0.402 -0.897 164 157 145
-4206.9858 5045.2207 2644.0220 0.290 -0.667 -0.686 136 107 82
-4270.0498 5655.5298 2606.0872 -0.297 -0.343 -0.891 127 97 73
-3809.7388 5323.3823 2287.6987 -0.557 -0.553 -0.619 85 56 42
-3869.8027 6075.7886 2226.8586 0.354 -0.928 0.120 156 115 85
-3719.5759 6278.5688 2078.0168 -0.622 -0.614 0.486 140 94 60
-3700.4949 6294.8467 2060.4802 0.759 -0.598 0.259 148 102 68
-3385.4360 6434.2212 1789.6088 -0.207 -0.890 0.406 94 58 32
-3943.4382 2993.2515 2717.8569 -0.389 -0.431 -0.814 212 208 199
-4218.1260 4760.3716 2676.9692 -0.200 -0.932 -0.303 208 207 202
-4220.6772 4779.6953 2676.1626 -0.191 -0.972 -0.140 232 228 225
-4203.2319 4858.0405 2650.8149 0.154 -0.937 -0.315 53 48 43
-4189.4043 4874.8188 2637.3689 0.367 -0.504 -0.782 237 230 220
-4206.7085 4912.7358 2645.5566 0.219 -0.640 -0.736 233 226 216
-4228.0610 4955.8145 2656.2039 -0.048 -0.613 -0.788 229 222 212
-4289.6499 5065.9487 2688.9849 0.182 -0.402 -0.897 225 218 208
-4285.7847 5078.7227 2684.0410 0.182 -0.402 -0.897 165 158 146
-3855.4707 5356.4922 2301.4395 -0.572 -0.551 -0.608 91 62 48
-3838.9045 5352.0991 2288.9224 -0.557 -0.555 -0.618 85 56 42
-3891.9343 6025.8315 2232.2615 0.995 -0.099 0.003 155 114 84
-3866.2268 6076.5620 2204.3987 0.169 -0.972 0.163 153 112 82
-3896.7852 6149.7378 2217.9465 0.133 -0.545 -0.828 148 107 76
-3521.7119 6206.1626 1911.6886 -0.359 -0.594 -0.720 123 80 48
-3529.0652 6295.3701 1904.4497 0.948 0.133 -0.290 91 48 16
-3001.7136 6062.1523 1519.6829 0.760 0.093 -0.643 35 28 20
-3091.5708 6331.7563 1551.5387 -0.657 -0.570 -0.493 51 38 30
-3042.0054 6336.6396 1511.4443 -0.641 -0.347 -0.685 56 43 35
-3053.9958 2142.5974 2126.4128 0.940 -0.086 -0.329 206 199 193
-3052.7737 2250.1399 2109.4338 0.145 -0.524 -0.839 195 191 182
-3967.9585 3007.5513 2722.4824 -0.386 -0.426 -0.818 212 208 199
-4230.0728 4763.7637 2668.9111 -0.203 -0.926 -0.319 218 217 212
-4232.1450 4782.5059 2667.7646 -0.274 -0.922 -0.275 221 217 214
-4305.5098 4885.7402 2710.5793 -0.422 -0.793 -0.439 220 216 213
-4217.3760 4847.3696 2646.3958 0.297 -0.675 -0.675 34 30 27
-4212.7920 4858.5244 2641.0996 0.184 -0.911 -0.370 62 58 53
-4202.7158 4863.0835 2632.4297 0.297 -0.537 -0.790 195 190 183
-4247.7891 4968.5474 2652.4756 -0.060 -0.613 -0.788 226 219 210
-4298.8921 5048.2363 2681.1406 -0.154 -0.740 -0.655 231 224 216
-4302.6074 5070.2412 2680.8113 0.148 -0.258 -0.955 228 221 211
-4300.6670 5085.3867 2677.0176 0.148 -0.258 -0.955 171 164 152
-3822.8877 5854.6206 2183.5913 0.999 -0.052 -0.004 140 101 73
-3538.4810 6218.2891 1903.8986 0.990 -0.005 -0.141 135 92 60
-3419.3320 6354.1631 1789.1779 0.978 0.058 -0.201 102 67 41
-3026.6909 6094.3804 1516.4604 0.775 0.071 -0.627 36 28 20
-3119.2910 6369.3833 1548.9591 -0.633 -0.568 -0.526 48 35 27
-3076.8572 6362.4067 1516.3448 -0.611 -0.354 -0.709 65 52 44
-3068.5762 6372.5156 1508.2726 -0.613 -0.355 -0.706 61 47 39
-2809.3442 5893.6709 1373.9692 0.204 -0.507 -0.837 36 28 22
-3060.1096 2251.7673 2105.2256 0.246 -0.509 -0.825 194 191 182
-4392.5732 4910.3311 2758.3816 0.770 -0.619 0.156 227 226 221
-4329.5454 4869.8696 2714.5981 0.683 -0.728 0.059 221 220 215
-4250.3979 4793.2925 2663.5105 -0.285 -0.896 -0.342 221 220 215
-4327.3516 4900.5938 2708.2188 -0.390 -0.802 -0.452 221 220 215
-4233.9541 4839.6509 2643.4875 0.267 -0.684 -0.679 37 36 31
-4226.5801 4847.4316 2636.4744 0.294 -0.681 -0.671 32 31 26
-4222.4966 4859.1777 2631.4666 0.210 -0.781 -0.589 43 41 36
-4264.4395 4977.4771 2646.7961 -0.060 -0.613 -0.788 228 221 215
-4322.2104 5082.6528 2676.6394 0.139 -0.287 -0.948 236 229 223
-4319.8403 5097.2935 2672.5510 0.139 -0.287 -0.948 187 179 172
-3716.8855 5167.8467 2184.5498 -0.649 -0.761 0.010 70 42 30
-3815.0918 5761.0239 2172.6667 0.911 -0.172 0.376 133 107 86
-3821.5222 5792.8545 2172.9478 0.996 -0.068 -0.062 123 96 76
-3802.4514 5850.6455 2149.1177 0.998 -0.014 0.065 137 99 70
-3752.9524 6233.5884 2052.0676 0.006 -0.367 -0.930 128 85 51
-3462.7275 6087.1064 1844.4393 -0.167 -0.730 -0.662 135 92 60
-3456.2288 6485.1851 1779.1440 0.040 -0.974 -0.221 93 62 38
-3145.1707 6402.8975 1545.3230 -0.217 -0.888 -0.405 43 29 17
-3064.4556 6370.3066 1486.3480 -0.681 -0.644 -0.348 41 27 16
-3011.7324 6312.2324 1453.3838 -0.466 -0.848 -0.254 36 28 20
-3007.5342 6358.9580 1442.9999 0.546 -0.781 -0.302 24 17 11
-1497.5507 5891.1079 318.2866 0.668 -0.418 0.616 233 197 200
-3898.2224 2792.2153 2674.9229 0.530 -0.707 0.469 210 203 195
-3901.0530 2803.4084 2675.4434 0.637 -0.717 0.284 209 205 196
-4318.6206 4846.2227 2692.2070 0.559 -0.818 0.135 221 220 215
-4346.6313 4912.3618 2704.2019 -0.384 -0.805 -0.453 221 220 215
-4245.9897 4843.0845 2635.2903 0.267 -0.684 -0.679 86 85 80
-4239.5601 4852.0015 2628.8418 0.267 -0.684 -0.679 42 41 36
-4234.2808 4862.3184 2623.0879 0.210 -0.781 -0.589 46 43 38
-4344.1567 5097.8716 2673.8018 0.556 -0.801 -0.221 236 229 223
-4256.5220 5060.1167 2610.3357 0.322 -0.946 -0.040 138 109 86
-3971.6414 5462.6548 2323.4810 -0.673 -0.583 -0.455 88 60 48
-4003.0664 5883.5410 2283.7803 0.884 -0.286 -0.369 50 32 18
-3827.5957 5786.9092 2159.9275 0.838 -0.197 0.509 118 91 72
-3680.0435 5837.1250 2035.6216 0.764 -0.502 -0.406 153 110 75
-3662.4292 6156.6606 1972.7067 0.526 -0.527 0.668 120 74 41
-3459.6577 6445.1621 1768.2261 0.778 0.199 -0.596 89 59 35
-3482.8787 6570.8735 1767.3011 0.757 0.060 -0.650 86 59 37
-3092.5857 6381.4609 1487.9070 -0.431 -0.728 0.533 49 33 20
-1999.1787 5929.6431 693.0974 0.757 -0.260 0.600 28 18 9
-1927.8074 6174.8721 599.0934 -0.728 -0.661 0.184 12 11 7
-1904.8248 6133.8179 587.2258 -0.729 -0.682 0.060 12 11 7
-3929.7085 2820.3943 2683.2458 0.215 -0.727 -0.651 209 205 196
-4271.8794 4797.1045 2645.6816 -0.247 -0.914 -0.320 221 220 215
-4376.6084 4936.6602 2706.5908 -0.370 -0.812 -0.451 221 220 215
-4258.0444 4846.5229 2627.0801 0.267 -0.684 -0.679 159 158 153
-4250.1729 4853.7280 2619.7498 0.294 -0.681 -0.671 89 88 83
-4243.5742 4862.4644 2613.1851 0.198 -0.815 -0.545 51 48 43
-4235.3877 4869.3164 2605.6614 0.314 -0.672 -0.670 216 211 205
-4293.2266 4989.7456 2632.5552 0.101 -0.819 -0.564 228 221 215
-4292.3594 5057.7798 2621.2878 0.424 -0.906 -0.004 132 118 108
-4265.3296 5059.3740 2599.7166 0.290 -0.956 -0.042 138 109 85
-3956.3809 5446.9092 2295.7102 -0.454 -0.750 -0.481 82 54 42
-4000.7573 5842.9927 2269.1035 0.495 -0.555 0.668 49 33 18
-4010.0156 5878.7373 2270.8467 0.884 -0.286 -0.369 50 32 18
-3706.3110 6166.6841 1986.4692 -0.126 -0.737 0.664 135 89 56
-3564.1809 6284.9766 1855.9451 0.963 0.079 -0.259 111 69 40
-3513.8442 6556.3140 1774.0269 0.795 0.114 -0.596 82 52 28
-2892.2969 5684.3662 1419.3425 0.817 0.167 -0.552 28 18 9
-2668.0178 6107.0127 1176.6682 -0.283 -0.859 0.427 27 22 19
-2408.7029 6012.3369 986.8287 0.963 0.103 -0.248 24 20 21
-1940.7885 5787.7285 652.6425 0.872 -0.125 0.473 29 20 13
-1998.3385 6342.4409 611.7520 -0.670 -0.722 -0.171 13 10 7
-1904.2467 6138.2017 569.2966 -0.746 -0.663 0.057 15 14 10
-3948.1462 2820.3752 2685.5452 0.601 -0.767 -0.224 209 202 194
-3941.6570 2824.4517 2679.7920 0.211 -0.722 -0.659 209 205 196
-4025.8059 3051.3789 2710.2524 0.290 -0.810 -0.510 207 204 195
-4395.4048 4947.7290 2702.0935 -0.370 -0.812 -0.451 223 222 217
-4375.2251 4940.8091 2687.2939 -0.124 -0.992 -0.001 221 220 215
-4270.5854 4850.5220 2619.1379 0.182 -0.794 -0.580 211 210 205
-4261.0596 4855.7710 2610.8086 0.177 -0.772 -0.610 148 147 142
-4254.4746 4864.5259 2604.2417 0.179 -0.777 -0.603 76 73 68
-4245.1748 4870.0508 2596.0466 0.298 -0.675 -0.676 220 215 209
-4315.8872 5040.2891 2624.8704 0.324 -0.935 -0.146 236 229 223
-4305.6958 5045.1885 2616.0718 0.324 -0.935 -0.146 195 186 180
-4299.2676 5054.6909 2609.5105 0.344 -0.928 -0.142 137 122 112
-4294.6904 5066.4922 2604.0439 0.327 -0.942 -0.079 136 112 90
-4273.2012 5057.4790 2588.5439 0.290 -0.956 -0.042 139 110 86
-4061.5127 5563.0869 2342.0669 0.245 -0.883 -0.401 88 60 48
-3993.1448 5485.6943 2300.4395 -0.078 -0.910 -0.408 81 53 41
-3969.3845 5910.6323 2214.6809 0.377 -0.754 0.538 75 48 29
-3812.6392 5732.8438 2119.2991 0.813 -0.479 0.332 107 80 61
-3606.9248 6049.3037 1907.3710 -0.075 -0.710 0.701 132 86 53
-3667.4380 6402.7290 1899.2596 -0.205 -0.399 -0.894 119 76 44
-3589.5552 6337.9399 1848.1510 -0.470 -0.794 0.385 111 76 49
-3565.3289 6319.0815 1832.0486 -0.260 -0.845 0.468 111 77 50
-3577.0151 6366.0640 1833.8385 -0.310 -0.792 0.526 109 77 52
-3180.6365 6640.5015 1478.3964 -0.600 -0.657 -0.457 31 24 16
-2628.0999 5990.9419 1145.7737 -0.039 -0.863 -0.504 22 17 14
-2445.0139 5909.3867 1014.4649 0.583 -0.660 -0.474 37 33 34
-3954.1233 2819.8264 2678.0986 0.612 -0.759 -0.220 207 200 192
-3951.7505 2827.0674 2675.0750 0.377 -0.638 -0.672 209 205 196
-3952.2036 2836.5071 2673.9207 0.782 -0.302 -0.545 203 199 190
-4383.7310 4923.0571 2679.2834 0.761 -0.571 0.308 227 226 221
-4371.6758 4925.6333 2669.3945 0.536 -0.787 0.305 225 224 219
-4279.6470 4850.3862 2609.0920 0.346 -0.823 -0.450 218 217 212
-4276.2490 4862.9087 2604.4170 0.186 -0.796 -0.576 211 210 205
-4268.3325 4870.0967 2597.0437 0.186 -0.796 -0.576 148 145 140
-4257.0190 4873.2363 2587.6479 0.298 -0.675 -0.676 227 222 216
-4325.7754 5040.8525 2614.8772 0.313 -0.942 -0.119 236 229 223
-4315.2559 5045.3579 2605.8872 0.401 -0.905 -0.140 215 206 200
-4307.5508 5053.2939 2598.5605 0.344 -0.928 -0.142 151 137 127
-4302.6372 5064.6670 2592.8784 0.327 -0.942 -0.079 142 117 97
-4283.5396 5058.6245 2578.8328 0.283 -0.956 -0.081 140 111 88
-4276.7847 5067.7393 2572.0642 0.459 -0.609 -0.647 130 105 83
-3632.9907 6053.4458 1908.2682 -0.055 -0.704 0.708 122 76 43
-3301.6343 5613.3076 1718.2166 -0.267 -0.545 -0.795 121 77 45
-3603.2649 6344.2051 1838.3785 -0.463 -0.797 0.388 120 86 58
-3514.1899 6385.1274 1761.8099 0.331 -0.699 -0.634 103 73 49
-3459.5371 6492.0293 1701.7432 0.834 0.104 -0.542 84 65 48
-2713.1240 5196.1147 1322.3480 0.558 -0.395 0.730 37 23 7
-2467.2639 5914.5674 1014.1248 0.455 -0.270 -0.848 13 9 10
-1986.6637 6246.0430 583.2931 -0.502 -0.841 -0.204 13 11 7
-3970.8628 2818.4639 2679.2310 0.467 -0.841 -0.274 194 187 179
-3961.6353 2820.4529 2671.6677 0.632 -0.739 -0.232 207 200 192
-3963.9993 2831.3279 2671.7585 0.257 -0.423 -0.869 209 205 196
-3959.1230 2836.6687 2667.0657 0.736 -0.315 -0.599 204 200 191
-4378.0435 4922.1494 2657.4802 0.730 -0.609 0.310 227 226 221
-4294.5210 4840.6226 2605.1655 0.272 -0.954 0.126 212 211 206
-4295.2642 4857.9854 2602.9321 0.255 -0.487 -0.835 220 219 214
-4351.6104 5026.2314 2619.8538 0.147 -0.874 -0.464 227 220 214
-4363.3408 5057.6113 2623.9683 0.464 -0.853 0.239 225 220 214
-4334.0688 5039.4790 2603.9399 0.313 -0.942 -0.119 236 229 223
-4322.5264 5042.7412 2594.3535 0.324 -0.935 -0.146 215 207 200
-4312.3384 5047.6377 2585.5647 0.324 -0.935 -0.146 150 137 126
-4307.7520 5059.3813 2580.0603 0.323 -0.939 -0.122 141 116 96
-4291.7344 5057.1313 2567.8567 0.283 -0.956 -0.081 140 111 89
-4282.5264 5063.2144 2559.6445 0.470 -0.672 -0.573 131 105 84
-4109.5415 5583.2036 2339.5496 -0.023 -0.811 -0.584 90 62 50
-4014.3284 5882.8262 2216.2305 0.525 -0.668 -0.528 72 50 32
-4003.1826 5931.4932 2199.5896 0.409 -0.797 -0.444 62 35 16
-3875.0007 5820.9644 2116.9358 0.518 -0.716 0.469 101 71 52
-3833.4011 5821.2998 2084.2383 0.461 -0.887 -0.016 133 96 67
-3736.9358 5733.9380 2022.7139 -0.102 -0.989 -0.109 136 97 66
-3737.6909 5756.8540 2019.5890 0.102 -0.987 -0.122 136 97 66
-3752.0125 5801.6348 2023.5626 0.099 -0.994 -0.044 135 97 65
-3699.4758 5760.9883 1988.9312 0.438 -0.165 -0.884 142 99 65
-3689.8015 6086.3838 1928.5532 0.186 -0.891 0.414 132 86 53
-3728.4688 6176.3696 1944.2977 -0.439 -0.869 0.228 129 83 50
-3643.7979 6054.8735 1897.5659 -0.064 -0.719 0.692 122 76 43
-3620.6570 6357.1123 1830.3774 -0.711 -0.687 -0.150 116 81 54
-3535.9111 6406.5972 1755.8500 0.347 -0.710 -0.612 103 73 49
-3466.2085 6484.9697 1688.4407 0.827 0.105 -0.552 84 65 48
-2963.7893 6159.1938 1347.0413 -0.217 -0.730 0.648 31 24 18
-2018.8408 5761.5405 670.0502 -0.626 -0.285 -0.726 31 22 17
-1988.1128 5824.4175 635.7380 -0.691 -0.299 -0.659 26 17 10
-1590.8049 5725.2163 340.0638 -0.093 -0.845 0.526 50 49 41
-1379.6934 5332.2798 238.1480 -0.240 -0.350 -0.906 32 25 19
-3978.4080 2819.1062 2672.8071 0.328 -0.478 -0.815 194 187 179
-3972.0984 2823.3311 2667.1699 0.325 -0.384 -0.864 207 200 192
-3974.4834 2834.2205 2667.2476 0.257 -0.423 -0.869 209 205 196
-3964.9675 2836.0024 2659.5007 0.343 -0.332 -0.879 203 199 190
-3071.8884 2228.3940 2059.8572 0.368 -0.927 0.066 208 205 196
-4323.6479 4864.0469 2606.9712 0.135 -0.990 0.034 223 222 217
-4350.7031 5013.8198 2603.5352 0.891 -0.008 -0.453 227 222 216
-4341.6685 5037.2705 2592.6021 0.284 -0.944 -0.169 234 229 223
-4329.5186 5039.7959 2582.6699 0.271 -0.942 -0.198 214 206 200
-4319.2598 5044.6001 2573.8438 0.271 -0.942 -0.198 150 137 128
-4303.2593 5059.7217 2558.8242 0.305 -0.938 -0.163 140 111 89
-4294.4927 5066.3564 2550.8660 0.464 -0.600 -0.652 131 105 84
-4173.2930 5720.4321 2348.3743 0.952 -0.085 -0.295 70 42 30
-4014.5627 5933.3921 2189.0208 -0.040 -0.315 -0.948 61 34 15
-4002.5037 5936.9224 2178.9944 -0.033 -0.321 -0.947 75 48 29
-3849.1494 5743.9595 2090.6008 0.835 -0.546 -0.070 87 60 41
-3833.7817 5763.0659 2075.4214 0.181 -0.815 0.551 126 91 65
-3854.3127 5816.7861 2082.6699 0.471 -0.878 -0.087 133 96 69
-3840.9229 5817.6030 2072.0471 0.461 -0.887 -0.016 133 96 67
-3732.1223 5776.0093 1993.6622 0.370 -0.187 -0.910 128 87 54
-3731.4048 5796.7832 1989.6842 0.370 -0.187 -0.910 121 81 46
-3668.8960 5963.9697 1913.2286 0.517 -0.119 -0.848 135 92 58
-3464.8367 5821.3047 1776.8466 -0.336 -0.818 0.467 121 75 42
-3567.1055 6445.6182 1754.2938 0.281 -0.662 -0.695 103 73 49
-1985.8169 6186.2148 558.3113 -0.348 -0.915 0.204 36 34 30
-1765.8352 6008.6641 415.1935 -0.166 -0.756 0.633 45 40 36
-1635.1423 5649.2241 371.9261 -0.242 -0.799 0.550 47 42 38
-1584.9685 5604.4272 339.9907 -0.193 -0.805 -0.560 53 50 45
-3987.1494 2820.6545 2667.1592 0.319 -0.459 -0.829 193 186 179
-3978.2285 2841.0283 2656.7886 0.236 -0.406 -0.883 204 200 191
-3976.4041 2857.8745 2652.5544 0.359 -0.835 0.416 194 190 181
-3516.2791 2527.0698 2347.9011 0.222 -0.610 -0.761 207 203 194
-3510.9031 2531.0581 2343.0330 0.340 -0.509 -0.791 207 204 195
-4057.2844 3103.4878 2674.8650 0.412 -0.521 -0.747 209 206 199
-4049.5835 3107.1455 2668.2341 0.438 -0.605 -0.665 211 208 201
-4342.3462 4875.1523 2602.5127 0.237 -0.937 0.257 228 227 222
-4377.1934 4932.6621 2620.1760 0.380 -0.914 0.143 223 222 217
-4356.8921 5009.9644 2591.4197 0.891 -0.008 -0.453 230 225 219
-4310.0103 5073.8384 2544.1169 0.394 -0.443 -0.806 131 105 85
-4187.9834 5727.0278 2339.8469 0.942 -0.087 -0.325 70 42 30
-4087.9111 6029.8945 2211.1255 -0.047 -0.357 -0.933 59 32 15
-4024.1057 5954.4888 2173.8010 -0.033 -0.321 -0.947 70 44 26
-3867.4766 5757.1240 2084.2200 0.887 -0.462 0.010 82 56 38
-3872.1052 5785.7764 2083.0645 0.258 -0.803 0.537 89 60 43
-3836.8926 5752.6587 2061.0498 0.181 -0.815 0.551 122 88 62
-3825.3726 5821.2920 2040.6042 -0.069 -0.716 0.695 142 106 78
-3745.0098 5781.0513 1984.4730 0.525 -0.119 -0.843 129 89 56
-3721.8818 5787.7041 1965.2800 0.365 -0.058 -0.929 154 115 79
-3688.1941 5956.7554 1910.7665 0.516 -0.119 -0.848 139 96 62
-3676.1970 5982.6685 1897.0670 0.528 -0.116 -0.841 140 97 63
-3639.7341 6013.7764 1863.3718 0.653 0.054 -0.755 121 76 44
-3400.0447 5692.1875 1729.5461 -0.239 -0.945 0.221 116 70 38
-2786.8586 5292.7573 1316.6473 -0.316 -0.061 -0.947 37 23 7
-2547.9080 6404.7808 944.4871 -0.239 -0.930 -0.278 44 35 38
-2449.1536 6831.5342 796.1500 -0.677 -0.424 -0.602 45 36 31
-2039.6550 6295.6069 565.2665 -0.546 -0.837 0.034 29 23 17
-1830.7076 6206.6118 416.7169 0.280 -0.791 0.545 41 36 32
-1606.6849 5620.7852 339.1768 -0.232 -0.803 -0.549 46 42 38
-1597.6428 5622.1948 331.8716 -0.229 -0.809 -0.541 49 47 43
-3995.8601 2822.1733 2661.4771 0.322 -0.454 -0.831 194 186 183
-3991.6934 2828.0410 2657.2341 0.331 -0.474 -0.816 205 200 195
-3994.9714 2839.6057 2657.8398 0.263 -0.428 -0.865 210 206 200
-3523.7136 2536.3806 2341.2083 0.213 -0.586 -0.781 209 206 199
-4070.1082 3108.1792 2671.1355 0.409 -0.526 -0.746 208 205 198
-4067.0828 3115.6785 2667.5078 0.409 -0.526 -0.746 212 209 204
-4376.9253 4921.4023 2604.4363 0.331 -0.934 0.132 222 223 217
-4362.5898 4921.2358 2593.2749 0.728 -0.445 -0.521 222 223 217
-4361.1030 5020.8291 2575.2969 0.778 -0.083 -0.622 230 227 220
-4106.2642 6042.1514 2203.9250 -0.051 -0.358 -0.932 36 15 4
-4048.8081 5976.7021 2170.1301 -0.023 -0.321 -0.947 59 38 26
-3907.2690 5803.2632 2088.9404 0.170 -0.814 0.555 75 52 39
-3849.9573 5757.7354 2051.8943 0.180 -0.831 0.526 99 70 52
-3874.0950 5816.8101 2060.7593 0.375 -0.878 0.298 108 79 57
-3816.9238 5792.4961 2020.2407 -0.070 -0.723 0.688 151 119 97
-3774.0984 6083.5371 1937.6685 0.693 -0.100 -0.714 156 116 81
-3412.6252 5742.6401 1713.0891 -0.347 -0.461 -0.817 113 77 50
-3556.1865 6386.9521 1716.3453 0.953 -0.192 0.235 96 66 42
-2920.4080 6005.8735 1284.4454 -0.539 -0.676 0.502 42 39 34
-2578.0718 6070.3394 1006.3533 0.561 -0.824 -0.081 30 22 21
-2591.9272 6400.7827 961.3693 0.480 -0.509 0.714 44 23 28
-2553.5046 6333.1973 942.7914 0.411 -0.473 0.780 43 22 27
-2563.1143 6419.6167 935.6993 0.224 -0.545 0.808 42 23 27
-2549.2551 6414.8398 925.6884 0.134 -0.550 0.824 40 23 30
-2153.7983 6557.1475 592.9894 0.642 -0.219 -0.735 30 22 17
-2085.7195 6413.5166 564.1049 0.279 -0.154 -0.948 44 36 31
-1684.7604 5839.0728 348.1421 0.092 -0.569 -0.817 39 35 33
-1606.6168 5660.7988 317.2515 0.154 -0.967 -0.201 51 49 46
-1510.7240 5477.3579 273.3795 0.235 -0.759 0.607 57 54 52
-4000.6970 2820.7493 2653.2651 0.885 -0.335 -0.324 195 187 184
-3994.0452 2824.7214 2647.4028 0.731 -0.598 -0.330 206 200 197
-3534.2651 2531.7366 2339.2834 0.210 -0.595 -0.776 206 203 196
-4367.6177 4899.6089 2583.5276 0.263 -0.902 0.343 222 223 217
-4372.8540 4922.3657 2583.7148 0.268 -0.963 0.016 222 223 217
-4371.6289 5022.1650 2565.6877 0.888 -0.003 -0.459 229 226 219
-4346.4526 5009.0508 2548.3149 0.789 -0.076 -0.609 231 228 221
-4366.0522 5049.7710 2556.6199 0.260 -0.864 -0.431 221 217 209
-4355.3071 5054.0327 2547.5190 0.263 -0.863 -0.430 167 157 146
-4064.0229 5464.6338 2250.3232 -0.477 -0.511 -0.715 82 58 46
-4121.8765 6050.1797 2195.2322 0.070 -0.351 -0.934 35 15 6
-3880.4773 5789.7798 2051.6909 0.291 -0.604 0.741 89 62 44
-3902.5657 5889.4209 2051.8557 -0.190 -0.819 0.542 107 79 57
-3837.5896 5831.3228 2011.1681 -0.435 -0.836 0.335 143 115 94
-3771.7817 5836.4966 1959.0085 0.647 -0.369 -0.667 144 109 77
-3724.1670 5825.9634 1923.7112 -0.405 -0.735 -0.544 126 91 59
-3691.0271 5860.8394 1891.9241 0.450 -0.067 -0.890 149 111 75
-3784.1931 6130.4282 1918.3967 0.712 -0.065 -0.699 126 85 53
-3716.8918 6064.2036 1877.2876 0.713 0.053 -0.700 126 87 56
-3697.2771 6319.9590 1818.2533 -0.223 -0.839 0.497 110 76 51
-2925.8008 5532.4751 1351.8671 -0.342 -0.047 -0.938 44 28 12
-2952.0103 6027.0356 1287.6851 -0.273 -0.868 0.415 38 35 30
-2930.1335 6006.7368 1274.1122 -0.242 -0.870 0.430 38 35 30
-2641.3564 6115.9023 1030.4358 -0.217 -0.703 -0.677 20 16 15
-2663.0518 6196.5576 1033.5422 -0.343 -0.814 -0.468 24 20 19
-2585.5339 6066.3271 995.4220 0.561 -0.824 -0.081 38 30 28
-2592.0085 6139.3037 987.9828 0.653 -0.735 -0.183 55 47 45
-2611.4021 6274.9268 979.8926 -0.682 -0.720 0.128 51 43 41
-2546.3271 6171.6187 946.8619 -0.682 -0.685 0.256 67 47 51
-2550.8137 6394.3315 912.2587 0.134 -0.550 0.824 51 32 40
-2142.3984 6527.9795 571.1776 0.529 -0.230 -0.817 37 28 23
-2001.9452 6363.8306 489.8232 -0.773 -0.532 -0.346 34 29 23
-1510.6550 5658.8354 227.6341 -0.500 -0.827 0.256 54 48 48
-4003.5881 2817.8564 2643.8027 0.968 -0.244 -0.062 195 185 183
-3533.9224 2534.9888 2327.5225 -0.024 -0.351 -0.936 210 207 200
-4363.0659 4883.4604 2565.4841 0.240 -0.904 0.353 222 223 217
-4375.1753 4914.1821 2569.5793 0.277 -0.960 0.044 222 223 217
-4370.9380 4925.8521 2564.2615 0.283 -0.954 0.102 225 224 219
-4328.2197 4959.0576 2525.2827 0.751 -0.070 -0.656 229 226 219
-4375.2925 5049.5308 2546.2183 0.314 -0.714 -0.626 221 217 209
-4367.8462 5075.0498 2536.0051 0.499 -0.202 -0.843 139 115 100
-4340.6108 5076.6396 2514.5466 0.588 -0.420 -0.691 129 102 87
-3719.5061 5172.4673 2014.8641 -0.662 -0.354 -0.661 52 30 17
-4150.9629 6056.2725 2197.3013 0.287 -0.311 -0.906 27 7 0
-3937.8933 5884.9683 2061.2637 -0.140 -0.860 0.490 82 55 34
-3900.3831 5848.6167 2038.3879 -0.154 -0.867 0.474 89 61 40
-3923.6589 5906.7446 2046.4192 -0.286 -0.870 0.401 95 67 45
-3830.1948 5782.5508 1995.2448 -0.460 -0.856 0.237 121 93 72
-3867.8918 5863.4209 2010.5519 -0.321 -0.867 0.380 120 92 71
-3843.8730 5847.5474 1994.6212 -0.321 -0.867 0.380 126 98 76
-3791.1931 5807.9468 1960.5099 -0.225 -0.333 -0.916 125 91 63
-3724.1416 5832.2036 1904.1559 -0.403 -0.739 -0.539 157 122 92
-3696.7769 5854.2290 1879.0560 0.552 -0.029 -0.833 150 110 75
-3840.2646 6136.2954 1941.7827 -0.721 -0.640 -0.266 150 110 75
-3823.1729 6131.4385 1929.3308 -0.750 -0.612 -0.250 162 122 87
-3757.7441 6092.6172 1885.1689 -0.453 -0.856 0.249 133 92 60
-3554.0234 6170.1880 1713.2795 -0.412 -0.823 0.391 101 71 47
-2977.0645 5734.1362 1340.0920 0.355 -0.764 -0.539 15 8 2
-2969.4268 5742.9639 1332.6219 0.355 -0.764 -0.539 24 17 11
-2962.6458 5753.5420 1325.5150 0.725 -0.542 -0.424 37 30 24
-2960.7056 6025.6313 1276.8607 -0.239 -0.869 0.434 31 28 23
-2937.4290 6002.4507 1262.7733 -0.235 -0.870 0.433 31 28 23
-2922.6880 5997.1587 1252.2251 -0.222 -0.874 0.433 31 28 23
-1603.2474 5660.1431 284.3956 -0.187 -0.789 0.585 41 37 38
-4010.9321 2818.3364 2637.2261 0.964 -0.233 -0.126 194 184 182
-3548.8137 2533.7080 2328.3853 -0.024 -0.351 -0.936 204 201 194
-3547.0100 2540.4895 2325.7949 -0.024 -0.351 -0.936 206 203 196
-4373.7236 4885.1016 2556.2334 0.228 -0.894 0.385 222 223 217
-4383.0903 4912.5708 2558.6855 0.240 -0.953 0.182 222 223 217
-4380.8623 5044.8848 2533.7383 0.499 -0.203 -0.842 223 219 211
-4388.3525 5105.7559 2528.8723 0.483 -0.224 -0.846 138 110 92
-4322.9531 5043.6934 2488.9868 0.421 -0.694 -0.584 130 103 89
-3745.8074 5216.3008 2010.6072 -0.685 -0.336 -0.647 53 31 18
-3758.5415 5272.9521 2010.5531 -0.611 -0.341 -0.714 65 39 26
-3761.9856 5297.2358 2008.9659 -0.620 -0.342 -0.706 71 45 30
-4167.4272 6065.4570 2188.9458 0.287 -0.311 -0.906 31 11 2
-3961.7639 5906.3857 2057.1829 0.826 -0.455 0.333 73 46 26
-3932.0918 5882.3691 2038.3600 0.757 -0.497 0.424 79 51 30
-3904.0239 5882.5010 2016.5452 -0.265 -0.891 0.368 79 51 30
-3882.2051 5870.3037 2001.7456 -0.264 -0.891 0.370 100 71 53
-3866.6772 5867.8638 1990.1179 0.092 -0.941 0.327 120 92 71
-3863.6577 5885.0986 1984.7494 0.525 -0.166 -0.835 121 92 69
-3823.9983 5844.3867 1961.1018 -0.230 -0.240 -0.943 115 80 51
-3707.8132 5856.3022 1868.8058 0.555 -0.028 -0.831 149 109 74
-3878.0916 6205.4663 1939.7397 -0.746 -0.609 -0.268 150 107 73
-3661.2273 6076.4092 1794.0139 -0.582 -0.690 0.431 111 72 43
-3451.3113 6313.4131 1589.4489 0.094 -0.726 0.681 93 67 45
-2988.7153 5836.6597 1313.9498 0.867 -0.286 -0.408 34 27 21
-2833.2070 5863.8413 1188.4448 -0.327 -0.801 0.501 33 30 25
-2552.9705 6027.7217 942.1144 0.927 -0.195 0.321 55 47 45
-2426.8806 5856.3066 874.2979 0.661 -0.539 0.522 77 54 60
-2420.8416 6011.6353 842.3533 0.552 -0.828 -0.098 73 54 62
-2422.4585 6044.9644 837.7603 0.285 -0.884 0.370 56 48 60
-2408.9670 6039.3501 828.2708 0.291 -0.884 0.367 44 38 52
-2426.4314 6758.7939 715.5871 -0.112 -0.237 -0.965 31 17 14
-1520.9235 5638.3604 209.1629 -0.545 -0.806 0.232 51 45 45
-4308.8335 4815.1001 2501.1465 0.282 -0.959 -0.010 222 223 217
-4399.0894 5038.2822 2531.4429 0.665 -0.018 -0.747 231 228 221
-4388.3149 5042.5107 2522.3411 0.522 -0.194 -0.830 229 225 217
-4403.6221 5112.7217 2521.7297 0.493 -0.215 -0.843 140 112 94
-4336.7925 5049.0967 2481.2405 0.526 -0.705 -0.476 132 105 91
-4326.8613 5054.2632 2472.6257 0.504 -0.703 -0.501 129 100 85
-3975.9453 5476.1924 2125.6958 -0.130 -0.955 -0.267 50 28 15
-2836.0728 3945.7634 1514.1912 0.863 -0.376 -0.336 93 67 52
-3993.2004 5939.3472 2056.7793 0.537 -0.655 0.532 59 32 13
-3921.9866 5894.9546 2009.4749 0.103 -0.829 0.550 63 35 14
-3743.5322 5898.6494 1870.5134 0.467 -0.080 -0.880 124 84 49
-3916.1230 6251.2295 1941.6305 -0.746 -0.609 -0.268 121 81 46
-3583.8687 5973.0791 1733.5477 -0.004 -0.971 0.240 101 66 41
-3610.9038 6114.5220 1729.3700 -0.720 -0.587 -0.371 99 65 40
-3455.0830 6301.5332 1575.3801 -0.021 -0.993 -0.120 82 56 34
-3190.5742 5898.4727 1441.9941 -0.787 -0.611 0.087 79 62 46
-2624.8794 6011.3218 983.5221 0.475 -0.870 0.133 20 19 17
-2608.3757 6027.5562 967.8472 0.441 -0.880 0.177 46 38 36
-2453.6877 5873.4512 875.3419 0.696 -0.612 0.376 68 48 52
-2435.2527 6025.7368 833.9976 0.525 -0.835 -0.162 63 44 52
-2407.8669 6013.4282 814.9599 0.559 -0.817 -0.142 44 38 52
-2402.4148 6028.5117 808.0546 0.567 -0.814 -0.129 38 32 46
-2328.3599 5864.6582 779.7731 -0.169 -0.828 -0.535 32 26 40
-2561.6160 7117.6841 737.9230 -0.272 -0.499 -0.823 23 12 8
-2390.8630 6767.8569 667.7411 -0.636 -0.257 -0.727 25 12 6
-2088.7859 6378.8154 502.7486 0.269 -0.958 -0.103 38 31 25
-2033.4237 6238.4072 484.7886 -0.117 -0.970 0.215 38 31 25
-2011.4100 6237.2734 467.9290 0.302 -0.790 -0.533 48 41 35
-1555.2277 5739.8901 202.7518 -0.008 -0.680 -0.733 49 43 43
-1532.7317 5725.8633 187.8093 -0.015 -0.867 -0.498 61 55 55
-4014.6897 2811.0574 2617.0786 0.954 -0.207 -0.217 194 184 182
-4010.1931 2816.6333 2612.5969 0.952 -0.214 -0.219 191 183 180
-4025.4983 2846.2708 2619.1067 0.747 -0.665 -0.004 200 197 190
-4398.1421 5008.9219 2518.4082 0.666 0.014 -0.746 235 232 225
-4396.8979 5058.6304 2508.5049 0.464 -0.878 0.121 189 180 169
-4386.2397 5063.0210 2499.4692 0.464 -0.878 0.121 141 117 102
-4356.3799 5061.4316 2476.6545 0.387 -0.922 -0.002 132 105 90
-4006.1943 5943.8022 2047.0280 0.682 -0.561 0.468 58 31 12
-3951.7283 5903.6841 2012.1068 -0.054 -0.828 0.558 65 37 16
-3895.7017 5838.6226 1980.4650 0.461 -0.690 0.558 66 38 17
-3863.4500 5919.6357 1940.9421 -0.411 -0.911 0.034 116 81 50
-3843.5156 5910.1333 1927.2291 -0.411 -0.911 0.034 113 78 44
-3819.5183 5894.0215 1911.5620 -0.409 -0.912 0.026 121 87 52
-3915.2957 6232.7876 1924.7262 -0.710 -0.695 0.114 129 89 54
-3894.9304 6222.9092 1910.7477 -0.731 -0.680 0.056 137 97 62
-3831.3259 6212.1118 1863.4829 0.904 0.101 -0.416 141 102 73
-3720.8005 6144.0688 1790.2148 -0.513 -0.666 0.541 113 74 45
-3675.5203 6090.2725 1764.8604 -0.514 -0.667 0.540 112 74 47
-3585.7168 5959.4004 1718.9247 0.022 -0.814 0.580 101 66 40
-3185.1587 5894.2793 1420.7505 -0.694 -0.710 0.123 75 58 42
-3144.1306 5863.6040 1394.5270 -0.616 -0.785 0.066 39 22 6
-2772.7231 6310.2588 1026.8531 0.507 -0.805 0.307 13 12 10
-2598.1040 5981.4580 950.9017 0.054 -0.988 0.145 28 20 18
-2716.9722 6352.2969 976.1608 0.446 -0.653 0.612 45 37 35
-2489.8242 5969.1782 869.3411 -0.309 -0.921 0.236 64 43 48
-2449.0830 6038.2490 825.3984 0.510 -0.844 -0.165 58 39 47
-2421.7102 5997.1831 811.6083 0.254 -0.925 -0.282 47 37 49
-2410.6699 6026.8325 797.7339 0.256 -0.901 -0.351 32 26 40
-2159.2334 6500.4629 518.0225 0.486 -0.056 -0.872 32 23 18
-1563.0800 5775.8892 187.1422 0.111 -0.732 -0.672 50 44 44
-4008.1387 2801.0974 2601.6851 0.605 -0.587 -0.538 193 185 182
-4009.5029 2811.0610 2600.9246 0.589 -0.618 -0.521 190 184 180
-4722.7236 3578.0085 3012.0886 0.864 -0.432 -0.260 195 192 185
-4312.8579 4814.7822 2470.3967 0.366 -0.924 -0.108 222 221 216
-4410.7725 5012.7505 2509.9707 0.652 -0.019 -0.758 235 232 225
-4426.0039 5064.9497 2512.2297 0.518 -0.034 -0.855 229 226 218
-4402.4565 5053.9736 2496.0432 0.464 -0.878 0.121 189 180 169
-4391.8047 5058.3618 2487.0183 0.464 -0.878 0.121 142 118 102
-4384.9644 5067.3291 2480.1033 0.398 -0.915 0.059 140 112 94
-4368.2510 5064.3911 2467.7312 0.375 -0.927 0.023 132 105 90
-4341.8584 5049.6665 2450.0298 0.479 -0.684 -0.551 129 100 85
-3825.4922 5141.6670 2034.5092 -0.113 -0.785 0.610 57 32 18
-4057.2874 5962.5293 2064.0698 0.400 -0.457 -0.795 68 45 33
-3895.6248 5823.1724 1964.5948 0.553 -0.627 0.548 98 67 47
-3876.7444 5880.8013 1939.5223 0.546 -0.158 -0.823 60 27 1
-3877.3765 5903.7979 1935.8236 0.158 -0.899 0.408 87 53 26
-3852.7725 5909.0601 1915.8650 -0.409 -0.912 0.026 111 76 46
-3833.0601 5899.8359 1902.3210 -0.409 -0.912 0.026 98 63 31
-3840.1458 6186.0000 1855.6940 0.948 0.102 -0.302 149 110 81
-3762.2361 6126.2598 1806.4034 0.943 0.052 -0.329 126 87 58
-3715.8262 6094.8335 1776.2842 -0.405 -0.697 0.592 113 74 45
-3589.4651 5949.0537 1705.2408 0.022 -0.833 0.552 101 66 39
-3593.4465 5979.0576 1702.8530 0.604 -0.653 0.457 99 65 38
-2721.8074 6112.7334 1005.3802 0.613 -0.760 0.215 14 13 11
-2704.7615 6100.7979 994.3892 0.161 -0.985 0.058 8 7 5
-2363.5947 5854.1768 775.8184 0.464 -0.839 -0.284 33 25 38
-2419.5361 6026.7388 787.6031 0.258 -0.903 -0.343 26 18 33
-2353.0908 5883.8447 762.3051 -0.177 -0.937 -0.301 21 15 29
-2033.7152 6252.0586 448.6257 0.261 -0.826 -0.500 22 15 9
-4010.3716 2824.6023 2586.9741 -0.046 -0.776 -0.629 200 197 190
-4725.1084 3573.4128 2999.9902 0.859 -0.430 -0.277 200 197 190
-4096.6021 3089.5403 2604.6335 0.941 -0.293 -0.170 201 198 191
-4324.8198 4834.3506 2459.0828 0.496 -0.851 0.173 222 222 214
-4439.2915 5069.4834 2504.0046 0.518 -0.034 -0.855 229 225 217
-4409.4316 5051.0259 2484.3870 0.552 -0.782 -0.290 198 189 178
-4401.8535 5059.0898 2477.0591 0.552 -0.782 -0.290 146 122 107
-4399.3813 5073.3018 2472.5347 0.506 -0.805 -0.311 137 109 92
-4392.5977 5082.3716 2465.6340 0.505 -0.818 -0.276 129 102 87
-3223.5537 4273.2559 1713.5079 0.160 -0.775 -0.611 64 37 23
-3903.5664 5820.1885 1952.7012 0.633 -0.621 0.463 82 50 31
-3894.6694 5828.0015 1944.4031 0.642 -0.612 0.462 80 48 28
-3899.7026 5857.5059 1942.8470 0.585 -0.143 -0.798 83 53 33
-3895.5378 5894.7090 1932.7816 0.715 -0.554 0.426 87 54 31
-3859.4746 5903.9409 1903.2798 -0.202 -0.938 0.282 137 102 74
-3844.6846 5902.5679 1892.1311 -0.407 -0.913 0.026 102 67 38
-3879.1487 6139.7114 1875.0055 0.781 -0.513 0.356 144 106 74
-3836.2231 6092.5078 1850.6118 0.809 -0.512 0.287 142 105 72
-3607.8564 5963.8242 1698.2760 -0.012 -0.828 0.561 102 67 41
-3632.2556 6028.9004 1705.0948 0.505 -0.690 0.518 100 66 39
-3583.4495 5968.1729 1678.6594 0.572 -0.665 0.480 100 66 39
-3567.7803 6178.5674 1627.8151 -0.126 -0.910 0.395 90 57 34
-3179.2021 5895.1978 1380.4746 0.873 -0.417 -0.254 39 22 6
-2736.6377 6125.6733 996.8400 0.710 -0.683 0.174 18 14 10
-2723.8667 6123.8003 987.3401 0.697 -0.694 0.179 12 7 4
-2760.9946 6295.5640 984.3143 0.337 -0.919 0.203 28 22 19
-2450.2109 5938.9131 810.4468 0.800 -0.474 -0.368 48 29 30
-2399.3765 5923.5063 774.0975 -0.218 -0.956 -0.198 29 20 32
-4728.9346 3547.5461 2992.9988 0.825 -0.480 -0.299 204 203 198
-4726.9404 3568.3892 2987.5784 0.839 -0.460 -0.290 202 201 196
-4095.9280 3083.3218 2592.4360 0.945 -0.286 -0.159 195 194 189
-4323.8257 4822.5586 2443.5488 0.477 -0.858 0.190 228 225 220
-4406.6274 4935.5371 2486.2031 0.693 -0.718 -0.071 240 237 232
-4447.6768 5068.1758 2493.0625 0.516 -0.032 -0.856 229 225 219
-4425.9604 5059.4668 2477.9751 0.423 -0.755 -0.501 219 209 200
-4418.8657 5068.1323 2470.8999 0.423 -0.755 -0.501 152 130 115
-4412.8901 5078.1582 2464.4324 0.367 -0.786 -0.498 132 106 87
-4408.0107 5089.5293 2458.5576 0.402 -0.837 -0.371 120 98 79
-3234.4646 4277.8477 1706.8177 0.125 -0.798 -0.590 73 43 24
-3817.5081 5589.2129 1910.9938 0.560 -0.672 -0.484 96 62 42
-3867.5356 5900.9927 1891.3634 -0.179 -0.942 0.284 100 68 44
-3859.5073 5910.3569 1883.4398 0.299 -0.839 0.455 87 55 31
-3844.1731 5908.1123 1872.0581 0.552 -0.725 0.413 68 35 11
-3589.3386 5870.0176 1683.0601 0.856 -0.400 -0.328 133 97 71
-3734.0493 6382.0410 1698.9575 -0.487 -0.855 0.178 101 66 40
-3620.4055 6254.7124 1635.2451 -0.053 -0.912 0.407 85 49 24
-2727.5413 6110.8760 974.9843 0.694 -0.699 0.172 56 48 41
-2716.6018 6141.0142 960.9473 0.411 -0.898 0.158 55 47 41
-2756.3433 6262.3931 968.8997 0.041 -0.990 0.138 56 47 41
-2253.1831 5833.3271 661.7015 0.212 -0.849 -0.484 39 9 1
-4032.6895 2831.3298 2578.5833 -0.007 -0.843 -0.537 200 197 188
-4739.5005 3560.7117 2983.9436 0.852 -0.446 -0.273 208 207 202
-4325.0151 4813.3506 2429.2805 0.382 -0.864 0.328 233 230 225
-4411.1528 4929.9634 2473.4517 0.645 -0.753 0.130 229 226 221
-4402.2808 4936.1895 2465.4622 0.645 -0.753 0.130 212 209 204
-4393.4072 4942.4170 2457.4712 0.645 -0.753 0.130 169 166 161
-4428.0317 4999.8423 2473.2363 0.430 -0.118 -0.895 228 225 220
-4455.7456 5066.4966 2481.9521 0.504 -0.035 -0.863 229 225 219
-4414.3550 5034.4331 2456.2061 0.665 0.038 -0.746 218 208 200
-4426.7378 5066.2368 2459.7190 -0.259 -0.854 -0.452 152 131 116
-4419.7310 5075.0156 2452.6809 -0.029 -0.862 -0.507 132 106 86
-4412.7783 5083.8779 2445.6687 -0.021 -0.857 -0.514 119 97 79
-2774.1699 3489.1938 1487.7621 -0.169 -0.918 -0.359 102 73 59
-3249.9805 4304.2021 1699.5281 -0.117 -0.862 -0.493 114 83 62
-3242.9407 4309.8687 1693.0515 -0.142 -0.891 -0.432 117 85 63
-3228.2693 4304.8647 1682.7257 -0.105 -0.877 -0.469 116 84 61
-3829.0784 5612.8931 1897.5146 0.292 -0.543 -0.787 106 71 51
-3874.6211 5766.6045 1903.5049 0.400 -0.401 -0.824 94 57 38
-3933.0637 5878.4771 1927.2961 0.694 -0.716 0.073 130 93 74
-3833.1235 5896.8628 1847.0591 0.601 -0.567 0.563 73 41 18
-3816.2986 5892.1021 1835.0328 0.603 -0.563 0.564 131 99 76
-3613.0674 5871.1826 1682.8663 0.810 -0.434 -0.395 133 97 71
-3621.4988 5908.0356 1682.3917 0.889 -0.380 -0.255 133 97 71
-3645.4458 5971.4341 1688.8284 0.537 -0.689 0.488 133 97 71
-3700.6821 6135.7236 1700.2694 0.700 -0.164 -0.695 119 82 55
-3767.6946 6423.0679 1697.5458 -0.458 -0.873 0.168 107 71 45
-3590.2209 6281.3804 1587.9446 -0.749 -0.601 -0.279 103 67 41
-3385.6912 6153.0928 1455.0326 -0.773 -0.610 0.178 68 49 34
-3169.3865 6188.8398 1282.1351 -0.699 -0.660 0.275 26 15 9
-2495.9592 5980.6548 804.1096 0.376 -0.850 0.368 50 37 29
-2276.5691 5872.9932 655.8919 0.305 -0.887 -0.347 61 13 8
-2252.3376 5924.6841 627.5286 0.617 -0.782 0.082 70 4 6
-4041.1228 2832.6218 2572.6487 0.242 -0.925 -0.294 200 197 188
-4043.7256 2852.6377 2570.8254 0.934 -0.335 -0.129 198 195 186
-4441.1758 4937.4805 2477.7876 0.331 -0.843 0.424 235 232 227
-4396.6226 4935.2969 2444.0415 0.490 -0.689 0.534 160 157 152
-4385.4839 4938.8447 2434.8237 0.521 -0.708 0.477 230 227 222
-4427.0474 5072.4517 2441.2012 -0.365 -0.781 -0.506 132 106 86
-4416.0811 5076.4946 2432.0210 -0.370 -0.784 -0.498 119 97 79
-3874.0000 5750.6060 1887.7388 0.726 -0.640 -0.249 105 68 49
-3710.2383 6087.7930 1697.8324 0.749 -0.141 -0.647 127 90 63
-3702.5125 6121.6802 1685.4426 0.675 -0.206 -0.709 126 89 62
-3432.0850 6171.8013 1468.5199 -0.359 -0.701 0.616 70 49 32
-3414.4055 6188.5391 1451.7699 -0.773 -0.610 0.178 68 49 34
-3314.4478 6049.9077 1401.5752 -0.776 -0.609 0.163 70 51 36
-3353.4341 6432.0215 1358.5607 0.027 -0.857 0.514 31 20 15
-3333.0640 6418.2300 1345.5728 -0.698 -0.656 0.286 31 20 14
-3255.0542 6289.1621 1310.3826 -0.712 -0.661 0.237 31 20 14
-3229.2966 6342.9077 1280.3772 0.467 0.106 -0.878 34 23 17
-2637.6580 5366.4907 1013.0224 -0.408 -0.754 -0.516 24 19 15
-2573.2678 5980.2412 846.5432 0.383 -0.912 0.150 96 79 72
-4063.5337 2835.4150 2577.1099 0.211 -0.913 -0.350 194 191 184
-4050.0671 2834.2925 2567.0190 0.213 -0.936 -0.280 197 194 185
-4114.9375 3091.4209 2567.0508 0.529 -0.300 -0.794 207 206 201
-4421.0098 4919.8154 2448.4749 0.490 -0.686 0.537 219 216 211
-4394.8853 4922.4189 2427.9766 0.490 -0.686 0.537 161 158 153
-4385.7222 4928.2466 2419.8381 0.500 -0.700 0.510 219 216 211
-4261.5869 5485.7373 2217.2366 0.704 -0.164 -0.691 92 63 49
-3949.1509 5723.6338 1932.1825 -0.390 -0.767 -0.510 111 80 61
-3858.0381 5753.4546 1856.6884 0.604 -0.339 0.721 157 121 102
-3726.6345 6122.1260 1684.9623 0.240 -0.393 -0.887 129 92 65
-3759.7432 6250.2510 1685.5784 0.568 -0.420 -0.708 118 81 54
-3753.0261 6410.7383 1649.4658 0.361 -0.529 0.768 118 82 56
-3548.0164 6169.1060 1539.1783 -0.676 -0.579 -0.455 102 66 40
-3248.0432 6360.8447 1272.5712 0.467 0.106 -0.878 52 41 35
-3239.7976 6370.8110 1264.3367 0.466 0.101 -0.879 51 41 35
-3239.7236 6451.6123 1248.6865 0.681 -0.687 0.253 29 22 16
-4062.1885 2829.3611 2565.0889 0.851 -0.523 -0.053 190 187 180
-4057.2844 2834.6597 2560.3079 0.213 -0.936 -0.280 196 193 184
-4046.1597 2835.2805 2551.6868 0.647 -0.293 -0.703 203 200 191
-4126.3828 3065.6257 2568.0276 0.517 -0.331 -0.789 201 200 195
-4127.7090 3076.4209 2566.9341 0.557 -0.318 -0.767 189 188 183
-4398.5322 4915.8691 2414.8728 0.444 -0.720 0.533 169 166 161
-4384.9248 4916.4800 2404.3569 0.444 -0.720 0.533 198 195 190
-4446.0557 5038.5054 2427.2498 0.662 0.041 -0.748 226 216 208
-4476.9688 5092.1143 2440.4067 -0.300 -0.766 -0.568 167 146 131
-4454.0386 5099.1997 2421.5039 -0.312 -0.779 -0.543 122 100 81
-4424.1626 5080.6953 2402.2886 0.422 -0.348 -0.837 128 102 87
-2542.8293 3101.5232 1351.1014 0.322 -0.569 -0.757 121 90 72
-4043.1055 5521.7109 2025.0721 0.923 -0.049 -0.380 123 89 64
-4066.2334 5574.3931 2032.4617 0.692 -0.119 -0.712 120 88 65
-4066.5552 5594.8330 2028.7184 0.692 -0.119 -0.712 121 89 66
-3965.6072 5733.6499 1924.4973 -0.408 -0.772 -0.488 131 100 81
-3964.4771 5752.9146 1919.8741 -0.125 -0.655 -0.745 125 90 71
-3698.9041 5988.8813 1670.9110 0.861 -0.227 -0.455 119 83 57
-3764.0574 6264.2891 1666.9435 0.410 -0.571 0.712 115 78 51
-3503.7781 6218.0859 1477.0930 0.980 -0.095 0.175 125 89 65
-3394.9700 6140.2012 1409.1575 -0.770 -0.578 0.270 56 37 22
-3081.9019 5761.8086 1243.8032 0.176 -0.271 -0.946 27 19 16
-3216.1614 6096.7690 1281.0143 0.449 -0.266 -0.853 43 36 31
-3187.3384 6065.2222 1265.1486 0.309 -0.306 -0.900 43 32 27
-3240.3894 6299.0591 1260.0471 0.467 0.102 -0.878 61 50 44
-3251.0496 6373.5181 1253.6608 0.470 0.099 -0.877 60 50 44
-3263.3406 6425.2822 1252.9495 0.470 0.099 -0.877 39 31 26
-3207.0217 6390.9502 1216.6189 0.147 -0.942 0.301 19 12 6
-2520.5723 5975.5454 773.2043 0.649 -0.738 0.185 107 94 86
-2417.1985 5942.3833 700.6930 0.853 -0.508 0.120 47 15 2
-2221.1292 5886.8784 561.7179 0.152 -0.663 0.733 77 5 9
-2259.1650 6021.4053 564.5251 0.228 -0.503 0.833 72 8 9
-2245.1096 6012.7754 555.4703 0.228 -0.503 0.833 69 10 9
-1821.0913 5802.0908 272.6143 -0.180 -0.451 -0.874 36 35 31
-1677.8026 5746.6885 173.9464 0.420 -0.695 0.584 49 45 44
-1668.1010 5746.3765 166.5945 0.420 -0.695 0.584 58 54 53
-1657.3567 5742.2573 159.1893 0.403 -0.697 0.593 63 59 58
-4058.5391 2821.6035 2551.6921 0.806 -0.577 -0.133 190 187 180
-4058.7227 2830.6921 2550.0386 0.802 -0.584 -0.130 196 193 184
-4053.9302 2836.0693 2545.3225 0.635 -0.308 -0.708 203 200 191
-4053.0337 2844.3918 2542.9963 0.682 -0.596 -0.425 207 204 195
-4416.4497 4893.0801 2415.8982 0.472 -0.765 0.438 229 226 221
-4398.3848 4921.3999 2396.5320 0.524 0.103 -0.845 187 184 179
-4452.0308 5034.4360 2415.1414 0.663 0.040 -0.747 228 218 210
-4489.4873 5095.6680 2431.6262 0.036 -0.903 -0.428 166 145 130
-4491.3369 5115.0278 2429.2166 0.643 -0.082 -0.762 130 104 86
-2558.4570 3125.4888 1347.6254 0.371 -0.469 -0.802 112 81 63
-2867.3611 3566.0786 1496.2814 -0.334 -0.780 0.529 89 60 46
-3856.2212 5042.8350 1959.0651 0.130 -0.570 -0.811 140 109 89
-3528.8010 4613.0107 1794.1625 0.442 -0.634 -0.634 137 106 86
-4100.6826 5856.8784 1984.8766 -0.706 -0.693 0.145 92 63 45
-4057.7930 5814.4570 1960.5363 -0.711 -0.699 -0.076 94 65 47
-3976.0725 5755.5889 1909.8253 -0.133 -0.667 -0.733 150 115 95
-3531.6665 5649.5190 1591.8113 0.154 -0.815 0.559 102 66 40
-3758.8064 6237.7529 1648.9716 0.505 -0.528 0.683 115 78 51
-3395.5703 6123.0786 1394.5631 -0.738 -0.601 0.306 75 56 41
-3223.2634 6117.0508 1264.3356 0.431 -0.274 -0.860 44 33 28
-3257.4290 6339.8521 1246.4275 0.470 0.099 -0.877 51 40 34
-3269.7139 6391.1738 1245.6697 0.470 0.099 -0.877 50 40 34
-3230.4478 6418.7012 1210.2897 0.253 -0.967 0.040 30 23 17
-2636.0879 5956.1543 848.2517 -0.021 -1.000 0.003 68 51 44
-2621.9626 5950.1040 838.6725 0.020 -0.999 0.044 69 52 45
-2592.0400 5960.9785 813.7048 0.078 -0.995 -0.056 95 78 71
-2584.0986 5969.4287 805.9804 0.001 -0.998 -0.063 94 78 71
-2562.6548 5945.4634 794.3546 0.634 -0.773 0.010 92 78 70
-2554.4761 5953.2451 786.5811 0.637 -0.743 0.204 91 78 70
-2418.2151 5894.5908 694.2304 0.923 -0.377 0.071 65 27 10
-2004.2888 6271.5806 304.1399 -0.308 -0.851 -0.425 20 16 13
-1968.9552 6191.6812 292.9580 -0.265 -0.786 -0.559 21 17 14
-1856.2667 5857.9365 272.8699 -0.134 -0.357 -0.924 25 21 18
