ply
format ascii 1.0
element vertex 801
property float x
property float y
property float z
property float nx
property float ny
property float nz
property uchar diffuse_red
property uchar diffuse_green
property uchar diffuse_blue
end_header
-2642.0557 3316.3206 293.1490 0.442 -0.872 0.209 207 164 154
-2628.0630 3321.1824 285.6713 0.654 -0.713 0.253 125 81 70
-2367.4597 3650.0417 83.9653 0.683 -0.730 0.023 94 90 103
-2364.1450 3657.3237 80.5877 0.689 -0.723 0.049 161 154 164
-2359.0515 3661.9399 77.1200 0.689 -0.723 0.049 213 198 207
-2353.9604 3666.5542 73.6539 0.689 -0.723 0.049 221 198 201
-2364.6013 3695.0391 70.9081 0.579 0.045 -0.814 222 197 200
-1825.2531 5216.4248 -566.8406 0.764 0.247 0.596 233 198 204
-1832.4446 5258.9893 -574.8047 0.803 0.247 0.543 233 198 204
-1835.1073 5288.6514 -581.3961 0.804 0.239 0.544 234 199 205
-3839.2297 2652.4670 988.0384 0.825 -0.528 0.203 160 127 108
-3843.4451 2664.4277 986.7486 0.322 -0.905 0.278 163 130 111
-3818.5266 2704.4485 965.1987 0.693 -0.616 -0.374 87 50 31
-3815.6445 2711.9683 961.9444 0.585 -0.807 -0.085 76 39 20
-3779.8062 2697.8450 949.8380 0.170 -0.976 -0.136 72 35 16
-3728.4658 2719.8740 921.3594 0.314 -0.949 0.016 100 71 57
-3404.3948 2844.4939 745.3999 0.759 -0.146 0.634 108 43 31
-3411.4299 2859.5234 744.5469 0.569 -0.742 0.355 97 38 24
-3419.7681 2875.6426 743.9822 0.492 -0.759 0.426 89 35 22
-3425.3276 2899.3462 740.1920 0.284 -0.849 0.445 58 17 1
-3408.0310 2895.3721 733.6002 0.282 -0.841 0.462 55 19 1
-3368.8660 2912.5669 711.7726 0.476 -0.111 0.873 82 40 26
-3217.5632 2827.8035 667.2847 0.792 -0.330 -0.514 68 26 14
-3234.4426 2851.0601 668.6115 0.808 -0.405 -0.427 57 18 7
-3216.0312 2854.7866 659.4984 0.761 -0.470 -0.448 56 18 7
-3222.0520 2869.2590 658.3441 0.924 -0.375 -0.070 56 18 7
-3219.4868 2876.6382 655.2670 0.971 -0.132 -0.199 64 26 15
-3207.3760 2876.0415 650.0754 0.959 -0.155 -0.238 69 31 20
-3318.9199 3029.1187 659.0045 0.918 0.341 0.204 120 75 72
-3299.2998 3022.3311 652.1279 0.079 -0.949 0.306 137 92 89
-3370.8533 3135.3923 653.9390 0.873 -0.459 0.166 135 91 88
-3401.4929 3183.2625 654.8578 0.837 -0.314 0.449 135 91 88
-3353.9275 3151.7820 642.1454 0.918 -0.280 0.281 132 88 85
-3319.5627 3131.7437 632.2483 0.404 -0.887 0.224 127 83 80
-3315.4915 3138.5020 628.6694 0.402 -0.891 0.212 121 77 74
-3295.6863 3131.1990 621.8469 0.853 -0.320 -0.413 115 73 69
-3291.9194 3138.1919 618.3407 0.872 -0.293 -0.392 107 67 60
-3290.2964 3147.1243 615.2704 0.872 -0.293 -0.392 109 70 63
-3276.3323 3144.9231 609.6832 0.767 -0.611 0.195 112 73 66
-3257.3389 3138.1001 603.0927 0.649 -0.280 0.707 114 75 68
-3205.6428 3101.4060 589.9298 0.684 -0.254 0.684 114 75 68
-3163.9199 3155.5129 557.2466 0.668 -0.528 0.524 88 43 42
-3129.5505 3133.4573 547.8791 0.988 0.051 -0.145 120 75 74
-3131.6116 3145.7261 545.5566 0.922 0.220 -0.317 164 118 117
-3192.0708 3245.4922 545.9712 0.429 -0.693 -0.579 91 45 40
-3182.4758 3257.6411 538.5325 0.648 -0.668 -0.367 91 45 40
-3177.9832 3264.0144 534.8691 0.648 -0.668 -0.367 101 54 49
-3184.9219 3281.5439 533.3148 0.992 -0.122 -0.045 109 62 54
-2920.2979 3468.6912 367.1346 -0.099 -0.643 -0.759 152 114 105
-2907.1221 3476.4954 359.2593 -0.086 -0.636 -0.767 152 113 106
-2664.4458 3283.6741 302.8885 0.472 -0.873 0.122 127 94 89
-2653.6643 3314.0247 290.1299 0.002 -0.997 -0.074 147 111 106
-2644.8618 3314.3381 286.1598 0.002 -0.997 -0.074 187 143 133
-2626.8201 3347.0273 269.5787 0.285 -0.950 -0.131 83 39 28
-2225.2505 3222.5737 125.0196 0.002 -0.986 -0.169 23 21 32
-2369.2073 3646.5793 76.8779 0.634 -0.749 0.194 93 90 103
-2363.7151 3650.5913 73.3953 0.340 -0.819 0.462 160 154 165
-2356.2766 3651.6665 69.8269 0.340 -0.819 0.462 212 198 206
-2374.8362 3704.3765 64.1352 0.579 0.045 -0.814 222 197 200
-1786.9493 5073.9077 -556.3530 0.766 0.251 0.592 233 198 204
-1881.7596 964.9426 564.1821 0.543 -0.583 -0.603 17 18 12
-2682.5757 1405.9772 799.6317 0.380 -0.393 -0.837 75 70 67
-3247.2139 2085.2761 868.0496 0.078 -0.375 -0.924 88 81 73
-3824.2090 2638.4905 975.3105 0.897 -0.241 -0.371 170 137 118
-3832.0315 2652.6887 974.9900 0.818 -0.533 0.214 174 141 122
-3846.9534 2671.4819 976.5751 0.549 -0.836 -0.007 168 135 116
-3852.1172 2684.1245 975.4971 0.596 -0.797 -0.100 145 112 93
-3815.2017 2707.1365 953.1597 0.694 -0.554 -0.459 76 39 20
-3770.3188 2696.4336 936.2502 0.643 -0.764 -0.059 72 35 16
-3399.6257 2836.1704 736.1463 0.775 -0.139 0.616 113 48 36
-3423.2229 2864.0557 739.1391 0.884 -0.459 -0.084 103 42 29
-3421.9688 2872.6870 736.3005 0.754 -0.593 -0.283 94 40 26
-3415.7739 2887.1116 729.7532 0.375 -0.710 0.596 58 18 1
-3405.2620 2888.4812 724.7658 0.375 -0.710 0.596 55 19 1
-3394.0906 2918.3953 711.9252 0.484 -0.120 0.867 87 39 27
-3235.9727 2847.7178 661.0906 0.411 -0.664 -0.625 58 18 8
-3222.3660 2855.4214 653.0635 0.710 -0.527 -0.467 56 18 7
-3227.9375 2869.5168 651.7799 0.959 -0.254 -0.128 56 18 7
-3211.9519 2865.7322 645.7501 0.969 -0.156 -0.190 64 26 15
-3255.4971 2989.7803 632.0396 0.031 -0.942 0.333 137 92 89
-3348.9636 3121.5427 638.2473 0.793 -0.590 0.154 135 91 88
-3332.1577 3127.4707 629.2832 0.806 -0.468 -0.363 142 98 95
-3326.0591 3132.4438 625.2825 0.808 -0.465 -0.362 138 94 91
-3323.6130 3140.6584 622.0299 0.806 -0.457 -0.376 131 87 84
-3308.5317 3137.6130 616.2021 0.897 -0.191 -0.398 125 83 79
-3307.7534 3147.3145 613.2892 0.897 -0.191 -0.398 113 73 66
-3306.9727 3157.0417 610.3685 0.897 -0.191 -0.398 111 72 65
-3280.1768 3143.3220 602.2152 0.656 -0.263 0.707 110 71 64
-3261.9001 3137.1748 595.8036 0.643 -0.274 0.715 108 69 62
-3133.4512 3142.4141 537.9066 0.922 0.220 -0.317 138 99 95
-3199.2683 3247.1765 539.1041 0.700 -0.545 -0.462 64 23 16
-3195.8157 3254.5613 535.6286 0.700 -0.545 -0.462 70 29 22
-3190.6711 3260.3210 531.8392 0.638 -0.666 -0.387 80 39 31
-2436.9609 2742.6104 337.4288 0.065 -0.638 -0.767 113 49 22
-2923.2964 3477.8909 356.5661 -0.060 -0.583 -0.810 147 108 101
-2916.1343 3481.1626 352.5483 -0.119 -0.646 -0.754 148 109 102
-2630.4170 3249.0134 288.3617 0.429 -0.857 0.285 134 101 96
-2630.6953 3259.9631 285.5829 0.484 -0.863 0.146 119 86 81
-2641.9858 3294.7734 281.3267 0.460 -0.888 0.014 135 99 94
-2638.6831 3301.6111 278.0621 0.469 -0.882 0.043 158 115 105
-2634.9199 3307.9072 274.7384 0.429 -0.903 -0.004 153 109 98
-2620.7959 3323.3989 264.4201 0.256 -0.967 -0.012 83 39 28
-2619.4468 3332.6494 261.3756 0.341 -0.920 -0.193 83 39 28
-2375.6438 3625.7561 76.4585 0.505 -0.671 0.543 62 56 70
-2368.6821 3639.7332 69.6925 0.339 -0.825 0.453 93 90 103
-2361.2524 3640.8337 66.1324 0.339 -0.825 0.453 159 155 165
-1813.1638 5117.4233 -566.2208 0.228 -0.759 0.610 233 198 204
-2689.2026 1406.4464 796.4019 0.380 -0.393 -0.837 71 66 63
-3423.9619 2300.1855 880.2722 0.371 0.071 0.926 110 87 73
-3460.4619 2330.4380 888.2072 0.363 0.052 0.930 126 100 87
-3836.3250 2688.1790 957.6062 0.620 -0.781 -0.071 113 78 58
-3819.5200 2705.4172 945.6492 0.705 -0.553 -0.444 75 38 19
-3791.2454 2696.3167 935.6833 0.210 -0.970 -0.120 76 39 20
-3785.8350 2702.1238 931.7651 0.202 -0.971 -0.128 76 39 20
-3394.8000 2827.8237 726.9160 0.868 -0.110 0.485 118 55 40
-3405.9385 2874.6907 719.3105 0.166 -0.912 0.374 74 34 16
-3393.7634 2874.7197 713.9674 0.166 -0.912 0.374 60 25 5
-3387.5076 2879.3926 709.9810 0.165 -0.910 0.380 50 16 0
-3370.4626 2885.0986 700.9913 0.220 -0.823 0.524 74 22 11
-3243.2559 2849.0881 654.8409 0.411 -0.664 -0.625 55 13 4
-3224.4482 2862.0039 643.1579 0.469 -0.587 -0.660 52 14 3
-3212.3926 2870.9709 635.4858 0.967 -0.167 -0.191 86 48 37
-3253.8806 2915.2151 641.8790 0.861 0.420 0.287 104 66 55
-3276.2839 2943.7114 644.1043 0.837 0.452 0.309 105 67 58
-3289.2739 2964.4395 644.2744 0.837 0.452 0.308 105 62 56
-3291.4893 2976.1594 642.1226 0.844 0.463 0.271 116 73 67
-3216.4502 2990.6868 605.3685 0.950 -0.310 -0.033 140 96 93
-3267.6394 3045.3584 613.2346 0.861 -0.490 0.133 140 96 93
-3292.6360 3077.3931 615.6538 0.979 0.083 0.186 140 96 93
-3319.2400 3152.5073 607.2997 0.222 -0.831 -0.510 123 83 77
-3232.7397 3105.7573 581.8491 0.603 -0.537 0.590 87 48 41
-3228.2449 3111.9431 578.2311 0.623 -0.518 0.587 97 58 51
-3212.7029 3108.0725 572.4517 0.651 -0.567 0.504 113 74 67
-3210.6001 3116.4143 569.3077 0.623 -0.309 0.719 137 98 91
-3154.2100 3136.2734 539.3054 0.829 -0.354 0.433 69 38 32
-3135.9792 3139.7546 530.3889 0.925 0.220 -0.311 99 68 62
-3159.5576 3172.4397 532.0132 0.981 0.060 -0.184 80 48 38
-3214.9812 3257.0046 533.7706 0.727 -0.522 -0.447 77 45 34
-3203.7161 3256.9192 528.8568 0.683 -0.559 -0.470 77 45 34
-3184.1177 3248.7471 522.4456 0.823 -0.151 0.548 84 50 38
-3174.5803 3250.2190 517.8739 0.616 -0.225 0.755 91 57 44
-3160.8142 3247.5483 512.5529 0.623 -0.227 0.749 97 61 48
-2936.9768 3487.8005 350.4533 -0.060 -0.583 -0.810 143 104 97
-2625.9099 3238.4910 280.5603 0.406 -0.911 0.077 124 91 86
-2631.6746 3255.8796 278.4537 0.485 -0.864 0.137 123 90 85
-2653.4395 3292.3154 278.2839 0.556 -0.830 -0.028 124 89 85
-2647.0759 3295.5242 274.6405 0.557 -0.826 0.083 126 90 85
-2643.1101 3301.5789 271.2894 0.579 -0.808 0.114 130 87 77
-2551.2515 3352.2720 217.5291 -0.029 -0.986 -0.164 82 33 22
-2368.8440 3633.9253 62.5546 0.497 -0.667 0.554 108 105 119
-2362.0913 3636.0317 59.0342 0.497 -0.667 0.554 175 170 181
-2355.3516 3638.1340 55.5206 0.497 -0.667 0.554 204 192 201
-2377.3074 3695.7551 49.7903 0.466 -0.441 0.767 220 195 198
-1822.5188 5133.4351 -576.3654 0.112 -0.845 0.523 228 193 199
-1790.0522 5124.6724 -588.2582 0.096 -0.987 -0.127 219 183 187
-3801.9155 2698.7759 929.8791 0.213 -0.977 -0.031 89 52 33
-3797.1084 2704.9998 926.1135 0.135 -0.991 0.021 88 51 32
-3824.4272 2732.3801 930.7032 0.662 -0.660 -0.356 88 52 33
-3859.0259 2813.0273 924.2007 -0.190 -0.898 -0.396 98 69 55
-3885.5576 2850.5557 925.7283 0.065 -0.881 -0.469 98 68 55
-3407.4561 2871.2109 711.4995 0.166 -0.912 0.374 80 41 22
-3395.2812 2871.2473 706.1754 0.166 -0.912 0.374 64 29 9
-3370.5537 2880.4929 692.9047 0.234 -0.870 0.433 85 26 18
-3253.6621 2862.4792 646.7062 0.433 -0.660 -0.614 57 17 7
-3228.4993 2879.7556 631.0942 0.970 -0.144 -0.198 90 52 41
-3288.9834 2969.2393 633.5237 0.866 0.450 0.218 141 97 94
-3293.2061 3032.5044 618.4183 0.932 0.265 0.246 147 102 99
-3290.4185 3070.4858 607.0264 0.979 0.083 0.186 140 96 93
-3271.7483 3125.6165 584.1074 0.294 -0.921 0.256 99 60 53
-3230.5771 3098.8059 573.3184 0.603 -0.537 0.590 92 53 46
-3173.8054 3057.6267 559.5688 0.590 -0.482 0.648 86 47 40
-3154.4883 3121.2119 534.1024 0.790 -0.359 0.497 112 87 80
-3164.2490 3161.3623 527.6069 0.973 0.135 -0.190 46 20 12
-3167.8599 3175.1956 525.4771 0.967 0.125 -0.223 65 39 26
-3164.9758 3193.4077 519.3393 0.992 0.122 0.024 52 26 13
-3182.0068 3220.2195 519.5907 0.676 -0.157 0.720 65 40 27
-3164.3132 3213.8496 513.5737 0.701 -0.121 0.702 78 53 40
-2729.3962 3225.8599 320.5113 0.726 0.585 -0.361 144 105 95
-2803.8540 3320.4575 327.6703 0.727 0.588 -0.356 143 105 96
-2652.9453 3297.1885 268.0311 0.616 -0.788 -0.002 124 88 83
-2653.4883 3308.6284 265.2033 0.561 -0.791 0.244 127 83 73
-2556.5701 3353.5374 210.8669 -0.029 -0.986 -0.164 82 33 23
-2371.2505 3631.4624 55.5179 0.437 -0.559 0.705 115 112 126
-2363.9280 3632.7258 51.9832 0.437 -0.559 0.705 183 178 189
-2356.6240 3633.9866 48.4572 0.437 -0.559 0.705 205 192 201
-2377.0127 3689.1489 42.5792 0.587 -0.270 0.763 219 194 197
-3824.2068 2699.4006 929.5795 0.723 -0.668 -0.176 112 75 56
-3805.2744 2696.4478 922.1432 0.222 -0.975 -0.023 108 71 52
-3832.2207 2732.9292 924.0324 0.546 -0.824 0.147 109 73 54
-3374.1187 2802.6838 706.0614 0.523 -0.441 -0.729 119 56 41
-3412.3323 2870.3640 704.4457 0.230 -0.891 0.391 87 46 26
-3379.2415 2873.1152 689.3169 0.423 -0.661 0.620 91 33 22
-3372.6565 2877.4934 685.2744 0.374 -0.723 0.582 98 35 26
-3265.3000 2867.3896 641.3177 0.434 -0.662 -0.611 64 24 14
-3230.4634 2876.7480 623.6501 0.970 -0.144 -0.198 92 54 43
-3288.2559 3043.4304 603.8794 0.840 0.424 0.340 140 96 93
-3299.1067 3073.1350 600.5958 0.975 0.078 0.206 140 96 93
-3228.4211 3091.8755 564.8138 0.603 -0.537 0.590 100 61 54
-3155.7351 3127.6289 523.5794 0.992 0.110 -0.067 62 41 32
-3168.8628 3160.6230 520.3998 0.969 0.112 -0.221 63 43 33
-3169.5369 3171.6753 517.7158 0.997 0.073 -0.026 85 65 52
-3169.3367 3181.9370 514.8645 0.940 -0.080 0.332 72 51 38
-2658.2532 3308.9688 258.4288 0.571 -0.816 0.084 126 83 73
-2649.0808 3308.8560 254.4710 0.222 -0.975 0.032 131 87 76
-2371.9292 3136.7112 180.3364 0.193 -0.974 0.117 28 5 3
-2303.9727 3343.4641 95.0967 -0.125 -0.950 -0.287 32 31 39
-2296.7993 3366.6111 85.7427 -0.206 -0.957 -0.206 55 55 72
-2354.2451 3564.3455 57.4568 0.678 -0.733 -0.056 52 50 63
-2369.4998 3622.8376 48.3336 0.466 -0.466 0.752 122 119 132
-2356.7310 3628.1052 41.3629 0.462 -0.473 0.750 208 195 204
-3801.0310 2698.5173 909.9202 0.622 -0.757 0.203 123 86 67
-4041.8247 2957.0327 944.1890 0.272 -0.519 -0.811 108 76 60
-3363.9644 2790.3118 695.7715 0.523 -0.445 -0.727 119 56 40
-3449.7156 2875.5723 709.8174 0.736 -0.579 -0.350 114 59 40
-3378.9128 2868.1943 681.1520 0.391 -0.636 0.665 105 43 30
-3239.1797 2813.2710 635.5108 0.788 -0.296 -0.539 94 30 24
-3268.1694 2865.1072 634.0267 0.724 -0.532 -0.439 68 28 18
-3228.8494 2870.7737 615.4630 0.906 -0.423 0.004 94 56 45
-3232.8438 2883.6226 613.7130 0.894 -0.448 -0.008 130 92 81
-3276.2971 3028.1548 593.3874 0.840 0.424 0.340 140 96 93
-3311.8462 3099.7612 589.3895 0.978 0.158 0.139 117 73 70
-3228.8245 3087.2622 556.8192 0.595 -0.540 0.596 106 67 60
-3166.6477 3041.3489 542.3262 0.588 -0.466 0.661 106 67 60
-3159.4019 3044.8152 538.2495 0.583 -0.477 0.658 99 60 53
-3152.0393 3048.1594 534.1551 0.583 -0.477 0.658 89 50 43
-3193.0164 3095.5935 539.0547 0.575 -0.573 0.584 80 43 36
-3187.0347 3100.3296 535.1815 0.566 -0.341 0.750 65 43 36
-3179.5254 3103.6543 531.0288 0.566 -0.341 0.750 63 44 37
-3157.8799 3104.1165 521.5293 0.891 -0.084 0.446 63 44 38
-3149.1306 3106.2144 517.1719 0.892 -0.084 0.443 64 46 40
-3150.9858 3128.4460 511.9543 0.956 -0.081 0.282 79 63 59
-3097.5535 3108.8992 494.1074 0.948 -0.162 0.275 62 46 36
-2664.9880 3311.6377 251.8604 0.076 -0.979 -0.188 124 81 72
-2654.4219 3309.8921 247.7570 0.086 -0.978 -0.188 134 90 80
-2609.6992 3267.2524 239.9367 -0.084 -0.959 0.272 128 84 74
-2526.9412 3220.3196 216.8065 -0.192 -0.974 -0.121 80 34 24
-2579.6580 3360.5952 201.6456 0.042 -0.983 -0.178 90 38 24
-2317.6785 3368.2346 86.1169 -0.106 -0.976 -0.192 39 37 48
-2314.4341 3374.8159 82.9294 0.043 -0.993 -0.107 46 45 57
-2340.1433 3445.0100 75.0526 -0.071 -0.981 0.179 54 55 74
-2382.3882 3611.6724 48.2099 0.609 -0.466 0.642 60 54 68
-2376.7942 3615.5125 44.7472 0.440 -0.550 0.710 74 69 83
-2367.8484 3614.3823 41.1789 0.443 -0.553 0.706 126 123 136
-2374.0566 3672.4280 28.1467 0.566 -0.275 0.777 219 194 197
-1616.5079 4867.9463 -623.7275 -0.061 -0.863 0.502 225 187 194
-1483.1775 4535.1040 -591.3251 0.019 -0.981 -0.195 226 188 195
-1522.1416 4676.5752 -612.7658 0.759 -0.232 -0.608 226 188 195
-2985.4746 1986.3573 742.2163 0.397 -0.660 0.638 118 107 101
-2999.9133 2001.7217 744.2610 0.375 -0.389 0.841 132 122 115
-3844.7129 2887.2163 867.5602 -0.117 -0.969 -0.216 103 68 49
-3381.2227 2808.4343 689.0751 0.520 -0.441 -0.732 128 65 41
-3376.6267 2852.1912 675.1772 0.148 -0.723 0.675 104 42 17
-3372.5098 2858.4890 671.6863 0.413 -0.718 0.561 106 39 13
-3272.9116 2864.3513 627.1259 0.724 -0.532 -0.439 62 25 16
-3268.6038 2870.3496 623.6341 0.728 -0.533 -0.431 63 26 17
-3214.8093 2835.6797 609.8694 0.959 -0.155 -0.239 62 25 16
-3222.1382 2851.1331 608.8229 0.961 0.046 -0.273 64 27 18
-3229.2786 2866.5039 607.7175 0.906 -0.424 -0.012 94 57 48
-3228.3188 2875.2161 604.9311 0.901 -0.434 -0.002 138 100 91
-3221.6670 2879.2039 600.9758 0.514 -0.538 0.668 169 130 124
-3225.2595 2891.7563 599.1072 0.462 -0.585 0.667 154 116 115
-3217.4458 2894.7764 594.9143 0.337 -0.684 0.647 152 114 116
-3202.6914 2891.9238 589.3264 0.461 -0.554 0.694 150 112 114
-3306.5366 3079.8853 582.9394 0.874 0.327 0.358 98 54 51
-3308.9219 3092.1917 580.6172 0.898 0.295 0.325 108 64 61
-3287.5940 3083.6458 573.7440 0.878 0.297 0.375 122 78 75
-3286.1235 3102.8030 567.8931 0.799 0.231 0.555 135 96 91
-3151.4402 3022.7637 531.5894 0.886 -0.453 0.100 138 99 94
-3154.4897 3035.4841 529.4410 0.170 -0.971 -0.169 123 84 79
-3145.9355 3037.7261 525.1403 0.170 -0.971 -0.169 102 63 58
-3137.4023 3039.9629 520.8503 0.170 -0.971 -0.169 86 48 43
-3193.8167 3101.5457 528.4166 0.483 -0.417 0.770 70 39 35
-3184.0178 3102.7883 523.8513 0.495 -0.405 0.769 49 23 20
-2667.4685 3320.0811 241.8545 0.067 -0.982 -0.179 127 87 81
-2615.1174 3268.4663 233.3267 -0.075 -0.957 0.281 127 87 81
-2588.3237 3257.6699 224.7084 0.042 -0.929 0.368 103 63 58
-2577.0798 3330.0706 200.1429 0.633 -0.387 0.671 88 37 23
-2593.6653 3361.5847 198.7159 0.546 -0.803 -0.239 93 44 30
-2277.0220 3284.1646 83.2060 0.232 -0.879 -0.416 27 28 33
-2326.9194 3375.6511 79.8181 -0.001 -1.000 -0.017 29 29 37
-2384.4626 3608.7307 41.1717 0.442 -0.713 0.544 60 53 64
-2377.4138 3610.4307 37.6680 0.442 -0.713 0.544 79 72 85
-2370.3804 3612.1270 34.1720 0.442 -0.713 0.544 140 137 146
-1651.3481 4860.8774 -616.0436 0.640 -0.465 0.611 220 187 189
-1645.6881 4864.2476 -619.4030 0.640 -0.465 0.611 226 191 193
-1560.7694 4706.8267 -613.1679 0.460 -0.875 -0.151 226 196 200
-1546.8201 4683.7002 -612.8878 0.330 -0.941 -0.072 218 188 193
-1521.1460 4623.9644 -607.6965 0.292 -0.951 -0.105 215 182 188
-1508.0480 4622.3794 -612.9152 0.082 -0.960 0.268 217 187 191
-1496.3119 4605.2021 -613.3002 0.049 -0.930 0.364 218 187 192
-3020.3628 1969.5759 754.4246 0.317 -0.899 -0.302 85 76 69
-3010.7454 1970.7764 749.9637 0.328 -0.897 -0.296 85 74 68
-3004.7451 1974.0571 746.4874 0.330 -0.897 -0.296 85 74 68
-3004.0483 1980.4304 744.4432 0.453 -0.849 -0.273 85 74 68
-3007.3354 1989.1583 743.4661 0.510 -0.814 -0.278 80 69 63
-2992.7991 1987.4100 737.6989 0.390 -0.700 0.599 86 75 69
-3008.1331 2003.2960 739.9382 0.365 -0.460 0.809 111 100 94
-3486.6765 2589.0239 785.1928 0.848 -0.054 -0.528 114 79 60
-3848.1921 2904.7339 854.0892 -0.094 -0.913 -0.396 97 65 44
-3657.8977 2780.8970 806.2302 0.121 -0.908 -0.400 97 65 44
-3422.8276 2845.4341 687.5601 0.841 0.048 0.539 128 65 38
-3393.2249 2851.0349 673.3075 0.202 -0.655 0.728 110 49 21
-3417.4268 2879.5757 675.8925 0.125 -0.814 0.567 108 43 16
-3331.9812 2831.3628 652.3791 -0.003 -0.870 0.493 106 40 10
-3236.2041 2801.8049 619.3193 0.659 -0.136 -0.740 76 31 20
-3239.4746 2813.7634 617.4506 0.632 -0.169 -0.756 69 28 20
-3275.5259 2871.3750 617.1678 0.850 -0.513 -0.121 58 21 12
-3224.0962 2848.1521 601.4283 0.961 0.046 -0.273 58 21 12
-3231.9199 2864.0681 600.4324 0.906 -0.423 0.004 81 44 36
-3229.9219 2871.9141 597.4260 0.901 -0.434 -0.002 117 78 71
-3218.3584 2871.8120 592.4854 0.514 -0.538 0.668 141 102 96
-3204.7703 2889.0208 581.9357 0.460 -0.538 0.706 151 112 113
-3195.2405 2890.5349 577.4266 0.790 -0.460 0.405 145 106 107
-3290.4666 3060.8813 571.7050 0.873 0.329 0.360 111 67 64
-3301.4187 3080.6260 571.0051 0.871 0.328 0.365 119 75 72
-3128.5078 2987.4478 522.2216 0.518 -0.803 -0.295 136 97 92
-3151.1323 3017.6343 523.6781 0.499 -0.803 -0.325 138 99 94
-3151.7734 3028.1589 521.0722 -0.025 -0.874 -0.486 126 87 82
-2648.8074 3303.3538 229.6238 0.089 -0.934 0.347 126 87 82
-2595.8611 3358.8745 191.6744 0.601 -0.789 -0.124 93 45 31
-2330.9585 3375.7703 73.2296 -0.001 -1.000 -0.017 27 27 35
-1634.5200 4820.4473 -621.5234 0.247 -0.617 0.748 234 200 201
-1600.0049 4756.6143 -618.8774 0.812 -0.122 -0.571 224 190 191
-1596.5161 4766.0225 -622.9521 0.796 -0.605 0.022 218 186 189
-1530.5696 4643.1865 -617.6574 0.393 -0.917 -0.065 221 191 195
-1547.2136 4734.6611 -635.5496 -0.061 -0.870 0.490 222 196 199
-1537.6111 4724.7471 -636.9612 -0.057 -0.876 0.478 216 190 193
-1517.2673 4680.8594 -633.6869 0.249 -0.969 0.000 214 183 188
-1499.3781 4644.2881 -631.3609 0.172 -0.971 -0.164 226 190 196
-1456.7317 4528.6372 -618.0221 -0.057 -0.998 -0.002 228 188 197
-2890.6353 1510.7767 817.7794 0.391 -0.353 -0.850 64 55 48
-3256.1882 1759.6550 905.7165 0.273 -0.098 -0.957 74 65 58
-3027.1917 1983.8531 746.0070 0.642 -0.765 -0.040 85 74 68
-3013.4309 1989.4540 738.5764 0.412 -0.774 0.481 83 72 66
-3010.2559 1994.4141 735.8524 0.274 -0.839 0.471 82 71 65
-3000.6514 1995.5784 731.4217 0.340 -0.553 0.760 87 76 70
-3003.5771 2017.8898 726.5327 0.434 -0.299 0.850 158 132 125
-3519.5083 2607.1064 785.1479 0.797 -0.094 -0.596 122 85 67
-3654.6128 2783.4836 794.4193 0.254 -0.760 -0.598 104 71 52
-3669.5901 2813.1733 792.6569 -0.342 -0.923 0.176 92 59 40
-3380.2822 2836.3062 662.4794 0.235 -0.803 0.547 112 48 21
-3221.0469 2831.6597 595.6129 0.724 -0.531 -0.440 51 14 6
-3226.5347 2845.5676 594.1334 0.962 0.045 -0.270 48 11 3
-3233.4534 2860.7185 592.9241 0.906 -0.423 0.004 62 25 17
-3256.9863 2889.6978 595.0186 0.739 -0.511 -0.440 83 46 38
-3253.9978 2896.8081 591.7825 0.739 -0.511 -0.440 98 59 52
-3191.8425 2883.0195 568.9783 0.847 -0.441 0.297 152 109 107
-3260.7456 3070.3562 546.9020 0.960 0.271 0.074 136 97 92
-3199.7039 3026.3162 532.9007 0.276 -0.937 -0.212 136 97 92
-3249.9407 3081.0796 539.3264 0.377 -0.904 -0.199 136 97 92
-3192.0906 3039.5261 526.0067 -0.151 -0.851 -0.503 136 97 92
-3169.4304 3029.2166 519.1468 -0.151 -0.852 -0.501 136 97 92
-3146.0935 3038.1025 506.7139 -0.027 -0.882 -0.471 110 75 69
-3183.7397 3082.4028 510.6313 0.550 -0.368 0.750 79 52 48
-3161.8997 3072.6023 503.9823 0.523 -0.402 0.752 56 35 33
-3044.9878 3074.5610 453.4102 0.892 -0.157 0.423 48 60 70
-2637.7734 3295.6594 218.2850 0.133 -0.947 0.293 127 88 83
-2592.7407 3252.4954 210.8938 0.044 -0.926 0.376 128 89 84
-2571.0249 3322.7170 182.2722 0.367 -0.926 -0.086 93 45 31
-2375.9521 3572.4299 30.0577 0.183 -0.570 -0.801 53 50 59
-2387.4690 3601.1833 27.0722 0.159 -0.571 -0.805 60 52 63
-2384.0024 3608.1392 23.6741 0.164 -0.572 -0.803 79 72 85
-2380.8320 3615.5425 20.2795 0.141 -0.570 -0.809 143 139 148
-2372.6782 3639.8630 10.0959 0.046 -0.773 -0.633 214 191 194
-1635.1483 4812.1138 -628.1896 0.247 -0.617 0.748 208 174 175
-1616.3715 4775.8589 -626.2464 0.822 -0.139 -0.553 222 188 189
-1615.2532 4792.5166 -631.3098 0.827 -0.058 -0.559 225 191 192
-1606.6445 4786.5693 -633.3569 0.667 -0.734 -0.133 211 180 182
-1542.1746 4728.8101 -645.0491 -0.006 -0.905 0.425 219 194 197
-1507.2552 4639.2627 -635.3455 0.103 -0.972 -0.213 219 189 194
-1499.3669 4634.1812 -637.3226 0.186 -0.971 -0.147 225 190 196
-1476.5127 4601.1836 -638.0208 0.157 -0.915 -0.373 228 188 197
-3268.2815 1755.7955 904.4347 0.287 -0.079 -0.955 68 59 52
-2996.5901 2003.5507 720.0706 0.479 -0.267 0.836 101 82 75
-2988.8110 2012.6141 714.2468 0.465 -0.310 0.829 133 111 103
-2991.7693 2021.2661 713.1136 0.628 -0.082 0.774 152 129 121
-3669.6814 2677.1082 820.5879 0.529 -0.768 -0.361 133 95 76
-3535.3269 2622.4976 778.4318 -0.047 -0.809 -0.586 127 90 72
-3593.7249 2671.4553 789.7761 0.153 -0.759 -0.633 122 85 67
-3675.6440 2784.1516 793.5090 0.204 -0.764 -0.612 109 76 57
-3666.3477 2787.1416 788.7190 0.248 -0.754 -0.608 109 76 57
-3687.7019 2811.7502 791.0115 0.687 -0.091 -0.721 99 66 47
-3321.0166 2813.5620 634.2130 0.117 -0.955 0.273 106 40 7
-3277.1050 2825.5925 612.1669 0.763 -0.422 -0.490 75 32 22
-3224.7522 2830.1262 588.5974 0.714 -0.539 -0.446 44 10 1
-3272.0303 2897.4729 590.1135 0.688 -0.308 -0.657 58 21 13
-3262.4412 2899.1428 585.5641 0.923 -0.152 -0.353 67 28 21
-3258.7085 2905.6604 582.1696 0.772 -0.502 -0.390 88 43 37
-3196.2820 2882.1208 562.0744 0.945 -0.309 -0.103 164 117 111
-3210.2520 2913.0786 559.4626 0.430 -0.630 -0.647 151 104 98
-3220.9822 2931.8557 558.8403 0.991 -0.117 -0.060 144 96 90
-3220.0459 2940.7620 555.9768 0.990 -0.125 -0.060 140 93 88
-3219.0935 2949.6787 553.1035 0.990 -0.125 -0.060 106 62 59
-3130.7666 2979.8889 507.0951 0.072 -0.847 -0.527 136 97 92
-3173.6965 3038.1624 509.2685 -0.112 -0.868 -0.484 132 93 88
-2359.3401 2669.6091 264.1386 -0.269 -0.963 0.032 166 104 91
-2625.4954 3286.4387 206.8996 0.151 -0.939 0.309 139 100 95
-2607.3223 3275.3792 202.2137 0.018 -0.960 0.281 124 85 80
-2595.7559 3272.1602 198.1745 0.085 -0.948 0.308 96 55 49
-2581.1653 3308.1697 181.9910 0.839 -0.523 0.150 84 36 24
-2573.8982 3310.0613 178.3700 0.796 -0.549 0.254 86 37 23
-2575.0115 3322.2798 175.4635 0.907 -0.396 0.142 92 45 31
-2318.9851 3403.8306 43.7676 0.101 -0.831 -0.547 47 49 61
-2294.6624 3380.5339 39.8467 0.015 -0.847 -0.532 51 53 65
-2379.8704 3572.2195 23.1238 0.174 -0.575 -0.799 53 50 59
-2395.9404 3607.5781 20.1894 0.162 -0.575 -0.802 60 52 63
-2392.5249 3614.6375 16.7800 0.157 -0.575 -0.803 79 72 85
-2390.0181 3623.0444 13.3851 0.141 -0.570 -0.809 143 139 148
-2385.8049 3628.9585 9.9529 0.141 -0.570 -0.809 205 197 205
-1870.3878 4870.3735 -553.2582 0.600 0.063 -0.798 237 202 206
-1647.4862 4798.6309 -628.4164 0.200 -0.561 0.803 200 166 167
-1642.4675 4803.7158 -631.9626 0.214 -0.549 0.808 147 113 114
-1632.6582 4794.5000 -633.5938 0.211 -0.553 0.806 127 93 94
-1620.0637 4776.8047 -634.0653 0.825 -0.059 -0.561 156 122 123
-1622.5676 4804.3579 -640.6225 0.825 -0.059 -0.561 169 136 137
-1613.8953 4798.3081 -642.6450 0.689 -0.711 -0.142 145 115 117
-1510.8606 4640.5400 -642.9061 0.103 -0.972 -0.213 232 202 207
-1521.9707 4695.3369 -653.3336 0.032 -0.999 0.013 226 191 197
-1515.6725 4695.5059 -656.0649 0.032 -0.999 0.013 226 189 197
-3067.4792 1629.8525 846.7043 0.343 -0.110 -0.933 62 53 46
-2996.6655 2000.3025 713.5883 0.413 -0.650 0.638 85 70 62
-2981.5054 2004.9415 705.8619 0.300 -0.690 0.659 100 84 73
-2979.5869 2010.6345 703.4637 0.589 -0.401 0.701 110 94 83
-2972.6013 2013.2817 699.7617 0.585 -0.411 0.699 147 131 120
-3675.4946 2667.3638 816.2082 0.532 -0.769 -0.353 135 97 78
-3675.3650 2676.4717 813.6195 0.529 -0.768 -0.361 136 97 78
-3668.8049 2784.2627 780.8488 0.850 -0.179 -0.495 115 82 63
-3300.3184 2755.7263 632.3523 -0.221 -0.926 -0.305 124 60 33
-3303.2524 2776.4639 627.8291 0.204 -0.802 -0.562 125 59 32
-3306.3328 2788.1506 625.8857 0.213 -0.817 -0.536 115 46 13
-3330.2534 2892.3430 607.0563 0.913 -0.115 0.392 51 14 6
-3281.5579 2900.6594 584.0698 0.682 -0.321 -0.657 67 30 21
-3268.5098 2899.4934 578.8548 0.964 -0.156 -0.216 79 39 31
-3259.7842 2901.8699 574.4894 0.690 -0.698 0.192 85 36 25
-3207.5864 2877.4558 559.1213 0.448 -0.604 0.659 88 37 24
-3221.6228 2908.3860 556.4760 0.430 -0.630 -0.647 112 58 46
-3217.6274 2914.6362 553.0411 0.430 -0.630 -0.647 118 64 54
-3181.4128 2941.6470 530.1529 0.242 -0.688 0.684 150 106 103
-3206.6731 3052.8086 509.9533 0.637 -0.306 0.708 123 84 79
-3181.8181 3040.5742 502.8050 -0.107 -0.869 -0.483 133 94 89
-3172.1204 3041.8660 498.3285 -0.107 -0.869 -0.483 119 82 76
-3154.9324 3036.3525 492.5655 0.200 -0.941 -0.273 88 54 47
-3147.4382 3039.5559 488.4928 0.297 -0.430 0.853 59 44 34
-2651.0283 3300.8306 205.0678 0.344 -0.543 0.766 126 87 82
-2560.7800 3214.3508 190.8117 0.075 -0.867 0.493 123 84 79
-2551.6758 3213.8965 187.0731 0.073 -0.869 0.490 114 73 67
-2578.9229 3289.3267 177.6568 0.820 -0.297 0.489 80 33 23
-2578.5510 3299.6370 174.6308 0.838 -0.471 0.277 79 31 19
-2573.2102 3303.8792 171.1834 0.831 -0.474 0.292 93 44 30
-2566.9941 3317.8672 164.6532 0.919 -0.363 0.157 78 32 22
-2339.8523 3382.7424 50.1767 -0.099 -0.929 0.357 27 27 35
-2310.4204 3374.9719 39.8436 0.113 -0.985 0.132 38 40 52
-2309.2573 3395.7063 33.5818 -0.032 -0.863 -0.504 50 52 64
-2387.9968 3578.1042 16.2692 0.181 -0.573 -0.799 54 51 60
-2400.5557 3608.3279 13.1931 0.138 -0.603 -0.786 60 52 63
-2392.8418 3609.1167 9.6989 0.143 -0.581 -0.801 83 76 88
-2384.2637 3620.6741 2.8421 0.143 -0.581 -0.801 201 192 201
-1891.2899 4895.9243 -561.1958 0.679 0.062 -0.731 234 199 203
-1907.4049 4977.1338 -576.9456 0.638 0.073 -0.767 235 200 204
-1750.0636 4655.1694 -554.1769 0.871 0.214 -0.442 232 196 200
-1833.4240 4917.9897 -591.9001 0.939 0.252 -0.236 230 194 198
-1880.2124 5064.8945 -612.9034 0.944 0.277 -0.179 230 194 198
-1647.7266 4789.2407 -634.9189 0.200 -0.561 0.803 164 130 131
-1632.8715 4785.0039 -640.0467 0.211 -0.553 0.806 75 41 42
-1622.7855 4774.8315 -641.4988 0.650 -0.449 0.613 92 58 59
-1616.4510 4775.7876 -644.4540 0.947 -0.089 0.308 104 72 73
-1598.9275 4742.9409 -642.7559 0.568 -0.811 -0.140 95 65 67
-1537.6553 4714.3379 -660.8111 0.128 -0.982 -0.139 219 189 193
-1531.6329 4715.5322 -663.7001 0.128 -0.982 -0.139 230 194 200
-1525.2753 4715.6294 -666.4261 0.124 -0.986 -0.108 228 188 197
-1511.1790 4691.1382 -665.5974 0.217 -0.561 -0.799 226 185 194
-1179.6326 729.8651 293.1733 0.197 -0.319 0.927 35 30 24
-2826.7009 1453.8364 787.1318 0.510 -0.306 -0.804 46 35 29
-2939.3069 1655.6576 778.3044 0.944 -0.002 -0.329 77 73 64
-2935.6079 1689.3934 767.3062 0.788 0.118 0.604 80 73 65
-2973.8127 1714.3837 776.4714 0.795 0.089 0.600 80 73 65
-2989.0447 1728.0681 779.0849 0.769 0.021 0.639 80 73 65
-3010.1948 1782.1205 772.9118 0.776 0.017 0.630 78 69 62
-2986.0139 1997.5156 702.4517 0.359 -0.644 0.675 75 64 54
-2977.8389 1999.4630 698.4505 0.300 -0.690 0.659 78 68 56
-2976.2410 2005.3323 696.1335 0.465 -0.693 0.551 82 72 59
-2968.4316 2007.4745 692.2325 0.465 -0.693 0.551 107 97 84
-2966.1030 2012.9092 689.7281 0.030 -0.934 0.357 133 123 111
-2951.5955 2010.9633 684.1381 0.525 -0.529 0.667 146 136 123
-2969.6499 2028.7972 686.7847 0.474 -0.326 0.818 160 148 135
-3695.6379 2808.0479 775.8298 0.546 -0.281 -0.789 109 76 57
-3717.8293 2833.3281 778.1432 0.416 -0.422 -0.806 108 75 56
-3269.7620 2810.5999 595.0458 0.403 -0.845 0.350 53 10 2
-3305.0552 2886.4197 588.7654 0.206 -0.919 -0.336 51 14 5
-3299.8774 2891.7942 585.0731 0.692 -0.379 -0.614 55 18 9
-3301.6470 2902.8677 582.7246 0.693 -0.377 -0.615 64 27 18
-3299.8855 2911.0730 579.6851 0.693 -0.377 -0.615 78 40 31
-3277.5828 2902.3169 572.7037 0.982 -0.188 -0.005 89 49 39
-3276.0071 2910.6516 569.7067 0.649 -0.715 0.262 97 44 29
-3267.6431 2913.3530 565.4147 0.639 -0.719 0.273 100 43 27
-3261.1704 2917.6138 561.4864 0.639 -0.719 0.273 101 43 27
-3230.8999 2911.5164 550.3925 0.448 -0.652 -0.612 90 31 15
-3224.3354 2915.6150 546.4706 0.440 -0.646 -0.624 92 33 17
-3221.8770 2923.1858 543.3139 0.960 -0.027 -0.278 95 37 23
-3214.3953 2926.4944 539.2252 0.989 -0.097 -0.115 96 41 27
-3213.8547 2935.7178 536.4174 0.313 -0.737 0.599 76 31 25
-3202.7097 2935.8726 531.6617 0.240 -0.700 0.673 96 53 47
-3192.8130 2937.0620 527.1444 0.224 -0.700 0.678 128 85 79
-3178.4910 2934.3960 521.8344 0.242 -0.688 0.684 151 107 104
-3178.8884 2944.4333 519.1954 0.321 -0.603 0.731 153 109 106
-3169.5471 2946.0276 514.7999 0.643 -0.430 0.634 151 107 104
-3163.1809 2950.1914 510.9436 0.646 -0.512 0.566 147 103 100
-3200.4531 3042.3467 500.9317 0.637 -0.309 0.707 133 94 89
-3183.6726 3037.3513 495.2335 0.273 -0.913 -0.303 124 85 80
-3166.9019 3032.2871 489.5587 0.513 -0.803 0.304 98 61 55
-3157.9731 3034.2239 485.2419 0.560 -0.776 0.290 69 36 29
-3145.8030 3033.1965 480.3833 0.664 -0.311 0.680 62 53 41
-2435.8071 2698.5786 273.7572 -0.143 -0.982 0.120 120 54 28
-2637.3801 3290.0383 193.5837 0.516 -0.671 0.533 128 89 84
-2552.5723 3199.3757 183.0790 0.009 -0.911 0.413 125 86 81
-2598.3098 3264.7092 184.1472 0.132 -0.935 0.330 122 81 77
-2591.6863 3267.4038 180.5931 0.142 -0.929 0.342 119 77 70
-2570.8162 3274.1594 169.8795 0.807 -0.172 0.565 85 38 28
-2574.5637 3289.4485 167.1884 0.850 -0.222 0.477 81 33 21
-2306.3618 3386.0400 26.7743 0.076 -0.996 -0.041 50 52 64
-2301.0366 3389.6851 23.5033 0.081 -0.995 -0.056 50 52 64
-2394.9529 3582.2646 9.3579 0.172 -0.555 -0.814 53 50 59
-2409.0688 3614.7295 6.2475 0.122 -0.520 -0.845 61 53 64
-2403.8240 3619.1592 2.7911 -0.037 -0.603 -0.797 88 81 93
-2400.6416 3626.6008 -0.6356 -0.021 -0.590 -0.807 155 151 160
-1898.3680 4885.2676 -564.9981 0.704 0.076 -0.706 230 195 199
-1955.5603 5093.3765 -599.0143 0.599 0.058 -0.798 229 194 198
-1836.1519 4915.3896 -599.7284 0.941 0.251 -0.226 227 191 195
-1659.2598 4793.2412 -640.3634 0.397 -0.535 0.746 209 175 176
-1639.5428 4774.8369 -643.5533 0.229 -0.566 0.792 70 36 37
-1633.7133 4777.4053 -646.7365 0.212 -0.559 0.802 69 35 36
-1597.5511 4728.7305 -648.4146 0.931 -0.053 0.362 82 52 54
-1520.0522 4709.0220 -675.6714 0.210 -0.563 -0.799 237 196 206
-1516.9161 4719.2529 -679.8586 0.315 -0.669 -0.673 225 188 196
-1498.4064 4680.4438 -676.8319 0.330 -0.469 -0.820 227 185 195
-2971.3728 1615.4218 796.3118 0.774 -0.573 0.270 74 65 58
-3013.9622 1737.5745 779.9072 0.312 -0.598 0.738 73 66 58
-3002.3464 2017.6614 696.2772 -0.065 -0.982 0.179 69 64 50
-2987.0122 2015.3462 690.4706 -0.067 -0.980 0.186 73 69 54
-2966.0740 2016.4415 681.3452 -0.033 -0.973 0.227 111 106 92
-2954.4739 2016.2542 676.5129 0.043 -0.976 0.212 134 128 113
-2965.8623 2030.0587 677.4280 0.517 -0.631 0.578 158 139 125
-2968.7634 2038.7373 676.2100 0.664 -0.059 0.745 167 144 130
-2989.1597 2072.2217 675.3859 0.626 -0.260 0.735 169 141 127
-3673.7749 2712.7339 783.6252 0.192 -0.922 0.335 127 90 72
-3580.3447 2667.2927 757.0548 0.167 -0.873 0.458 125 88 70
-3550.2351 2655.6804 747.6398 0.658 -0.473 0.586 125 89 70
-3595.0730 2704.9778 752.6630 0.832 -0.012 -0.555 115 82 63
-3612.5103 2726.3735 753.9913 0.991 0.124 0.059 115 82 63
-3675.2004 2779.5422 765.4442 0.279 -0.323 -0.904 115 82 63
-3695.3000 2803.1685 767.2665 0.276 -0.391 -0.878 110 77 58
-3281.6162 2815.5212 589.5860 0.601 -0.783 -0.160 52 8 1
-3324.1631 2887.6707 587.2203 0.928 -0.177 0.329 51 15 3
-3303.7390 2880.6860 580.5830 0.121 -0.980 -0.157 51 15 3
-3294.3044 2882.5757 576.0787 0.121 -0.980 -0.157 67 31 19
-3229.0315 2867.0508 552.9558 0.901 -0.352 -0.255 114 57 39
-3211.3560 2871.3481 544.3043 0.955 -0.295 -0.027 118 55 36
-3207.8904 2877.9580 540.9868 0.941 -0.323 -0.101 118 54 35
-3204.9148 2884.9875 537.7575 0.949 -0.300 -0.098 113 49 30
-3235.8208 2920.6116 540.7578 0.445 -0.651 -0.615 110 47 28
-3229.6421 2925.0566 536.9062 0.955 -0.016 -0.296 105 43 25
-3225.0374 2930.8308 533.3439 0.997 -0.052 -0.051 102 42 27
-3215.2158 2932.1562 528.8353 0.285 -0.768 0.574 66 19 13
-3211.5779 2938.7441 525.4513 0.076 -0.881 0.468 81 36 31
-3201.4324 2939.7478 520.8967 0.181 -0.816 0.549 105 60 55
-3175.5793 2927.1709 513.5453 0.242 -0.688 0.684 123 80 74
-3174.9099 2936.2595 510.7084 0.321 -0.603 0.731 150 107 101
-3161.6760 2934.4583 505.6418 0.423 -0.767 0.483 153 109 106
-3083.2380 2875.7471 489.1155 0.957 0.253 0.144 157 113 110
-3185.0837 3023.7578 490.3951 0.619 -0.351 0.703 120 81 76
-2554.9727 3197.1094 176.3138 0.051 -0.950 0.310 129 90 85
-2600.4019 3261.9670 177.2117 0.132 -0.935 0.330 133 92 88
-2596.3538 3267.7617 173.8781 0.138 -0.941 0.309 134 92 86
-2535.8337 3205.4124 165.9200 0.172 -0.964 0.204 122 77 65
-2569.7690 3267.6174 162.7235 0.806 -0.183 0.563 95 48 38
-2569.1917 3277.5981 159.6745 0.882 -0.221 0.417 86 38 26
-2311.6685 3354.6033 29.5801 -0.008 -0.994 0.107 31 33 45
-2306.8352 3358.9060 26.3352 0.001 -0.996 0.091 37 39 51
-2301.4353 3362.4048 23.0776 -0.023 -0.998 0.061 43 45 57
-2299.0845 3370.2041 19.8951 -0.060 -0.964 0.260 50 52 64
-2408.0286 3595.2444 2.5093 0.084 -0.606 -0.791 53 50 59
-2422.3850 3628.0657 -0.6717 0.132 -0.531 -0.837 63 55 66
-2417.6772 3633.3362 -4.1359 -0.025 -0.596 -0.803 94 87 100
-2410.4749 3634.9614 -7.6259 0.136 -0.544 -0.828 161 157 166
-1661.0475 4788.4258 -647.4835 0.383 -0.542 0.748 166 132 133
-1645.7555 4763.3486 -646.8735 0.333 -0.509 0.793 89 55 56
-1568.2645 4650.1143 -647.6733 0.904 -0.334 0.266 63 34 36
-1544.8396 4736.4751 -681.8158 0.235 -0.548 -0.802 142 107 113
-1506.1001 4694.7539 -686.4007 0.346 -0.580 -0.738 225 183 193
-2970.6179 1612.2990 790.0758 0.765 -0.573 0.293 74 65 58
-3033.6841 1725.9490 784.4096 0.729 -0.682 0.056 67 60 52
-2873.6667 1760.3279 707.5826 0.420 -0.716 -0.558 81 72 65
-3008.8167 2018.2112 691.3898 -0.032 -0.971 0.235 74 73 58
-2994.2417 2016.3748 685.7960 -0.032 -0.971 0.235 65 64 49
-2967.8584 2027.9562 671.4579 0.491 -0.577 0.653 142 125 111
-2957.5220 2028.5312 666.9602 0.511 -0.576 0.638 165 143 130
-2954.4788 2033.5529 664.2648 0.640 -0.154 0.752 167 141 129
-2954.1265 2040.2372 662.2281 0.707 -0.013 0.708 168 142 128
-2967.2383 2055.2712 663.4789 0.603 -0.118 0.789 169 142 129
-3530.3142 2584.0891 750.1967 0.472 -0.755 0.454 140 103 86
-3565.5103 2616.6824 755.7476 0.582 -0.684 0.439 140 103 86
-3585.8069 2639.3967 757.8412 0.558 -0.743 0.369 140 103 86
-3268.6489 2885.6008 555.2490 0.962 -0.184 -0.200 115 71 56
-3272.3533 2907.8738 550.5085 0.358 -0.696 -0.622 129 64 42
-3222.9465 2885.9133 535.9929 0.931 -0.342 0.129 130 64 41
-3219.9167 2892.9336 532.7384 0.931 -0.342 0.129 118 52 29
-3240.9629 2939.6243 528.3709 0.186 -0.721 -0.667 95 32 14
-3231.8904 2941.6370 523.9971 0.039 -0.845 -0.533 78 30 20
-3212.9207 2935.1650 517.8699 0.181 -0.816 0.549 79 33 26
-3200.8853 2934.5522 512.9955 0.181 -0.816 0.549 82 36 30
-3173.8013 2920.9382 505.4835 0.245 -0.692 0.679 83 40 32
-3170.6362 2927.8506 502.2027 0.370 -0.653 0.661 97 53 46
-3161.5525 2929.6401 497.8872 0.423 -0.767 0.483 103 59 54
-3083.9194 2881.1868 479.0200 0.955 0.260 0.140 116 73 68
-3175.2473 3010.1484 480.8801 0.595 -0.334 0.731 91 52 46
-3147.6304 3015.1873 467.8734 0.462 -0.454 0.762 94 61 55
-3129.8364 3018.9619 459.3440 0.462 -0.454 0.762 87 88 82
-2604.9438 3240.9490 176.4704 0.739 -0.615 0.275 126 86 83
-2573.3525 3213.8857 170.8688 0.709 -0.631 0.315 132 92 89
-2589.5066 3243.6936 169.2204 0.751 -0.509 0.420 140 99 96
-2586.6909 3250.9094 166.0004 0.895 -0.112 0.431 146 104 99
-2539.8115 3205.0596 159.2957 0.200 -0.957 0.212 137 93 82
-2530.3428 3204.0698 155.6041 0.575 -0.808 0.129 122 77 65
-2565.5129 3257.1965 155.3416 0.808 -0.186 0.559 100 55 45
-2307.0869 3364.8540 16.5337 -0.057 -0.971 0.234 43 45 57
-2419.0615 3605.2224 -4.4294 0.080 -0.607 -0.791 53 49 59
-2437.6741 3644.2009 -7.6381 -0.006 -0.577 -0.817 65 58 68
-2429.0850 3643.8999 -11.1554 -0.012 -0.585 -0.811 99 92 104
-2423.9658 3648.6174 -14.6355 -0.012 -0.585 -0.811 167 162 171
-2424.8579 3686.6965 -25.0221 -0.141 -0.813 -0.565 220 197 200
-1834.2771 4870.9990 -607.3861 0.845 0.191 -0.500 217 178 183
-1644.1437 4503.5205 -583.2832 0.540 -0.503 0.675 229 188 194
-1673.4603 4603.2432 -599.1683 0.797 -0.506 0.329 229 188 194
-1666.7694 4603.1802 -601.9567 0.525 0.012 -0.851 229 188 194
-1782.3879 5027.7690 -673.4503 0.960 -0.213 0.184 225 189 191
-1788.2341 5065.2246 -681.5829 0.959 0.134 0.250 224 188 191
-1718.9650 4886.6050 -660.1587 0.695 -0.270 0.666 225 188 191
-1703.7046 4862.6069 -659.7772 0.084 -0.952 0.293 225 188 191
-1684.3756 4826.5244 -657.6874 -0.075 -0.965 0.250 199 162 163
-1667.7338 4797.9155 -656.5825 0.268 -0.508 0.819 129 92 94
-1620.3387 4737.3740 -659.3517 0.330 -0.532 0.780 70 36 36
-1583.3912 4685.7954 -660.2721 0.282 -0.696 0.660 53 25 25
-1543.9209 4743.5176 -693.1378 0.332 -0.755 -0.566 137 101 108
-1536.0291 4738.9326 -695.1520 0.203 -0.566 -0.799 185 148 156
-1519.9222 4728.4604 -698.9480 0.015 -0.974 0.228 226 185 194
-3037.4216 1724.8441 779.2147 0.744 -0.660 0.100 54 47 41
-3027.0408 1806.9979 751.5422 0.744 0.004 -0.668 72 63 54
-3025.0181 1812.2941 749.1930 0.726 -0.060 -0.686 71 62 53
-2965.6301 2023.2855 664.4530 0.029 -0.935 0.353 96 81 71
-2934.6321 2018.0714 652.9864 0.055 -0.936 0.347 141 123 112
-2942.0903 2029.5037 652.8542 0.705 -0.007 0.710 163 145 134
-2931.3655 2029.7598 648.3018 0.767 -0.230 0.599 169 151 140
-3520.6047 2590.9678 735.0084 0.496 -0.819 0.287 140 105 94
-3770.8369 2827.2927 772.3990 0.807 -0.380 -0.451 123 86 72
-3305.2747 2901.4087 556.8828 0.061 -0.922 -0.383 128 73 50
-3338.5208 2938.3950 560.2632 0.314 -0.873 -0.374 130 73 49
-3335.8469 2945.9709 556.9943 0.599 -0.630 -0.495 140 76 51
-3313.5901 2937.3403 550.1494 0.473 -0.690 -0.547 143 76 51
-3302.3345 2947.5112 542.5588 0.224 -0.911 -0.345 143 76 50
-3231.3169 2897.8254 527.0089 0.913 -0.389 0.122 131 64 38
-3238.6221 2942.6240 517.3348 0.028 -0.829 -0.559 74 22 5
-3231.1138 2945.9641 513.2498 0.076 -0.763 -0.642 82 32 17
-3175.6035 2927.4331 495.3273 0.444 -0.748 0.493 96 46 31
-3167.0073 2929.6594 491.1044 0.536 -0.756 0.376 95 46 33
-3162.4233 2935.3472 487.5740 0.331 -0.866 0.374 95 46 33
-3119.8491 3005.0874 449.9807 0.637 -0.150 0.756 106 96 107
-2584.5037 3232.5110 161.7680 0.760 -0.498 0.419 128 90 88
-2540.2805 3200.4800 152.3948 0.051 -0.994 -0.101 145 107 100
-2557.7361 3242.5400 147.7384 0.798 -0.199 0.568 141 104 97
-2323.8367 3360.6138 16.5001 -0.065 -0.963 0.261 31 31 41
-2314.3066 3358.3877 13.1518 0.072 -0.899 0.433 31 31 41
-2312.7275 3367.2708 9.9689 0.047 -0.918 0.394 34 34 44
-2316.9419 3406.7917 0.5029 0.916 -0.372 0.149 52 52 62
-2449.7192 3655.5815 -14.7074 -0.008 -0.582 -0.813 58 53 60
-2440.1509 3653.9211 -18.2324 -0.012 -0.585 -0.811 86 80 90
-2435.0103 3658.6538 -21.7241 -0.012 -0.585 -0.811 159 154 162
-2438.3457 3700.4263 -32.1966 -0.131 -0.827 -0.546 217 197 197
-1838.3196 4871.9795 -615.6139 0.845 0.191 -0.500 217 166 178
-1632.8419 4445.2554 -580.2264 0.736 -0.541 0.408 228 174 184
-1647.4487 4521.6436 -595.8239 0.686 -0.612 0.393 229 175 187
-1725.9427 4817.0435 -646.9481 0.338 -0.111 -0.935 221 183 176
-1591.1816 4660.2856 -658.7088 0.295 -0.613 -0.733 66 32 31
-1581.6536 4670.6514 -665.6331 0.125 -0.948 -0.293 52 30 25
-1535.8839 4748.4312 -706.8447 0.303 -0.773 -0.557 195 163 165
-2943.5981 2013.4268 650.7137 -0.050 -0.986 0.160 87 73 64
-2931.0708 2012.6019 645.7380 -0.042 -0.987 0.158 108 94 85
-2924.0056 2015.0890 642.0889 0.685 -0.655 -0.319 129 112 102
-2916.3523 2017.1976 638.3031 0.709 -0.632 -0.313 151 134 124
-2911.3108 2020.9043 635.1476 0.743 -0.590 -0.315 160 143 133
-2903.3337 2029.6134 629.3425 0.774 -0.577 -0.261 168 152 143
-3762.0857 2806.8899 764.6385 0.808 -0.324 -0.493 128 92 78
-3280.5486 2801.0479 565.9938 0.287 -0.852 0.438 120 57 40
-3271.9026 2803.4917 561.6995 0.874 -0.314 -0.371 120 56 39
-3286.3684 2871.7129 548.2380 -0.080 -0.997 0.005 131 73 49
-3300.3157 2892.6677 548.0567 0.025 -0.921 -0.389 130 72 48
-3319.6992 2976.9087 532.0670 0.846 -0.466 0.258 131 64 38
-3214.9548 2956.6121 494.2901 0.113 -0.786 -0.608 97 46 29
-3159.2893 2956.9915 471.0257 0.321 -0.691 0.648 84 47 39
-2449.8792 2704.8494 247.9142 0.127 -0.890 -0.438 130 65 43
-2544.9258 3200.9219 145.8105 0.067 -0.993 -0.098 125 88 81
-2534.5017 3198.8049 142.0786 0.064 -0.993 -0.099 144 109 103
-2525.7583 3198.6682 138.4806 0.059 -0.993 -0.102 160 125 119
-2320.4412 3361.4668 6.5882 0.042 -0.913 0.405 30 30 40
-2315.3203 3398.9111 -6.2334 0.935 -0.339 0.103 52 52 62
-2453.2390 3642.4524 -18.3985 0.040 -0.529 -0.848 53 48 55
-2457.3147 3660.4932 -21.8543 0.039 -0.586 -0.809 57 52 59
-2451.1726 3663.8330 -25.3628 0.038 -0.584 -0.811 83 77 87
-2444.6326 3666.5789 -28.8674 0.118 -0.532 -0.838 157 152 159
-2441.0732 3673.6519 -32.3676 0.122 -0.530 -0.839 214 204 212
-2441.7820 3686.9839 -35.8794 -0.117 -0.851 -0.512 209 196 202
-2442.3813 3700.2126 -39.4073 -0.141 -0.828 -0.542 217 196 196
-1863.2170 4908.9526 -625.4585 0.321 -0.883 -0.341 218 162 172
-1761.9570 4771.5830 -628.3587 0.386 -0.721 -0.576 222 164 172
-1760.3019 4786.2588 -633.2375 0.629 -0.175 -0.757 224 165 174
-1590.5022 4337.2905 -575.6795 0.905 -0.401 0.146 225 166 175
-1690.1531 4630.7153 -618.0066 0.554 -0.008 -0.833 226 166 176
-1695.4110 4818.4795 -669.4310 -0.115 -0.973 0.200 194 146 142
-1596.0193 4645.5332 -661.3959 0.269 -0.849 0.456 79 45 40
-1578.2963 4650.7109 -670.2468 0.258 -0.746 -0.614 59 36 30
-1531.5293 4744.6431 -716.5213 0.039 -0.967 -0.251 191 153 158
-2901.0491 1577.6774 750.8079 0.809 -0.585 -0.062 50 41 34
-2945.7783 1604.0719 761.7631 0.880 -0.461 -0.111 50 41 34
-2937.0732 2012.9838 640.8015 0.056 -0.934 0.353 84 70 61
-2927.1558 2013.7361 636.4769 0.506 -0.766 -0.396 90 76 67
-2914.5537 2012.8070 631.5228 0.386 -0.721 -0.576 111 97 88
-2910.6262 2017.1940 628.6368 0.439 -0.818 -0.372 131 117 108
-2896.7273 2015.3958 623.3948 0.987 0.051 0.149 148 134 125
-2894.8955 2021.0621 621.0097 0.991 0.055 0.118 166 150 141
-3365.8162 2625.0085 642.7723 0.246 -0.767 -0.593 114 78 62
-3280.4697 2759.4670 568.8264 0.422 -0.751 0.508 116 55 38
-3275.6975 2764.9343 565.2803 0.429 -0.785 0.448 117 55 38
-3251.0151 2819.5562 539.3788 0.557 0.081 0.826 133 73 47
-3293.2700 2891.8315 536.1414 0.600 0.026 0.800 133 72 46
-3266.1987 2898.3398 523.0585 0.585 -0.060 0.809 143 76 50
-3264.4788 2906.5308 519.9952 0.668 -0.008 0.744 143 76 50
-3240.0374 2895.7793 512.9553 0.876 -0.482 -0.026 143 76 50
-3319.8462 2972.2261 524.0786 0.846 -0.466 0.258 138 71 45
-3289.8684 2956.9001 516.0578 0.109 -0.765 -0.635 131 63 40
-3273.7454 2953.1096 510.4664 0.116 -0.744 -0.658 124 60 36
-3267.4172 2957.5439 506.5721 0.116 -0.744 -0.658 89 36 19
-3224.0527 2949.9167 490.7961 0.111 -0.764 -0.635 95 44 27
-3227.4229 2962.5730 488.5601 0.287 -0.957 -0.043 97 46 29
-3117.2297 2877.3220 467.3761 0.296 -0.909 0.292 97 46 29
-3103.2314 2874.6851 462.3337 0.256 -0.882 0.396 97 46 29
-3162.4158 2935.5801 469.3758 0.042 -0.954 0.296 94 47 32
-3159.8906 2943.0640 466.1820 0.274 -0.730 0.626 79 40 31
-2462.0142 2704.4656 245.5441 0.125 -0.896 -0.426 126 60 34
-2580.3223 3227.6653 144.4011 0.712 -0.664 0.227 127 89 89
-2563.7393 3218.3303 140.2102 0.743 -0.606 0.284 123 86 79
-2558.7681 3222.8547 136.8522 0.743 -0.606 0.284 146 111 105
-2308.4700 3361.3867 -6.5984 0.046 -0.920 0.388 40 40 50
-2299.9053 3360.4324 -9.8727 0.046 -0.920 0.388 46 46 56
-2466.9470 3656.1030 -25.5269 0.039 -0.573 -0.819 53 48 55
-2447.9272 3689.8501 -43.0915 -0.110 -0.888 -0.447 208 196 201
-2378.2673 3798.6460 -103.1739 0.978 -0.091 -0.188 219 194 197
-2366.1536 3792.6008 -106.4574 0.947 -0.129 -0.295 219 194 197
-1832.7930 4799.4531 -616.3774 0.799 -0.286 -0.529 218 160 167
-1844.2640 4848.8960 -625.8150 0.969 -0.082 -0.235 214 155 163
-1857.3502 4903.0049 -635.9225 0.856 0.168 -0.490 211 152 159
-1885.2468 4997.0801 -651.3646 0.984 0.141 -0.110 210 151 159
-1773.3248 4773.7305 -633.6313 0.241 -0.830 -0.503 218 157 164
-1764.5837 4769.0601 -635.9122 0.386 -0.732 -0.561 218 158 164
-1782.8140 4838.2046 -648.2040 0.655 -0.217 -0.723 220 159 165
-1623.5410 4678.1494 -668.2522 0.537 -0.410 0.737 79 29 30
-2965.3044 1772.1409 714.5992 0.508 -0.378 0.774 80 71 62
-2920.2205 2013.0101 626.5174 0.439 -0.818 -0.372 79 65 56
-2915.5168 2016.9275 623.4468 0.439 -0.818 -0.372 95 81 72
-2892.0825 2009.2456 615.9944 0.606 -0.757 -0.245 122 108 99
-2885.1194 2011.7042 612.4125 0.989 0.065 0.135 148 133 123
-2889.5879 2021.2800 611.4938 0.987 0.066 0.149 162 143 132
-2886.2896 2026.0312 608.7624 0.978 0.068 0.196 162 140 127
-2885.2605 2032.2123 606.5549 0.980 0.071 0.184 157 133 121
-2893.1855 2044.0603 606.4068 0.985 0.064 0.158 151 127 115
-3092.5464 2408.5918 583.5033 0.674 -0.723 0.148 116 80 64
-3431.0076 2796.2803 611.3083 0.466 -0.730 0.500 82 45 26
-3416.9824 2795.0391 605.8801 0.171 -0.982 0.074 82 45 26
-3331.5205 2804.1243 568.0004 0.427 -0.814 0.393 109 52 33
-3180.3958 2767.2537 516.2869 0.437 -0.857 0.273 133 73 47
-3176.4915 2773.2583 512.9441 0.430 -0.862 0.270 133 71 46
-3291.5542 2943.7732 511.2282 0.854 -0.337 0.397 143 76 50
-3287.8777 2950.4612 507.7822 0.354 -0.813 -0.463 136 68 45
-3283.4565 2956.5295 504.2077 0.137 -0.740 -0.658 128 64 41
-3195.2244 2920.5303 478.1902 0.436 -0.822 0.366 89 38 21
-3119.1511 2874.3647 460.1218 0.296 -0.909 0.292 97 46 29
-3098.9011 2875.7766 451.3601 0.256 -0.881 0.397 96 46 30
-3126.7627 2909.5002 453.1268 0.183 -0.804 0.566 86 48 38
-3133.0620 2924.5916 451.3725 0.179 -0.785 0.593 90 56 47
-2592.5132 3226.4849 141.2743 0.550 -0.828 0.111 127 88 89
-2571.4949 3211.9644 136.7914 0.058 -0.957 0.284 129 90 90
-2560.2681 3209.0139 133.0107 0.764 -0.568 0.307 141 103 99
-2726.6682 3487.1985 121.4165 0.675 -0.531 0.512 31 4 2
-2440.0022 3369.2517 37.1703 0.085 -0.995 0.053 30 29 34
-2472.7859 3682.9026 -39.7806 0.203 -0.575 -0.793 81 78 87
-2466.2544 3685.7581 -43.2990 0.166 -0.592 -0.789 157 152 159
-2451.7295 3676.9795 -46.7592 0.002 -0.962 -0.272 212 205 212
-2458.7148 3699.4668 -50.3640 -0.029 -0.885 -0.465 208 197 202
-2529.6853 3841.4153 -62.0305 0.840 -0.148 0.522 219 195 195
-2624.4270 4008.0117 -70.9999 -0.175 -0.947 0.269 218 194 194
-2612.6040 4003.9285 -74.6998 -0.173 -0.948 0.267 218 194 194
-2458.7749 3877.6655 -101.7428 0.777 -0.245 -0.580 217 195 197
-2460.1150 3892.8494 -105.5699 0.694 -0.314 -0.648 219 194 197
