ply
format ascii 1.0
element vertex 795
property float x
property float y
property float z
property float nx
property float ny
property float nz
property uchar diffuse_red
property uchar diffuse_green
property uchar diffuse_blue
end_header
-1368.5471 2900.9182 -736.3798 0.934 -0.245 -0.259 147 76 36
-1367.4415 2908.7834 -739.8477 0.934 -0.245 -0.259 151 82 43
-1374.9061 2934.6470 -748.2043 0.566 -0.344 -0.749 154 90 53
-1365.1736 2934.7935 -750.9350 0.939 -0.189 -0.287 159 104 75
-1310.4296 2994.4985 -789.9850 0.376 -0.447 0.811 36 34 37
-1294.0240 3022.2280 -805.6452 0.973 -0.142 0.180 40 31 32
-1296.0167 3037.8574 -811.3865 0.740 -0.440 0.509 42 33 34
-1292.6710 3041.1316 -813.6222 0.740 -0.445 0.505 42 33 34
-1285.3881 3035.1821 -813.2279 0.346 -0.663 0.664 43 33 34
-1328.5297 3242.0369 -884.6093 -0.228 -0.951 -0.209 21 22 13
-1294.9197 3207.7954 -880.0596 -0.311 -0.950 0.019 36 21 14
-1176.6824 3026.8008 -839.6981 0.135 -0.760 0.636 110 68 46
-1171.9246 3037.4062 -845.2711 0.327 -0.930 -0.171 121 76 53
-1163.6654 3027.4106 -843.5169 0.100 -0.966 0.237 132 86 63
-1161.7312 3033.8491 -846.6382 0.524 -0.517 0.677 147 101 77
-2347.2258 1379.5979 139.0032 0.832 -0.555 -0.023 52 33 18
-2343.7830 1382.6058 136.8493 0.894 -0.020 -0.447 52 33 18
-2349.0366 1394.6260 133.4291 0.840 0.159 -0.518 114 95 81
-2351.7244 1405.4572 129.7889 0.856 0.063 -0.513 181 152 133
-2348.3833 1408.5494 127.6288 0.962 0.218 0.165 193 162 141
-2342.1682 1410.1918 125.2699 0.897 -0.073 0.437 183 152 131
-2351.9229 1419.8989 124.0117 0.870 -0.491 0.038 183 152 131
-2321.7979 1457.4850 100.6160 0.309 -0.904 -0.295 192 160 139
-2294.3296 1467.1420 89.2224 -0.025 -0.908 -0.419 210 179 158
-2294.4211 1506.5944 73.3171 0.989 0.056 -0.137 197 172 150
-2299.1858 1519.2605 69.5026 0.996 0.054 -0.076 195 170 148
-2299.6257 1524.5309 67.4946 0.996 0.054 -0.076 194 171 149
-2298.3052 1528.8165 65.4038 0.995 0.051 -0.080 187 171 158
-2298.5420 1554.3195 55.1707 0.948 0.308 0.073 43 31 19
-2298.8123 1559.5913 53.1158 0.948 0.310 0.076 45 33 21
-2299.6794 1565.2268 51.0768 0.946 0.315 0.072 50 39 27
-2172.6067 1967.6086 -146.0684 0.894 0.138 0.426 51 51 63
-2481.6924 3021.2971 -487.2036 0.667 -0.350 0.658 206 149 138
-2476.6699 3025.2729 -490.1794 0.667 -0.350 0.658 202 145 133
-2250.1704 2899.3933 -501.1473 0.463 -0.741 0.485 211 149 134
-2306.6875 3016.8420 -533.1517 0.443 -0.100 0.891 115 67 53
-2296.9893 3014.5222 -534.8610 0.449 -0.066 0.891 105 64 46
-2246.8264 3029.3479 -554.5333 0.543 -0.006 0.840 71 47 37
-2242.8386 3034.0510 -557.5204 0.050 -0.766 0.641 30 7 2
-2206.4209 3006.5271 -556.3426 0.991 -0.046 -0.123 33 14 5
-1927.6565 2757.2026 -531.7249 0.774 0.156 0.614 15 25 24
-1516.3365 2487.4504 -535.0241 0.769 -0.417 -0.485 111 38 3
-1511.7076 2488.2268 -536.6005 0.686 -0.727 -0.030 107 34 2
-1508.6332 2491.4373 -538.7357 0.679 -0.734 -0.019 102 29 0
-1506.1454 2495.5757 -541.0854 0.601 -0.772 0.207 102 29 0
-1502.8064 2498.3657 -543.1230 0.775 -0.615 0.145 121 50 17
-1504.6190 2517.5308 -550.3670 0.639 -0.572 -0.515 129 59 23
-1502.7601 2522.7358 -552.9759 0.596 -0.591 -0.544 131 61 25
-1464.6316 2559.6497 -578.2838 0.825 -0.148 0.546 114 46 11
-1439.0963 2541.6292 -577.9742 0.191 -0.916 0.352 110 42 7
-1445.8931 2578.5156 -591.0141 0.424 -0.702 -0.572 109 43 9
-1441.7952 2579.9717 -592.7200 0.439 -0.708 -0.553 112 44 9
-1430.6188 2655.8884 -626.4234 0.493 -0.224 0.841 170 90 53
-1423.1300 2651.2749 -626.6037 0.514 -0.204 0.833 177 97 60
-1369.1715 2907.3281 -744.7157 0.934 -0.245 -0.259 142 75 40
-1368.0652 2915.2170 -748.2031 0.934 -0.245 -0.259 144 83 51
-1367.9242 2925.1670 -752.2591 0.933 -0.158 -0.323 145 89 60
-1365.9036 2931.2026 -755.2475 0.940 -0.196 -0.280 138 89 65
-1288.4856 2816.9216 -730.2246 0.855 0.337 0.394 45 36 39
-1302.8063 2971.9490 -788.9152 0.395 -0.390 0.832 36 34 37
-1299.7860 2975.8191 -791.3020 0.394 -0.394 0.830 33 28 32
-1300.0104 2987.0649 -795.7816 0.514 -0.387 0.765 30 26 27
-1290.5265 3019.6260 -811.5168 0.958 -0.217 0.186 42 33 34
-1290.0325 3040.5234 -820.0897 0.609 -0.463 0.644 43 33 34
-1281.6249 3031.9050 -818.9035 0.214 -0.754 0.621 44 32 32
-1274.5046 3026.2200 -818.5507 0.287 -0.448 0.847 49 35 35
-1274.2068 3162.5566 -873.6826 0.269 -0.605 0.749 40 20 16
-1174.2023 3037.5647 -850.4971 0.327 -0.930 -0.171 122 77 56
-2338.7944 1377.9263 132.0280 0.986 -0.031 -0.167 72 54 40
-2348.8782 1392.2954 128.9392 0.841 0.162 -0.517 155 137 122
-2352.7070 1403.6799 125.3639 0.721 -0.019 -0.692 180 152 132
-2346.9165 1405.5455 123.0379 0.962 0.218 0.165 191 160 139
-2357.7007 1420.5306 119.8894 0.957 -0.288 -0.034 184 153 132
-2324.7205 1466.4755 92.3287 -0.030 -0.903 -0.429 181 150 129
-2292.3352 1468.6095 82.6829 -0.026 -0.900 -0.436 219 188 167
-2279.5227 1471.3835 78.0848 -0.029 -0.909 -0.417 222 192 171
-2281.4165 1477.3018 76.2000 0.199 -0.896 -0.398 211 184 162
-2309.2944 1512.5146 69.4893 0.980 0.144 -0.137 198 173 151
-2311.7585 1518.9064 67.5673 0.404 -0.558 0.725 196 171 149
-2307.6514 1521.6266 65.3513 0.338 -0.616 0.712 197 172 150
-2300.7134 1522.7429 63.0178 0.338 -0.616 0.712 193 170 148
-2300.5271 1532.7134 58.9269 0.540 -0.244 0.806 177 163 150
-2292.3657 1538.1588 54.5074 0.587 -0.158 0.794 47 35 23
-2415.7263 2950.0447 -484.1906 0.861 0.079 0.503 192 135 123
-2275.7634 2926.0408 -512.4130 0.345 -0.872 0.348 210 148 133
-2298.6128 2963.4646 -521.3831 0.128 -0.604 0.787 209 147 132
-2175.7927 2962.0522 -554.1122 0.999 0.033 0.034 42 23 14
-1839.5393 2658.6274 -522.3256 0.839 0.028 0.543 40 31 23
-1765.8065 2582.0586 -511.2891 0.634 -0.325 0.702 87 61 42
-1766.0765 2590.7170 -514.7246 0.614 -0.331 0.717 101 67 43
-1702.7257 2534.6660 -509.1878 0.825 0.015 0.566 120 63 22
-1520.5452 2482.0439 -537.2599 0.812 -0.374 -0.449 125 52 17
-1519.2957 2488.1189 -540.0605 0.812 -0.374 -0.449 125 52 17
-1513.6188 2487.2632 -541.2529 0.706 -0.708 -0.001 119 46 13
-1510.8223 2490.9143 -543.4907 0.679 -0.725 0.116 114 41 9
-1507.2367 2493.3193 -545.4375 0.542 -0.736 0.404 110 37 7
-1504.7428 2497.4492 -547.7873 0.780 -0.610 0.136 110 39 7
-1509.1630 2520.7651 -556.0373 0.674 -0.410 -0.615 119 49 13
-1505.5621 2523.1899 -557.9962 0.516 -0.663 -0.543 122 52 16
-1499.6837 2521.9390 -559.0831 0.251 -0.879 -0.406 124 54 18
-1511.7139 2768.9211 -655.9072 0.387 -0.474 -0.791 151 77 38
-1304.1311 2991.0515 -802.2063 0.199 -0.938 0.283 31 27 28
-1282.3918 3028.1904 -823.1507 0.214 -0.754 0.621 42 30 30
-1176.4832 3037.7239 -855.7301 0.327 -0.930 -0.171 125 80 58
-2336.9980 1370.1554 129.3549 0.984 -0.005 -0.175 84 66 52
-2338.4399 1375.5258 127.5594 0.986 -0.012 -0.166 132 114 100
-2352.8542 1392.0074 124.7405 0.835 0.152 -0.529 182 165 152
-2358.3525 1408.9937 119.3139 0.875 -0.148 -0.461 187 156 135
-2370.1255 1419.6829 118.1390 0.969 -0.238 -0.072 186 156 132
-2302.4363 1471.7479 78.7261 -0.036 -0.909 -0.415 184 153 132
-2294.8442 1472.5220 76.3657 -0.036 -0.909 -0.415 209 178 157
-2290.5410 1475.0686 74.1705 -0.027 -0.910 -0.413 217 188 166
-2297.6409 1488.7805 70.5071 0.984 -0.083 -0.158 220 193 172
-2292.5662 1495.8577 66.2615 0.950 0.304 -0.069 205 180 158
-2294.1135 1501.6727 64.3136 0.933 0.015 -0.359 198 173 151
-2308.2144 1514.5259 62.8858 0.398 -0.552 0.733 199 174 152
-2305.0796 1517.7820 60.7170 0.312 -0.616 0.723 198 173 151
-2298.0662 1518.8507 58.3926 0.338 -0.616 0.712 191 168 147
-2289.7231 1519.1482 56.0236 0.324 -0.634 0.703 143 127 113
-2295.8030 1527.6158 54.2181 0.540 -0.244 0.806 86 72 59
-2189.0945 1907.5858 -129.0627 0.900 0.070 0.431 30 31 35
-2707.3584 2565.1799 -256.8509 0.477 -0.814 0.332 28 6 3
-2336.8481 2781.9885 -444.8574 0.982 0.147 -0.121 213 161 150
-2407.6785 2917.2410 -480.7774 0.781 0.006 0.625 194 137 126
-2292.2808 2941.5374 -521.7523 0.359 -0.864 0.353 204 142 127
-2247.2415 2962.1750 -542.2811 0.812 -0.202 0.547 179 147 130
-2246.2039 2970.4626 -545.9311 0.806 -0.202 0.556 175 146 131
-2242.7627 2975.7432 -549.0059 0.806 -0.202 0.556 136 113 102
-2193.7471 2999.9678 -572.0649 0.803 0.301 -0.514 61 40 34
-1842.4692 2633.0088 -517.4795 0.665 -0.179 0.725 15 9 2
-1806.9918 2601.4966 -514.2233 0.670 -0.154 0.726 46 37 26
-1519.9888 2477.2324 -541.0195 0.846 -0.482 -0.229 143 70 35
-1517.9312 2482.0293 -543.5247 0.846 -0.482 -0.229 142 69 34
-1512.7780 2481.9854 -544.8954 0.730 -0.683 -0.023 143 70 37
-1509.7649 2485.2817 -547.0479 0.730 -0.683 -0.023 142 69 36
-1506.7522 2488.5779 -549.2001 0.730 -0.683 -0.023 142 69 36
-1504.1464 2492.5176 -551.5045 0.734 -0.673 -0.093 138 68 34
-1512.5320 2522.1077 -561.2789 0.673 -0.416 -0.612 126 56 20
-1363.6494 2758.7917 -697.6511 0.990 0.143 -0.016 164 90 51
-1365.6771 2772.2957 -702.5966 0.990 0.143 -0.016 160 87 46
-1360.2883 2909.1824 -759.7184 0.728 0.418 0.544 69 31 16
-1279.0227 2907.9268 -781.1047 0.102 -0.920 0.379 37 35 38
-1285.1040 2932.0742 -789.2865 0.057 -0.902 0.427 39 34 38
-1288.7817 2950.9451 -795.9701 0.267 -0.842 0.469 33 27 29
-1284.3665 2951.5464 -797.4043 0.267 -0.842 0.469 27 21 21
-1283.1575 3024.4810 -827.3915 0.214 -0.754 0.621 42 30 30
-1269.7622 3004.0925 -822.7092 0.342 -0.441 0.829 43 31 31
-1244.9351 3000.1289 -827.7869 0.942 -0.048 0.331 26 13 13
-2356.7712 1368.1816 130.1205 0.969 0.023 0.247 53 37 24
-2356.3857 1372.6721 128.1846 0.969 0.023 0.247 93 75 61
-2355.4065 1376.8843 126.2033 0.969 0.007 0.246 144 126 112
-2336.7986 1372.5009 123.0099 0.987 -0.029 -0.159 172 154 140
-2338.9600 1378.2308 121.2500 0.952 -0.074 -0.298 180 162 148
-2374.8455 1414.9430 115.8751 0.734 -0.554 -0.393 186 155 134
-2289.3369 1462.3414 73.6345 0.052 -0.851 -0.523 148 117 96
-2301.2593 1483.4846 68.1976 0.996 -0.089 0.014 214 187 166
-2300.0403 1487.7433 66.1331 0.991 -0.135 0.012 211 186 164
-2293.1970 1498.7935 59.7907 0.993 0.115 -0.013 195 170 148
-2304.7141 1510.1812 58.2268 0.391 -0.557 0.733 198 173 153
-2298.9785 1521.9844 51.8738 0.375 -0.469 0.800 86 70 57
-2400.4187 2895.0110 -481.3456 0.772 0.018 0.635 188 131 120
-2288.2183 2931.9600 -526.4683 0.382 -0.701 0.602 204 143 125
-2245.8252 2946.1873 -543.6261 0.283 -0.523 0.804 176 139 121
-2254.7610 2976.5034 -553.6065 0.512 -0.193 0.837 102 71 58
-2251.5022 2982.0420 -556.7396 0.783 -0.202 0.589 58 32 24
-2239.7378 2976.8342 -557.7641 0.799 -0.210 0.563 46 21 14
-2236.2212 2982.0200 -560.8222 0.799 -0.210 0.563 34 9 3
-2228.4978 2981.8533 -562.8222 0.771 -0.232 0.593 34 9 3
-1552.2869 2467.1587 -533.8180 0.366 -0.852 0.375 142 70 30
-1545.5195 2464.8198 -534.6754 0.330 -0.886 0.324 143 71 31
-1526.7750 2475.8364 -544.1907 0.323 -0.871 -0.369 143 70 35
-1517.1538 2468.8945 -543.9336 0.879 -0.476 0.033 143 70 35
-1514.9546 2473.4434 -546.3790 0.823 -0.567 -0.025 143 70 35
-1512.3365 2477.3452 -548.6725 0.823 -0.567 -0.025 142 69 34
-1510.0863 2481.8284 -551.1047 0.812 -0.579 -0.070 142 69 34
-1508.3087 2487.0640 -553.7174 0.730 -0.683 -0.023 143 70 35
-1505.2963 2490.3599 -555.8693 0.730 -0.683 -0.023 139 69 34
-1502.4653 2493.9429 -558.0897 0.999 -0.033 -0.014 132 62 26
-1504.5592 2505.3723 -562.1938 0.882 -0.322 -0.345 126 56 20
-1277.4288 3005.6323 -827.1835 0.848 0.241 0.471 35 25 26
-1276.6506 3014.7703 -831.1214 0.850 0.234 0.472 37 25 25
-1181.9777 3040.4194 -866.9391 0.521 -0.807 0.279 128 83 60
-1175.6760 3035.6343 -866.6735 0.283 -0.958 0.051 123 77 54
-2355.3552 1355.9783 129.3777 0.985 0.102 0.140 45 28 14
-2355.5815 1360.7313 127.4912 0.985 0.102 0.140 57 39 25
-2354.3372 1364.7899 125.4978 0.983 0.106 0.147 107 89 74
-2356.2656 1370.3871 123.7183 0.984 0.094 0.150 159 140 125
-2354.2327 1374.0831 121.6636 0.969 0.007 0.246 189 170 155
-2337.5581 1370.6515 118.6326 0.987 -0.029 -0.159 187 168 153
-2339.5088 1376.2720 116.8495 0.987 -0.028 -0.156 171 152 137
-2284.7166 1481.8920 59.0108 0.959 0.219 -0.182 204 179 157
-2291.8108 1490.7202 57.2824 0.953 0.295 -0.066 204 182 161
-2293.6902 1496.7013 55.3326 0.655 -0.024 0.755 196 174 153
-2301.9607 1506.2631 53.6168 0.553 -0.316 0.771 201 179 158
-2061.4299 1785.6617 -124.8181 0.796 0.137 -0.590 31 31 34
-2083.8313 1814.2330 -130.5602 0.724 -0.577 -0.378 30 31 35
-2310.0964 2953.8818 -537.1417 0.324 -0.910 -0.258 205 144 126
-2301.4778 2952.9397 -539.0490 0.314 -0.919 -0.239 206 144 130
-2265.0933 3053.2056 -589.7971 0.365 -0.240 0.900 70 43 34
-1545.9019 2453.6113 -535.5654 0.561 -0.716 0.415 142 70 30
-1541.8307 2455.3279 -537.3516 0.636 -0.683 0.358 142 70 30
-1538.1964 2457.6970 -539.2889 0.636 -0.683 0.358 142 70 30
-1531.9952 2471.9919 -546.7939 0.354 -0.898 -0.260 143 70 35
-1503.5291 2443.8574 -542.8444 0.945 -0.239 0.222 143 70 35
-1506.5581 2456.4517 -547.1968 0.947 -0.251 0.199 142 69 34
-1513.1750 2474.7148 -552.9166 0.787 -0.600 -0.141 143 70 35
-1510.5828 2478.6560 -555.2205 0.834 -0.549 -0.058 142 69 34
-1510.2983 2486.2307 -558.3986 0.801 -0.594 -0.078 143 70 35
-1503.8965 2484.1794 -559.2618 0.999 -0.023 -0.023 139 69 32
-1503.7041 2491.9255 -562.4857 0.999 -0.020 -0.029 133 63 27
-1506.1189 2503.8491 -566.7269 1.000 -0.010 0.008 126 56 20
-1518.7627 2532.1599 -574.9584 0.687 -0.367 -0.627 123 53 17
-1362.8508 2647.0039 -663.4800 0.686 0.247 0.685 164 89 49
-1364.7424 2695.8289 -682.9746 0.785 0.298 0.543 167 92 52
-1359.9363 2742.1152 -703.2115 0.720 0.126 0.683 149 78 36
-1359.2148 2750.1011 -706.6744 0.826 0.150 0.544 142 71 29
-1263.7762 2823.0229 -761.9352 0.871 0.339 0.354 43 39 40
-1274.7345 2857.2795 -773.0505 0.794 0.250 0.554 44 40 41
-1247.7220 2837.6731 -772.2072 0.601 -0.318 -0.733 40 36 37
-1248.4469 2849.4636 -776.8436 0.642 -0.316 -0.699 32 26 27
-1223.3125 2874.2161 -793.6692 -0.031 -0.921 0.387 28 19 20
-1183.3740 3038.2800 -871.4937 0.463 -0.846 0.265 126 83 62
-2362.8940 1352.7158 127.3681 0.343 -0.495 0.798 54 39 28
-2354.8733 1353.5436 124.9074 0.985 0.100 0.143 69 50 35
-2354.6658 1358.0823 122.9870 0.985 0.102 0.140 118 98 81
-2353.2183 1362.0369 120.9788 0.984 0.105 0.143 172 149 133
-2353.1165 1366.6456 119.0575 0.986 0.113 0.125 178 156 138
-2352.9048 1371.2126 117.1244 0.979 -0.147 0.139 178 156 138
-2301.4341 1483.8013 57.2389 0.990 -0.137 -0.023 193 169 150
-2288.5034 1491.4673 50.6693 0.655 -0.024 0.755 194 173 153
-2296.6621 1500.9398 48.9328 0.551 -0.317 0.772 145 124 104
-2291.4832 1503.0190 46.7089 0.555 -0.236 0.797 82 61 41
-2118.8853 1759.2793 -104.2538 0.600 -0.781 -0.172 32 26 15
-1642.7804 1584.9963 -158.4883 0.743 -0.332 0.581 35 25 32
-2356.5212 2808.8784 -472.8502 0.875 0.474 -0.101 203 147 133
-2371.0750 2834.3210 -479.4604 0.875 0.474 -0.101 190 134 120
-2287.3708 2931.1333 -541.3829 0.224 -0.489 0.843 207 147 132
-1712.9036 2415.1121 -481.1558 0.739 0.377 -0.558 36 15 3
-1783.4115 2540.9839 -514.2529 -0.151 -0.571 0.807 81 61 46
-1550.2212 2464.1494 -544.3212 0.756 -0.638 0.147 136 68 27
-1517.6156 2430.3257 -539.0386 0.884 -0.319 0.343 137 68 29
-1519.5389 2441.0835 -542.9520 0.905 -0.312 0.290 138 69 30
-1520.0194 2449.6792 -546.3581 0.886 -0.343 0.312 140 67 31
-1517.5876 2453.8232 -548.7044 0.886 -0.343 0.312 139 67 31
-1514.1316 2480.2639 -560.4861 0.862 -0.211 0.461 142 70 32
-1506.7488 2500.8501 -570.8995 0.999 -0.034 -0.022 125 55 19
-1354.6040 2671.8345 -681.4036 0.872 -0.243 0.425 171 92 53
-1357.9214 2742.8767 -709.7274 0.773 0.286 0.566 169 101 59
-1341.1687 2747.2917 -715.9711 0.837 0.165 0.522 143 87 57
-1258.7736 2797.1379 -758.2430 0.972 0.075 -0.222 34 29 30
-1263.1371 2816.6401 -765.1055 0.970 0.136 -0.201 37 32 32
-1268.0298 2837.4370 -772.3602 0.812 0.273 0.516 38 33 33
-1246.8821 2830.7498 -775.2025 0.557 -0.298 -0.775 34 27 28
-1183.2401 2921.2891 -829.2427 0.905 -0.369 0.211 42 26 21
-1208.1791 3038.5664 -870.8545 0.538 -0.451 -0.712 111 75 56
-2358.1987 1348.2925 122.6082 0.343 -0.495 0.798 87 67 50
-2351.8184 1349.8912 120.2727 0.956 0.231 0.180 144 119 100
-2351.9382 1359.2118 116.4596 0.986 0.113 0.125 183 154 131
-2346.5193 1361.2554 114.1932 0.980 -0.194 0.052 183 153 131
-2343.8914 1364.6359 112.1084 0.724 -0.679 -0.124 184 155 132
-2249.2402 1414.9852 66.4766 0.808 -0.198 0.555 193 162 141
-2282.0383 1475.7469 50.0290 0.955 0.254 -0.153 183 170 156
-2132.0195 1738.5382 -97.7761 0.607 -0.527 0.594 49 41 32
-2122.1899 1759.0284 -108.8101 0.627 -0.761 -0.166 14 10 6
-2094.6943 1817.1351 -140.0009 0.787 -0.600 -0.145 32 38 47
-2071.8506 2001.4299 -222.0204 0.143 -0.586 -0.798 51 37 35
-2067.7688 2004.1104 -224.1982 0.166 -0.578 -0.799 42 25 24
-2062.7988 2006.0016 -226.2839 0.166 -0.583 -0.795 102 83 80
-2059.1487 2009.0480 -228.4993 0.177 -0.587 -0.790 176 151 148
-2257.1511 2650.3906 -441.0306 0.837 0.544 -0.064 219 162 149
-2322.5427 3066.8562 -595.6387 0.889 -0.254 0.382 60 29 21
-2319.4075 3072.8657 -598.9411 0.889 -0.254 0.382 75 44 36
-2174.4912 2936.9912 -580.9624 0.419 -0.123 0.899 74 41 34
-1808.6547 2546.5234 -516.0007 0.739 0.325 -0.590 53 27 10
-1779.3875 2531.5959 -517.5314 -0.155 -0.579 0.800 113 88 70
-1764.0760 2518.9883 -516.3531 -0.013 -0.445 0.896 108 83 65
-1640.6517 2443.3953 -517.5939 0.467 -0.406 0.785 132 78 46
-1572.8192 2454.7012 -540.0760 0.902 -0.432 -0.026 112 49 8
-1509.0957 2500.5764 -575.7382 0.735 -0.434 -0.521 122 54 15
-1424.2156 2500.1968 -597.8784 0.749 -0.322 0.578 136 63 23
-1348.9502 2665.5354 -685.8491 0.925 -0.373 -0.066 172 90 51
-1350.8478 2678.2615 -690.5999 0.899 -0.414 0.143 164 97 53
-1340.5172 2722.5515 -711.5826 0.865 0.082 0.495 163 109 73
-1338.0938 2727.0820 -714.0879 0.845 0.107 0.525 149 106 81
-1338.6915 2737.6558 -718.2925 0.882 0.096 0.461 136 104 85
-1339.2559 2748.2173 -722.5007 0.887 0.097 0.452 130 97 76
-1338.9171 2757.0156 -726.2188 0.886 0.106 0.452 124 90 70
-1336.1993 2761.0476 -728.5958 0.855 -0.064 0.515 110 75 55
-1342.4302 2783.2366 -736.1117 0.942 0.047 0.331 99 65 45
-1254.3978 2763.1116 -750.9353 0.939 -0.033 -0.341 35 28 26
-1255.8253 2775.9678 -755.8633 0.922 -0.084 -0.379 30 22 19
-1255.8778 2785.8953 -759.9444 0.928 -0.084 -0.362 28 18 17
-1257.5853 2799.5032 -765.1089 0.930 -0.074 -0.360 34 24 21
-1268.6107 2843.7830 -780.4774 0.761 0.223 0.609 41 31 28
-2360.5220 1342.5768 120.2443 0.343 -0.496 0.798 91 70 53
-2345.8245 1363.3560 107.8071 0.724 -0.679 -0.124 185 155 131
-2156.7161 1748.0613 -100.7918 0.992 -0.113 0.053 49 40 31
-2155.8914 1753.0187 -103.0591 0.993 -0.101 0.054 49 41 32
-2153.4761 1756.8423 -105.2722 0.992 -0.123 0.037 43 39 33
-2123.8413 1757.5643 -113.3056 0.617 -0.768 -0.171 13 9 6
-2077.9729 1991.2606 -222.0118 0.209 -0.924 -0.320 51 37 36
-2080.2671 2005.7538 -227.4122 0.384 -0.614 -0.690 53 42 40
-2082.1116 2013.6521 -230.2002 0.130 -0.853 -0.505 47 35 33
-1800.6915 2531.9617 -518.1953 0.009 -0.432 0.902 100 71 53
-1795.5835 2533.2188 -520.0489 -0.006 -0.451 0.892 136 108 87
-1787.8784 2530.9802 -521.1333 -0.006 -0.451 0.892 141 112 94
-1772.0925 2517.8398 -519.8140 -0.027 -0.469 0.883 144 117 98
-1760.5125 2510.2498 -519.6946 -0.012 -0.445 0.895 133 106 87
-1755.5085 2511.4792 -521.5095 -0.020 -0.460 0.888 126 96 76
-1683.4159 2468.1335 -522.3831 0.749 -0.557 0.359 149 116 90
-1680.5178 2471.9653 -524.7256 0.686 -0.616 0.387 152 114 88
-1645.8567 2431.3931 -516.9778 0.830 -0.105 0.548 163 118 90
-1642.6438 2434.6265 -519.1547 0.461 -0.407 0.789 169 119 89
-1638.2264 2436.1619 -520.9432 0.461 -0.407 0.789 153 102 71
-1579.1050 2483.9226 -556.1434 -0.147 -0.972 0.181 114 49 9
-1512.9041 2502.6094 -581.1566 0.980 -0.037 -0.194 122 54 15
-1346.1886 2559.2590 -648.1177 0.432 -0.774 -0.462 169 79 47
-1352.3195 2649.5159 -683.8781 0.075 -0.955 -0.288 142 62 28
-1350.2433 2654.5281 -686.4946 0.426 -0.886 -0.182 155 72 42
-1350.1436 2663.3450 -690.1703 0.925 -0.373 -0.066 161 82 51
-1357.0026 2685.6091 -697.5960 0.650 -0.677 0.345 151 92 55
-1339.7246 2697.8420 -707.1691 0.753 0.132 0.644 155 97 60
-1338.9758 2714.8745 -714.4148 0.904 0.100 0.416 136 89 56
-1338.2579 2722.7668 -717.8691 0.904 0.100 0.416 115 78 57
-1337.2650 2730.1453 -721.1824 0.882 0.100 0.461 103 75 61
-1337.6775 2740.3667 -725.3057 0.883 0.102 0.459 97 69 53
-1336.7921 2748.0325 -728.7100 0.883 0.102 0.459 90 61 46
-1334.9449 2753.7908 -731.5756 0.855 -0.064 0.515 75 46 31
-1267.2590 2756.8906 -750.5244 0.828 0.177 0.532 29 27 25
-1251.8796 2772.2866 -760.9113 0.796 0.263 0.545 34 27 21
-1258.5461 2796.6809 -769.2690 0.802 0.270 0.532 46 38 32
-1259.0637 2807.7297 -773.7074 0.797 0.256 0.547 58 51 44
-1259.5449 2818.7585 -778.1470 0.805 0.279 0.524 75 67 61
-1258.7174 2826.9487 -781.7532 0.802 0.274 0.530 83 75 68
-1258.9216 2837.4707 -786.0553 0.757 0.264 0.598 76 68 63
-1258.8489 2857.6047 -794.4084 0.745 0.243 0.621 49 41 35
-1189.2881 3002.3420 -872.4751 0.395 -0.513 -0.762 102 73 57
-2356.9004 1324.9535 121.2943 0.506 -0.383 0.772 56 33 15
-2347.9814 1325.3776 118.8055 0.438 -0.488 0.755 64 43 26
-2363.7925 1337.3147 117.9468 0.179 -0.537 0.825 106 87 72
-2334.6624 1328.2682 114.1510 0.423 -0.509 0.750 162 141 124
-2329.8054 1330.5382 111.9486 0.420 -0.501 0.757 179 157 140
-2343.5725 1355.4299 105.1790 0.904 -0.427 -0.004 185 153 128
-2361.9990 1368.9248 104.3515 0.927 -0.364 -0.090 185 155 131
-2295.5789 1463.8289 47.7069 0.943 0.302 0.140 190 162 145
-2157.4683 1740.4058 -102.9912 0.992 -0.113 0.053 49 41 30
-2156.7764 1745.4396 -105.2615 0.992 -0.113 0.053 49 40 31
-2156.0830 1750.4843 -107.5368 0.992 -0.113 0.053 49 41 32
-2153.6250 1754.2728 -109.7479 0.992 -0.123 0.037 35 31 26
-2079.7954 1783.3203 -140.9581 0.739 0.075 -0.670 30 30 35
-2255.4368 1960.0046 -168.8051 0.448 -0.841 -0.304 38 44 56
-2080.7590 2009.4215 -234.6268 0.117 -0.866 -0.487 57 46 44
-2389.2505 2769.3748 -470.3048 -0.025 -0.925 -0.380 213 155 141
-2381.7778 2770.0950 -472.5417 -0.025 -0.925 -0.380 213 155 141
-2416.8640 2835.6780 -490.6857 0.666 -0.696 0.268 196 138 124
-2290.8806 2902.7756 -551.2251 0.705 -0.653 0.277 163 111 91
-2290.5090 2911.6936 -555.0258 0.161 -0.499 0.852 122 71 52
-2054.7881 2730.3181 -540.8093 0.919 0.134 -0.372 78 43 37
-2178.6086 2904.7102 -581.1414 0.294 -0.590 0.752 78 43 37
-2073.1401 2788.9646 -560.4112 0.914 0.154 0.374 79 45 36
-1782.8661 2512.3289 -520.7711 -0.027 -0.436 0.900 152 121 101
-1774.1060 2508.6218 -521.5027 -0.027 -0.434 0.900 147 118 100
-1756.4988 2492.9937 -519.5767 -0.023 -0.435 0.900 141 114 95
-1746.2505 2487.1331 -519.7998 -0.034 -0.447 0.894 126 97 79
-1672.9482 2449.7759 -523.2899 0.748 -0.400 0.530 143 111 85
-1669.6676 2453.0149 -525.4860 0.837 -0.287 0.465 146 110 83
-1654.2811 2439.3572 -523.8027 0.797 -0.188 0.575 152 109 81
-1641.5911 2429.3521 -522.9373 0.460 -0.067 0.885 161 111 80
-1635.7366 2428.8574 -524.2499 0.465 -0.047 0.884 150 99 68
-1631.9711 2431.2810 -526.2331 0.420 -0.064 0.905 124 71 39
-1486.7874 2433.7336 -564.8988 0.111 -0.992 0.058 127 55 15
-1343.6123 2550.2935 -650.4417 0.397 -0.803 -0.445 164 82 46
-1332.1786 2546.2283 -651.7180 0.757 -0.441 -0.483 163 84 47
-1355.3341 2650.8081 -689.1543 0.437 -0.883 -0.173 142 75 40
-1352.5286 2654.4363 -691.3889 0.426 -0.886 -0.182 142 70 38
-1349.9470 2658.4949 -693.7441 0.368 -0.871 0.325 133 67 37
-1343.3685 2691.2202 -709.0435 0.774 0.245 0.584 126 80 50
-1344.4608 2702.5564 -713.4691 0.764 0.221 0.606 117 69 38
-1342.5148 2707.9758 -716.2249 0.801 0.119 0.586 103 58 27
-1343.7461 2719.6851 -720.7694 0.694 0.022 0.719 89 50 25
-1340.3409 2722.2664 -722.7246 0.826 0.081 0.558 79 49 32
-1337.5647 2735.4678 -728.9281 0.886 0.121 0.449 61 39 27
-1336.8773 2743.5098 -732.4469 0.886 0.121 0.449 57 36 23
-1340.5992 2769.9995 -742.4852 0.938 0.074 0.338 59 36 24
-1273.2029 2784.2410 -765.8771 0.786 0.399 0.472 31 29 25
-1240.0121 2741.6033 -756.7726 0.787 0.324 0.525 39 33 28
-1245.1237 2762.4448 -764.1044 0.818 0.339 0.465 59 51 45
-1246.0011 2774.1392 -768.7344 0.824 0.323 0.465 77 67 64
-1249.0677 2790.7190 -774.8262 0.824 0.323 0.465 68 58 55
-1248.6534 2799.7085 -778.6678 0.823 0.321 0.469 54 44 41
-1253.3281 2840.1802 -794.2668 0.766 0.272 0.582 43 33 31
-1245.0518 2831.7454 -792.9093 0.953 0.185 0.240 42 31 30
-1245.4006 2842.6626 -797.3536 0.952 0.186 0.244 36 25 24
-1194.9648 2818.4331 -800.3674 0.963 -0.210 0.168 25 20 14
-1199.2240 2890.7268 -829.2926 0.978 0.008 0.209 25 17 6
-1187.6813 2873.5640 -825.1565 0.993 -0.091 -0.069 25 18 5
-2342.4817 1320.6639 114.0688 0.875 -0.233 0.423 111 90 73
-2856.5410 1703.0417 87.1112 -0.170 -0.981 0.096 194 159 137
-2294.7405 1456.2083 45.2708 0.904 0.092 0.418 192 163 145
-2295.9292 1461.6971 43.2891 0.944 0.300 0.137 187 159 142
-2123.5393 1831.0420 -155.0759 0.736 0.159 -0.658 31 37 49
-2087.2095 2012.0153 -239.8704 0.111 -0.852 -0.512 63 52 50
-2397.9331 2774.4971 -477.6499 0.242 -0.947 -0.210 213 155 141
-2389.0886 2773.7520 -479.6178 0.216 -0.885 -0.413 209 151 137
-2315.1658 2701.6411 -468.6033 0.106 -0.947 -0.303 201 143 129
-2297.8357 2691.2295 -468.7280 0.607 -0.655 0.451 197 139 125
-2294.8745 2893.6628 -553.8714 0.515 -0.853 -0.080 139 92 75
-2289.8357 2896.9556 -556.5421 0.515 -0.853 -0.080 108 61 45
-2332.4878 3005.7566 -590.9058 0.857 -0.310 -0.412 50 17 8
-1674.9401 2448.7100 -528.1055 0.820 -0.235 0.521 151 119 94
-1667.3730 2446.0017 -528.9260 0.843 -0.255 0.473 155 120 93
-1662.5712 2447.1003 -530.6210 0.739 -0.286 0.609 152 108 81
-1618.5968 2424.0081 -532.3239 0.355 -0.127 0.926 110 61 29
-1396.1312 2481.2063 -613.4764 0.670 -0.176 0.722 149 74 34
-1385.2288 2528.2170 -635.8806 0.505 -0.330 0.797 154 79 39
-1334.8301 2513.1865 -642.5989 0.484 -0.703 -0.522 147 77 38
-1347.4409 2544.6038 -652.4459 0.386 -0.459 -0.800 147 77 38
-1357.5889 2650.6482 -694.0342 0.437 -0.883 -0.173 146 91 55
-1353.9969 2652.7830 -695.8495 0.437 -0.883 -0.173 129 71 38
-1349.6791 2653.5205 -697.2692 0.249 -0.939 0.239 114 61 32
-1346.6071 2656.6287 -699.3562 0.344 -0.872 0.348 105 68 41
-1340.7649 2690.7529 -715.0854 0.767 0.226 0.600 77 41 19
-1339.1655 2696.8103 -718.0223 0.803 0.119 0.584 66 32 10
-1336.3656 2728.4150 -731.9175 0.807 0.321 0.495 43 26 20
-1349.4360 2783.0796 -751.3362 0.924 0.303 0.233 53 36 30
-1254.8221 2749.5591 -761.7379 0.802 0.406 0.437 30 24 23
-1234.9713 2745.1233 -765.0027 0.797 0.353 0.491 74 66 61
-1237.5887 2760.5818 -770.7720 0.791 0.350 0.503 47 39 33
-1237.7761 2770.7749 -774.9725 0.800 0.339 0.494 24 16 10
-1242.7975 2801.6553 -786.5509 0.787 0.321 0.527 13 5 2
-1232.7129 2799.0632 -788.0684 0.808 0.290 0.512 39 30 28
-1233.7864 2811.4724 -792.9644 0.810 0.289 0.510 38 29 27
-1239.1367 2833.6150 -800.8157 0.811 0.279 0.515 37 29 27
-1190.0848 2905.8523 -843.5630 0.994 -0.001 -0.108 36 24 14
-1192.0720 2921.4014 -849.5325 0.986 -0.124 -0.115 46 32 21
-1195.3324 2940.1670 -856.5147 0.881 -0.470 -0.058 47 30 17
-2339.6887 1317.2161 109.5284 0.870 -0.236 0.433 174 153 136
-2296.8774 1455.0411 40.9224 0.581 -0.112 0.806 198 167 147
-2295.0837 1458.9257 38.8384 0.945 0.295 0.139 150 121 102
-2296.5542 1464.5750 36.8518 0.945 0.295 0.139 64 46 30
-2274.1890 1457.3390 34.1546 0.731 -0.149 0.666 41 27 14
-2258.8643 1468.3217 25.6388 0.558 -0.242 0.794 43 31 17
-2098.1299 2018.4913 -245.6225 0.167 -0.960 -0.223 35 25 23
-2562.9360 2559.9045 -353.1295 0.694 -0.559 0.454 203 150 136
-2560.6980 2574.3228 -359.7331 0.373 -0.902 0.218 204 154 140
-2399.3025 2762.7771 -479.8651 0.637 -0.386 0.667 221 163 149
-2382.8806 2936.6086 -556.7782 0.844 -0.331 0.422 199 140 122
-2423.3262 3042.2368 -590.6094 0.918 0.078 -0.389 71 29 18
-2046.3679 2728.6274 -555.9059 0.544 0.165 -0.822 75 40 34
-1688.4457 2463.5386 -536.6258 0.869 -0.146 0.472 149 117 92
-1636.4396 2414.5908 -529.4616 0.418 -0.037 0.908 159 109 79
-1619.9019 2414.3848 -533.6078 0.415 -0.030 0.909 122 71 40
-1381.5214 2525.9031 -641.2614 0.858 -0.444 0.257 150 76 32
-1381.0570 2533.4458 -644.5352 0.734 -0.486 0.474 142 67 25
-1376.7072 2534.1169 -645.9293 0.944 -0.122 -0.308 150 73 31
-1391.1390 2585.3867 -663.6809 0.921 0.080 -0.381 138 63 22
-1336.9243 2512.8582 -647.2185 0.717 -0.516 -0.469 138 73 34
-1350.1023 2596.8413 -678.9744 0.667 -0.033 -0.744 140 92 66
-1356.9900 2618.4753 -686.2609 0.703 -0.035 -0.710 133 87 58
-1363.2551 2639.0776 -693.2750 0.653 -0.108 -0.750 128 81 52
-1368.4006 2657.6982 -699.7467 0.556 -0.252 -0.792 128 81 53
-1359.9510 2650.6860 -698.9761 0.447 -0.877 -0.175 116 74 44
-1356.3801 2652.8696 -700.8033 0.447 -0.877 -0.175 106 59 32
-1351.2007 2651.9741 -701.7543 0.249 -0.939 0.239 91 49 27
-1358.2469 2674.4651 -709.3585 0.384 -0.804 0.453 66 39 22
-1331.7078 2723.8298 -736.7990 0.945 0.297 0.135 40 30 28
-1338.3430 2746.5110 -744.5879 0.945 0.297 0.139 40 31 29
-1247.2588 2816.5959 -797.2138 0.686 0.388 0.615 23 13 8
-1190.1095 2868.9194 -833.7257 0.992 -0.062 -0.111 36 11 7
-1189.9579 2879.0540 -838.0036 0.992 -0.062 -0.111 36 13 7
-1193.6176 2898.4436 -845.1773 0.998 0.053 -0.034 35 11 6
-1194.0215 2910.0720 -849.9378 0.997 0.074 0.004 50 26 21
-1193.0466 2918.4111 -853.6754 0.999 -0.038 -0.039 60 36 29
-1199.7003 2945.4324 -863.2751 0.779 -0.564 0.274 55 30 20
-1191.6423 2947.4148 -866.1665 0.236 -0.948 0.214 75 43 28
-2360.4612 1324.6547 106.4298 0.757 0.034 0.653 182 161 144
-2327.7180 1314.0419 102.5598 0.418 -0.602 0.680 174 155 140
-2297.6206 1448.2981 38.5566 0.565 -0.137 0.814 188 160 139
-2293.1758 1450.7566 36.3947 0.597 -0.073 0.799 148 120 99
-2293.5244 1455.7767 34.3763 0.945 0.298 0.138 82 55 35
-2294.8911 1461.3589 32.3808 0.945 0.295 0.139 45 28 13
-2102.9102 1798.3734 -157.8826 0.754 0.104 -0.649 41 46 58
-2104.4988 2014.6583 -248.2598 0.215 -0.914 -0.345 31 21 19
-2102.4424 2019.1876 -250.6838 0.188 -0.919 -0.348 35 25 23
-2409.5500 2823.3843 -510.1508 0.524 -0.693 0.495 210 153 137
-2278.5215 2801.4338 -534.2498 0.797 -0.171 0.579 193 131 113
-2381.6467 2930.5500 -562.2255 0.841 -0.341 0.420 193 134 116
-2130.1511 2646.0295 -506.7430 0.828 -0.253 0.500 186 132 116
-1727.2183 2450.0452 -526.9227 -0.035 -0.435 0.900 32 4 0
-1632.9800 2398.3938 -529.2019 0.747 -0.213 0.630 156 113 84
-1628.7029 2400.0508 -530.9848 0.723 -0.216 0.656 160 109 81
-1403.4849 2485.7051 -624.1949 0.904 0.042 0.426 140 65 25
-1378.0817 2524.0461 -646.7462 0.752 -0.525 -0.398 151 74 32
-1394.5105 2587.1794 -669.0682 0.922 0.087 -0.377 136 65 24
-1395.6899 2597.9263 -673.2791 0.880 0.075 -0.469 135 70 29
-1363.2098 2625.7407 -693.2112 0.674 -0.051 -0.737 102 66 40
-1370.3502 2647.9861 -700.7330 0.653 -0.108 -0.750 96 61 37
-1354.5916 2653.9880 -707.2585 0.231 -0.896 0.378 64 31 13
-1351.2915 2656.6748 -709.2253 0.240 -0.923 0.300 52 35 22
-1216.1316 2684.9875 -755.4715 0.747 0.331 0.576 77 66 61
-1231.0573 2775.5867 -789.7040 0.703 0.370 0.607 24 13 12
-1236.4691 2797.5422 -797.5435 0.703 0.389 0.595 23 12 11
-1240.7008 2817.0007 -804.6349 0.690 0.393 0.607 30 18 18
-1190.7130 2854.7234 -833.1770 0.892 -0.305 -0.333 51 27 19
-1194.5264 2874.2554 -840.4056 0.802 -0.200 -0.563 46 21 16
-1194.8368 2885.5127 -845.0517 0.767 -0.166 -0.619 41 14 10
-1196.5664 2900.2532 -850.7990 0.785 -0.123 -0.607 54 27 23
-1197.0547 2912.0828 -855.6400 0.877 -0.099 -0.470 72 45 41
-1196.0730 2920.4099 -859.3848 0.993 -0.112 -0.036 82 56 52
-1199.9918 2940.7285 -866.9167 0.776 -0.530 0.341 75 47 42
-1198.2443 2947.3088 -870.1230 0.169 -0.916 0.364 75 48 38
-1190.2572 2938.5730 -868.4870 0.167 -0.930 0.327 73 44 31
-1185.6844 2938.1660 -869.4787 0.171 -0.926 0.336 68 37 22
-1185.7689 3038.6960 -911.6526 0.948 0.078 -0.308 84 47 30
-1188.1229 3056.2188 -918.4089 0.935 -0.124 -0.332 86 50 30
-2353.9131 1314.9319 103.5682 0.735 0.117 0.668 172 151 132
-2329.5039 1312.7264 98.3326 0.783 -0.061 0.618 174 155 140
-2272.2302 1408.8738 43.3732 0.956 0.046 0.289 190 162 141
-2286.2810 1425.6598 39.8518 0.599 -0.101 0.795 190 163 143
-2299.7991 1437.5326 38.2653 0.578 -0.087 0.811 190 163 144
-2293.3000 1453.3480 29.9628 0.951 0.288 0.115 57 31 14
-2293.2334 1458.1521 27.9226 0.945 0.295 0.139 47 30 15
-2136.6799 1704.3160 -115.2933 0.904 -0.398 0.157 50 42 31
-2106.5464 2019.6946 -255.7338 0.167 -0.867 -0.470 35 25 23
-2214.3040 2696.6826 -513.6523 0.880 -0.177 0.441 199 140 122
-2211.9575 2702.6077 -516.7405 0.880 -0.177 0.441 201 143 123
-1724.5779 2442.7087 -530.3628 -0.035 -0.435 0.900 56 26 10
-1557.5946 2479.7041 -588.1155 0.368 -0.560 -0.742 131 59 21
-1383.8340 2513.4204 -646.1986 0.710 -0.592 -0.380 147 69 31
-1383.3036 2520.7932 -649.4379 0.742 -0.569 -0.356 153 75 37
-1395.5447 2593.3865 -676.9211 0.948 0.132 -0.290 132 73 33
-1369.1453 2614.8247 -692.6174 0.834 0.021 -0.552 90 55 25
-1371.0496 2627.1523 -697.3287 0.827 0.011 -0.562 77 50 27
-1370.8948 2662.4788 -712.2465 0.998 0.040 -0.056 54 35 8
-1369.3944 2668.6448 -715.2224 0.978 -0.198 -0.071 57 32 8
-1366.8804 2672.9045 -717.6514 0.943 -0.330 0.048 54 31 14
-1362.7681 2674.1206 -719.2021 0.395 -0.810 0.434 39 31 22
-1319.2789 2635.3503 -713.8560 0.797 0.418 0.436 38 32 31
-1326.9739 2659.3452 -722.0189 0.799 0.421 0.429 37 32 33
-1217.4282 2645.8604 -744.0046 0.862 0.000 0.507 42 38 35
-1223.0262 2772.4709 -795.9164 0.690 0.393 0.607 45 33 29
-1193.6136 2835.7673 -830.0035 0.596 -0.248 -0.764 118 89 71
-1192.2749 2842.9062 -833.3483 0.909 -0.300 -0.290 118 89 75
-1192.6870 2854.2339 -838.0152 0.892 -0.305 -0.333 111 81 71
-1198.5450 2878.6135 -846.8040 0.809 -0.191 -0.556 96 65 59
-1199.0924 2890.4468 -851.6497 0.767 -0.166 -0.619 89 57 50
-1200.9447 2905.4856 -857.5158 0.785 -0.123 -0.607 98 66 59
-1200.6036 2915.3240 -861.7457 0.879 -0.090 -0.469 117 85 79
-1196.6896 2916.5532 -863.2520 0.980 -0.106 -0.167 126 94 88
-1199.1118 2933.1858 -869.6454 0.779 -0.571 0.257 118 88 79
-1197.0958 2939.0798 -872.6370 0.214 -0.958 0.189 103 73 60
-1191.3381 2935.8120 -872.7148 0.216 -0.954 0.208 93 63 47
-1187.1936 2936.4634 -874.0358 0.216 -0.954 0.208 81 52 33
-1188.7958 2951.3086 -879.8837 0.862 -0.332 -0.382 75 41 22
-1184.3734 3006.7776 -904.3628 0.995 0.037 -0.093 87 50 31
-1185.2950 3020.4128 -909.8729 0.995 0.039 -0.092 88 50 32
-1184.8075 3030.5286 -914.2567 0.995 0.065 -0.073 88 49 32
-1186.1776 3045.4690 -920.2032 0.989 -0.150 -0.002 95 58 38
-2348.6409 1314.8882 96.9870 0.776 0.037 0.630 171 152 135
-2292.1255 1426.4482 35.6615 0.809 0.139 0.571 188 165 147
-2293.6155 1431.9991 33.6893 0.580 -0.087 0.810 178 156 139
-2393.0469 2743.1218 -495.4824 0.638 -0.386 0.667 177 120 104
-2210.7454 2705.6296 -525.3688 0.849 -0.061 0.524 176 122 104
-1862.3025 2492.5833 -522.7393 0.802 0.499 0.329 48 16 10
-1852.1952 2535.4871 -543.4070 0.615 -0.272 0.741 90 54 38
-1721.8134 2435.2266 -533.7416 -0.036 -0.434 0.900 70 35 15
-1567.1875 2498.3289 -599.1993 0.431 -0.574 -0.697 126 56 17
-1511.7639 2429.6375 -584.0718 0.462 -0.711 -0.530 134 61 23
-1410.5490 2457.3501 -621.1746 0.862 -0.284 -0.420 140 69 30
-1405.3365 2456.6306 -622.1780 0.940 -0.230 -0.252 139 69 29
-1404.5211 2463.2847 -625.1947 0.940 -0.230 -0.252 142 69 30
-1403.7003 2469.9543 -628.2195 0.942 -0.226 -0.249 138 65 25
-1402.9424 2476.7559 -631.2841 0.944 -0.217 -0.250 135 61 21
-1402.1881 2483.5896 -634.3615 0.944 -0.217 -0.250 137 60 18
-1395.8881 2480.9731 -634.8361 0.798 -0.263 -0.542 137 60 18
-1399.1184 2502.8596 -643.2755 0.626 -0.525 0.577 131 53 14
-1395.1300 2504.2058 -644.8450 0.619 -0.534 0.576 128 50 11
-1389.9994 2520.0979 -652.8484 0.631 -0.354 -0.690 138 59 23
-1389.4287 2527.4231 -656.0874 0.631 -0.354 -0.690 141 65 30
-1396.4487 2582.1428 -677.4524 0.984 0.129 -0.126 131 69 31
-1355.8497 2526.2905 -664.0323 0.907 0.070 0.416 118 71 36
-1358.9738 2540.3369 -669.1849 0.889 0.018 0.457 115 69 37
-1349.3965 2531.4272 -667.8220 0.746 -0.164 -0.645 111 67 36
-1349.7498 2540.5044 -671.5696 0.721 -0.232 -0.653 106 62 33
-1365.5452 2586.4666 -687.0320 0.622 -0.141 -0.770 98 53 21
-1372.0449 2607.0959 -694.1201 0.667 -0.088 -0.739 88 51 25
-1371.5729 2614.9712 -697.5667 0.819 0.000 -0.574 64 39 20
-1374.1049 2628.4529 -702.6293 0.824 0.004 -0.567 53 37 25
-1379.0171 2646.4431 -709.0002 0.796 -0.046 -0.603 49 33 20
-1385.4644 2667.4126 -716.2451 0.601 -0.204 -0.773 46 31 18
-1369.5914 2646.6382 -711.4471 0.975 0.221 0.027 49 33 21
-1253.1851 2661.3162 -746.8518 -0.088 -0.995 -0.046 29 20 20
-1238.2559 2639.3718 -741.3227 0.425 -0.689 0.587 32 22 20
-1220.8485 2621.0989 -737.9667 0.038 -0.738 -0.673 30 19 15
-1216.7374 2639.8081 -746.9051 0.509 -0.779 0.366 46 34 31
-1203.1829 2638.3823 -749.7028 0.740 0.275 0.613 88 64 54
-1203.8872 2649.1453 -754.0748 0.744 0.279 0.608 96 69 56
-1200.3530 2650.7632 -755.6451 0.720 0.205 0.663 109 81 66
-1193.4703 2789.7527 -816.1122 0.610 -0.366 -0.703 129 85 63
-1192.2644 2797.0088 -819.4814 0.635 -0.123 -0.763 143 99 78
-1197.0861 2818.3562 -827.2939 0.684 -0.149 -0.714 148 104 81
-1199.0364 2833.1240 -833.0459 0.688 -0.167 -0.706 148 104 82
-1199.8765 2845.3728 -838.0118 0.596 -0.248 -0.764 148 103 83
-1194.0726 2842.0073 -838.0454 0.909 -0.300 -0.290 155 109 94
-1195.7242 2856.2600 -843.6546 0.889 -0.306 -0.340 152 106 95
-1201.9542 2881.4973 -852.7578 0.809 -0.191 -0.556 145 99 91
-1197.8723 2903.4150 -863.0447 0.982 -0.080 -0.172 157 111 100
-1196.3278 2910.3389 -866.3583 0.959 -0.190 -0.209 165 119 108
-1197.0337 2922.7571 -871.4296 0.771 -0.534 0.347 163 119 106
-1196.6265 2932.5334 -875.6635 0.502 -0.702 0.505 141 98 82
-1191.8038 2931.5493 -876.4573 0.488 -0.724 0.488 126 86 66
-1188.2979 2933.7656 -878.2734 0.399 -0.888 0.229 110 71 49
-1188.8025 2956.8008 -887.8822 0.880 -0.321 -0.351 77 38 19
-1182.5590 2985.3931 -901.5322 0.936 -0.333 -0.117 85 46 26
-1184.5768 3012.9307 -912.6642 0.991 0.093 -0.099 101 60 41
-2344.2075 1301.6996 96.2077 0.708 0.092 0.700 158 136 120
-2343.3616 1305.8097 94.2539 0.664 0.039 0.747 173 150 134
-2298.3655 1422.6700 33.4848 0.526 -0.080 0.846 179 168 154
-2294.6833 1425.5127 31.3618 0.541 -0.068 0.838 148 139 125
-2116.7500 2016.0848 -263.4200 0.343 -0.792 -0.505 23 17 11
-2114.4270 2026.7424 -268.5185 0.192 -0.863 -0.467 39 29 23
-2289.9180 2765.7881 -538.2021 -0.069 -0.866 0.496 191 153 140
-1854.1705 2486.3467 -528.2725 0.810 0.488 0.326 31 7 2
-1873.1426 2526.2656 -540.4739 0.811 0.519 0.268 48 8 6
-1733.2198 2438.9087 -538.2923 -0.241 -0.763 0.600 102 49 14
-1643.8221 2394.6018 -541.7780 0.605 -0.289 0.742 154 112 81
-1624.8104 2375.9451 -538.6031 0.694 -0.280 0.663 155 112 81
-1507.5032 2419.2896 -586.2137 0.388 -0.836 -0.389 123 59 21
-1426.7837 2456.3721 -622.0522 0.519 -0.159 0.840 126 63 26
-1416.0627 2446.6204 -620.5881 0.894 -0.361 -0.265 127 62 25
-1411.0928 2446.3308 -621.7036 0.768 -0.130 -0.628 133 67 29
-1408.9037 2450.6541 -624.0825 0.886 -0.245 -0.393 137 73 36
-1402.0303 2447.1416 -624.3055 0.773 -0.288 -0.566 136 73 35
-1399.6884 2459.2034 -630.0042 0.776 -0.311 -0.549 143 72 34
-1397.2523 2495.5933 -646.0432 0.802 -0.367 -0.470 147 68 28
-1395.4769 2500.7385 -648.6675 0.718 -0.479 -0.505 139 63 21
-1393.8046 2506.0759 -651.3477 0.718 -0.479 -0.505 133 55 17
-1390.2695 2566.8811 -678.0145 0.650 -0.342 -0.679 122 72 40
-1375.4573 2548.9014 -674.0804 0.635 -0.534 0.559 105 65 40
-1354.0586 2518.9268 -666.7008 0.907 0.070 0.416 93 60 39
-1356.4330 2531.5791 -671.4747 0.894 0.021 0.448 87 54 32
-1367.6731 2586.0854 -691.7889 0.713 -0.059 -0.699 66 34 14
-1377.5707 2612.9316 -700.7075 0.665 -0.092 -0.741 63 35 20
-1222.3190 2628.7720 -746.1087 0.210 -0.755 -0.621 49 29 24
-1215.1284 2631.8218 -749.1937 0.659 -0.485 0.575 66 46 39
-1210.3245 2639.9299 -753.8292 0.856 -0.114 0.504 95 61 47
-1200.7185 2628.5017 -751.3762 0.750 0.219 0.624 117 74 55
-1200.2823 2636.7551 -754.9849 0.688 0.201 0.698 134 85 64
-1191.1339 2653.9290 -764.5474 0.732 0.192 0.654 126 76 55
-1192.8665 2667.0938 -769.6986 0.734 0.260 0.628 121 71 50
-1210.3313 2744.1086 -798.0070 0.823 0.388 0.415 119 71 51
-1195.8456 2790.2419 -821.1803 0.658 -0.270 -0.703 140 86 59
-1203.3239 2827.8098 -835.2485 0.684 -0.149 -0.714 147 93 66
-1202.1699 2835.3438 -838.7310 0.956 0.019 -0.293 147 93 66
-1203.9171 2849.7188 -844.3917 0.941 -0.053 -0.333 147 93 67
-1198.5149 2847.3372 -844.7278 0.889 -0.307 -0.339 155 100 76
-1196.4780 2852.8699 -847.5816 0.888 -0.304 -0.345 158 102 80
-1204.1952 2881.5884 -857.8375 0.809 -0.201 -0.553 158 102 80
-1206.5704 2897.7717 -864.1086 0.797 -0.129 -0.590 158 102 79
-1198.2770 2899.0879 -866.7333 0.929 -0.134 -0.344 174 115 93
-1196.4146 2905.2263 -869.8005 0.967 -0.207 -0.147 179 122 100
-1198.1483 2920.1033 -875.6774 0.742 -0.670 0.006 183 127 104
-1194.1866 2921.2117 -877.1346 0.596 -0.648 0.474 171 118 95
-1191.9424 2926.4978 -879.9355 0.479 -0.727 0.493 158 108 84
-1187.8099 2927.1653 -881.2482 0.648 -0.611 0.456 144 95 71
-1185.1122 2931.3445 -883.6927 0.951 -0.305 -0.045 133 86 61
-1186.0404 3011.0061 -917.2438 0.984 0.167 0.055 105 59 43
-2340.3223 1293.3319 93.5663 0.730 0.106 0.675 179 162 147
-2339.5574 1297.4570 91.6218 0.725 0.103 0.681 174 154 137
-2295.8882 1414.3781 31.0620 0.728 -0.230 0.646 181 167 155
-2294.0391 1418.1594 28.9953 0.726 -0.227 0.649 150 141 129
-2289.5637 1420.5774 26.8588 0.726 -0.274 0.630 69 62 49
-2118.7781 2014.7751 -268.2516 0.345 -0.788 -0.511 22 17 11
-2574.0181 2542.0315 -379.9485 -0.045 -0.858 -0.512 209 156 140
-2255.5740 2670.7900 -513.5465 0.643 -0.442 0.626 200 143 123
-2291.1274 2754.0134 -540.1611 -0.081 -0.857 0.508 184 146 132
-1851.8013 2487.3682 -535.4218 0.796 0.501 0.338 43 9 5
-1871.9381 2528.8225 -548.0780 0.809 0.517 0.278 75 31 23
-1730.0959 2430.9863 -541.5496 -0.243 -0.770 0.590 110 54 17
-1719.2622 2424.2839 -541.3787 -0.207 -0.732 0.649 108 53 16
-1607.7397 2378.6235 -549.5487 0.104 -0.981 0.163 176 131 102
-1601.6454 2377.6184 -550.6292 0.103 -0.980 0.168 156 111 82
-1464.7622 2365.3523 -579.2854 0.690 -0.618 -0.377 117 53 15
-1417.8037 2445.5737 -625.0427 0.894 -0.361 -0.265 121 57 21
-1416.7556 2451.7993 -627.9511 0.787 -0.118 -0.606 124 58 23
-1415.7786 2458.1646 -630.9016 0.839 -0.287 -0.462 125 61 25
-1405.6340 2449.2307 -629.6105 0.792 -0.281 -0.542 124 61 26
-1405.1469 2472.4922 -639.6294 0.924 -0.288 -0.254 145 71 32
-1384.5175 2560.9087 -682.3580 0.449 -0.311 -0.838 87 53 33
-1371.7717 2546.5657 -679.4090 0.593 -0.471 -0.652 76 49 33
-1369.3324 2576.2354 -692.6378 0.883 0.068 0.464 57 29 15
-1374.7990 2603.5198 -702.8950 0.965 0.096 0.243 54 31 19
-1345.1674 2583.4878 -701.7042 0.961 0.249 0.123 40 34 36
-1257.4089 2660.9321 -756.3770 -0.151 -0.974 -0.166 37 19 16
-1228.0342 2627.1492 -749.2712 0.070 -0.786 -0.614 60 35 25
-1188.2164 2767.6663 -818.9184 0.996 0.075 0.045 147 91 64
-1187.8879 2776.8611 -822.9123 0.957 0.129 -0.261 148 92 65
-1189.3970 2830.9895 -845.5717 0.947 -0.170 0.272 160 102 78
-1192.3451 2848.2695 -852.1952 0.925 -0.196 -0.324 159 101 77
-1193.0509 2860.3257 -857.1506 0.950 -0.014 -0.313 160 102 78
-1193.5723 2872.0110 -861.9940 0.957 0.061 -0.282 162 104 80
-1192.6998 2880.4189 -865.7876 0.967 0.030 -0.253 167 109 85
-1197.5082 2902.5535 -874.0164 0.898 -0.259 -0.355 174 116 92
-1198.6128 2915.8809 -879.4142 0.755 -0.653 0.061 177 121 96
-1198.8088 2927.0823 -884.1321 0.697 -0.645 0.313 181 127 103
-1196.0846 2931.2246 -886.5689 0.705 -0.642 0.303 176 125 101
-1186.5831 2918.7761 -883.6233 0.900 -0.292 0.325 169 121 95
-1192.3712 2943.7913 -892.8353 0.757 -0.341 -0.556 164 114 89
-1182.1027 2929.3413 -889.2277 0.934 -0.354 0.044 138 88 63
-1185.8663 2982.5876 -910.9539 0.933 -0.331 -0.142 89 41 20
-1183.8063 2999.7246 -918.7559 0.985 0.161 0.054 96 49 33
-1184.3752 3012.4194 -924.0170 0.990 0.107 -0.091 101 56 37
-1187.2192 3030.9951 -931.2175 0.988 0.085 -0.131 127 79 59
-2333.4102 1292.5481 86.9809 0.714 0.034 0.699 171 152 136
-2331.8711 1296.3119 84.9956 0.705 0.032 0.709 174 153 134
-2293.0544 1401.2429 30.6524 0.560 -0.637 0.529 181 158 140
-2296.8325 1407.8853 28.7449 0.731 -0.533 0.427 177 155 137
-2296.5730 1412.4753 26.7213 0.697 -0.325 0.640 131 117 104
-2293.8584 1415.8062 24.6319 0.699 -0.324 0.637 62 53 40
-2287.0750 1417.0229 22.4451 0.726 -0.274 0.630 43 36 24
-1734.9258 1554.3462 -171.9010 0.997 -0.037 -0.068 49 48 56
-1751.0461 1571.7021 -175.3492 0.983 0.165 -0.086 49 48 56
-1707.1591 1560.6975 -181.4376 0.937 0.345 -0.053 36 31 32
-2180.4995 2045.3655 -272.0338 0.555 0.106 -0.825 26 19 13
-2131.5669 2029.0687 -277.1027 0.213 -0.809 -0.548 29 22 16
-2553.1262 2510.8909 -379.2112 0.819 -0.227 -0.527 213 160 144
-2574.0500 2538.1006 -385.6861 0.302 -0.663 -0.685 211 158 142
-2569.6270 2550.3989 -392.0242 -0.017 -0.861 -0.508 207 154 138
-2565.4163 2554.7173 -394.9030 -0.096 -0.881 -0.463 209 156 138
-2511.4380 2561.6609 -411.1351 -0.044 -0.968 0.248 208 155 137
-2493.6985 2553.0073 -411.8005 -0.220 -0.954 0.202 205 154 137
-2397.6433 2657.5867 -480.0621 0.933 0.358 -0.044 208 151 134
-1995.6620 2532.9585 -525.6530 0.868 0.023 -0.496 76 38 35
-1854.2041 2494.4324 -543.9724 0.810 0.499 0.307 77 30 22
-1719.2380 2420.4941 -545.5763 -0.241 -0.744 0.623 115 60 22
-1607.6951 2374.8635 -553.5096 0.384 -0.902 0.196 180 133 105
-1603.5739 2376.6226 -555.2736 0.103 -0.980 0.168 173 127 101
-1594.1082 2370.8552 -555.1378 0.528 -0.848 0.049 146 99 71
-1404.9983 2428.3933 -626.1863 0.668 -0.199 -0.717 114 50 15
-1405.4430 2437.0354 -629.7669 0.655 -0.224 -0.722 112 48 13
-1405.5623 2445.1746 -633.2128 0.660 -0.250 -0.709 111 49 12
-1404.3583 2467.1741 -642.9018 0.954 -0.162 -0.251 122 51 15
-1404.5997 2475.6558 -646.4639 0.919 -0.201 -0.338 121 53 13
-1366.5975 2567.0164 -694.8127 0.941 0.153 0.303 46 24 14
-1366.8486 2576.0444 -698.6057 0.941 0.153 0.303 47 24 12
-1352.3624 2558.1326 -694.5185 0.750 0.015 0.662 44 25 16
-1297.6235 2466.0852 -668.6713 0.991 0.074 0.112 43 31 28
-1257.8566 2639.0212 -752.2842 0.335 -0.466 0.819 34 18 15
-1235.0254 2619.0862 -749.3842 0.321 -0.558 0.765 50 21 10
-1226.0449 2609.4309 -747.4690 0.337 -0.744 0.577 63 33 21
-1219.0098 2603.7458 -746.7708 0.441 -0.650 0.619 76 46 31
-1228.7340 2633.1982 -756.9560 0.802 0.309 0.511 89 61 47
-1187.2118 2636.0974 -768.3997 0.875 -0.076 0.479 153 103 80
-1180.9401 2678.3977 -788.0021 0.206 -0.931 -0.303 143 92 71
-1183.9520 2694.6658 -794.2078 0.149 -0.978 -0.148 145 94 73
-1165.3273 2681.2307 -793.0492 -0.075 -0.947 0.312 155 101 76
-1190.6455 2778.2598 -828.2548 0.845 0.352 0.402 150 94 67
-1167.6781 2735.0112 -815.4340 0.844 0.263 0.468 148 92 65
-1189.3754 2825.8240 -848.8755 0.947 -0.170 0.272 159 101 77
-1192.5652 2843.6338 -855.6957 0.972 -0.049 -0.231 159 101 77
-1208.9806 2892.9744 -872.7279 0.919 -0.146 -0.366 157 101 76
-1194.2979 2879.0007 -870.3704 0.968 0.031 -0.248 160 102 78
-1200.4661 2904.3677 -879.6853 0.785 -0.556 0.273 167 111 86
-1200.9061 2916.0847 -884.5800 0.747 -0.661 0.074 171 115 90
-1199.7859 2924.0869 -888.2720 0.691 -0.712 -0.123 175 122 96
-1196.3223 2926.4226 -890.1206 0.688 -0.716 -0.120 175 125 100
-1198.3362 2942.1348 -896.3342 0.597 -0.425 -0.680 172 124 98
-1195.6084 2946.3118 -898.7881 0.757 -0.341 -0.556 175 123 99
-1182.7153 2925.4487 -893.0493 0.934 -0.355 0.044 168 116 92
-1181.0164 2932.0796 -896.2980 0.813 -0.438 0.383 153 103 78
-1187.2703 2980.5581 -915.4598 0.933 -0.331 -0.142 91 43 21
-1184.4969 2984.7095 -917.9139 0.974 -0.059 -0.218 88 41 23
-1183.0547 3003.4360 -926.2641 0.986 0.155 0.057 87 42 23
-2294.4895 1385.7072 32.3615 0.780 -0.219 0.587 184 158 141
-2295.6370 1390.9520 30.3946 0.861 -0.192 0.471 188 163 143
-2292.3613 1393.9678 28.3030 0.860 -0.195 0.472 189 167 146
-2286.6184 1395.7230 26.1491 0.816 -0.257 0.518 183 157 140
-2293.7671 1404.0679 24.3191 0.723 -0.552 0.416 161 137 123
-2291.2373 1407.4780 22.2406 0.699 -0.568 0.435 77 63 51
-2287.6140 1410.3247 20.1366 0.699 -0.568 0.435 45 36 26
-2283.6335 1412.9824 18.0263 0.353 -0.880 0.316 42 36 24
-2125.9890 2033.9014 -286.4680 0.234 -0.896 -0.378 104 88 81
-2114.9563 2037.0551 -290.5122 0.208 -0.937 -0.280 198 152 137
-2119.8999 2047.7825 -293.9012 0.423 -0.871 -0.250 199 151 137
-2559.6545 2512.9211 -385.8300 0.822 -0.218 -0.525 199 146 130
-2580.4150 2564.5784 -402.8932 -0.179 -0.895 -0.408 202 149 131
-2568.2971 2561.6157 -404.5820 -0.183 -0.893 -0.410 209 156 138
-2534.5469 2554.8352 -409.9156 -0.164 -0.886 -0.434 172 119 101
-2301.8396 2722.4529 -538.5304 0.790 -0.290 0.540 199 141 119
-2310.7095 2758.6704 -551.8815 -0.011 -0.773 0.634 159 109 92
-1878.6584 2505.5696 -548.9131 0.996 -0.071 -0.055 32 9 3
-1892.6427 2571.6548 -573.8116 0.764 0.517 0.387 117 65 28
-1665.2424 2367.4644 -541.8416 -0.078 -0.489 0.869 107 61 31
-1633.9130 2369.9050 -550.5349 0.662 -0.294 0.689 173 128 99
-1605.4248 2368.0100 -556.6770 0.361 -0.916 0.173 176 131 102
