ply
format ascii 1.0
element vertex 793
property float x
property float y
property float z
property float nx
property float ny
property float nz
property uchar diffuse_red
property uchar diffuse_green
property uchar diffuse_blue
end_header
-3753.8867 6111.8960 1806.7964 0.849 -0.496 -0.182 111 72 36
-3663.9019 6052.4229 1738.7072 0.809 -0.522 -0.269 97 61 29
-3667.2778 6076.4268 1735.6260 0.813 -0.526 -0.251 92 57 27
-3657.7664 6078.7036 1726.2124 0.797 -0.549 -0.252 91 58 27
-3656.1616 6094.4321 1720.6522 0.827 -0.507 -0.243 92 57 27
-3638.6936 6083.1777 1707.3594 0.849 -0.476 -0.230 93 61 30
-3119.5586 5752.9468 1311.2115 -0.756 -0.630 -0.178 32 18 7
-3241.5413 6291.8281 1284.8925 -0.281 -0.493 0.824 34 24 12
-3191.1973 6213.5254 1258.4545 -0.196 -0.788 0.584 45 35 25
-3202.9080 6480.6270 1200.1803 -0.570 -0.816 0.093 30 21 12
-3185.0239 6466.6606 1187.2035 -0.570 -0.816 0.093 31 22 13
-2744.8413 5934.4692 916.5809 0.836 -0.530 -0.142 24 15 6
-2728.2915 5920.1924 904.9225 0.835 -0.528 -0.153 25 12 4
-2720.9495 5926.2441 896.5444 0.783 -0.497 -0.373 25 12 4
-2718.9790 5944.2993 890.0425 0.824 -0.448 -0.347 31 16 9
-2678.3083 6012.6343 834.6221 -0.384 -0.923 -0.013 34 19 11
-2656.1680 5985.1333 821.1998 -0.350 -0.937 0.009 34 19 14
-2642.5540 5977.0654 810.6578 -0.360 -0.933 -0.016 34 19 14
-2624.6663 5959.0322 798.7303 -0.384 -0.913 -0.134 33 18 13
-2134.4612 5758.8525 395.7586 -0.510 -0.742 -0.436 18 7 1
-1864.0834 5708.6646 157.9067 -0.058 -0.987 -0.150 23 9 8
-1300.3420 5958.7173 -429.8300 -0.481 -0.859 0.173 254 93 99
-1271.1498 6041.2803 -478.2845 -0.291 -0.512 -0.808 230 80 76
-1250.3562 5985.9907 -483.2642 -0.052 -0.493 -0.868 236 99 91
-1182.5791 6536.2593 -688.5804 -0.344 -0.341 -0.875 216 109 91
-1179.9727 6635.1172 -716.5878 -0.336 -0.354 -0.873 204 97 79
-536.1782 4883.3945 -860.4377 -0.575 -0.770 0.278 218 104 86
-21.8321 3354.1533 -941.7809 -0.420 -0.464 -0.780 240 21 43
17.4543 3171.3772 -930.9177 0.531 -0.328 -0.782 223 36 47
-4114.6899 5767.0845 2212.3347 -0.493 -0.810 -0.316 42 27 8
-4097.4844 5757.7461 2198.8242 -0.265 -0.679 0.684 48 33 14
-4125.9399 6055.3691 2147.3540 -0.108 -0.901 0.420 49 30 13
-3944.9109 6048.9287 1981.1869 0.236 -0.921 0.309 104 68 36
-3889.0244 5995.5298 1943.3369 0.203 -0.679 0.705 123 87 55
-3877.8774 5995.1074 1933.1118 0.215 -0.697 0.684 122 87 55
-3876.7957 6010.6064 1928.0543 0.620 -0.702 0.350 124 88 56
-3883.7537 6038.9463 1927.0927 0.699 -0.656 0.284 126 87 54
-3871.7566 6054.7007 1911.8477 0.786 -0.550 0.281 113 73 38
-3858.9578 6051.7407 1900.7546 0.784 -0.552 0.284 120 80 45
-3666.6826 6094.5015 1711.2897 0.805 -0.520 -0.286 100 65 35
-3662.1733 6105.3364 1704.2740 0.805 -0.520 -0.286 100 68 37
-3678.7529 6152.2090 1707.3855 0.872 -0.414 -0.261 102 72 41
-3688.5447 6187.7329 1707.1721 0.898 -0.408 -0.163 101 72 40
-3325.9963 6415.7500 1311.3672 -0.280 -0.474 0.835 51 41 29
-3277.1597 6341.3706 1285.5420 -0.280 -0.474 0.835 51 41 29
-3271.7017 6507.8979 1236.9198 -0.462 -0.629 0.625 33 25 14
-3246.4636 6479.3823 1220.9783 -0.178 -0.939 0.294 43 35 24
-3149.4763 6371.3760 1159.3036 -0.226 -0.687 -0.691 40 31 22
-2779.5364 6011.8008 910.3520 -0.540 -0.782 -0.311 33 20 12
-2766.9377 6006.5488 900.0443 -0.541 -0.782 -0.309 32 19 11
-2528.0806 5714.0166 755.0963 -0.259 -0.869 0.421 18 9 2
-2217.0710 5556.3823 507.9602 0.831 -0.540 0.130 31 9 3
-2186.4609 5572.9824 475.2359 0.116 -0.989 0.095 35 10 0
-2177.9392 5574.9160 466.8287 0.092 -0.992 0.090 35 10 0
-2172.4849 5584.8911 459.1621 0.368 -0.905 -0.215 34 10 0
-2152.6626 5581.4902 441.6722 0.451 -0.769 -0.453 34 9 0
-2149.7615 5598.3560 434.5703 0.365 -0.805 -0.468 32 9 1
-2150.0935 5623.9727 428.1772 0.422 -0.828 -0.370 25 11 3
-2166.3696 6362.4263 250.0983 0.608 -0.536 -0.586 32 21 17
-2170.7654 6438.0122 234.4017 0.463 -0.662 -0.589 20 9 5
-1992.6678 6049.4556 170.9096 0.087 -0.766 -0.637 24 13 11
-1671.7128 5681.6479 -30.4694 0.505 -0.431 -0.748 252 229 234
-1589.1716 5745.5254 -123.7117 0.998 -0.046 -0.047 236 71 75
-1250.0048 6798.3599 -713.5993 -0.404 -0.359 -0.842 222 115 97
22.4867 3292.9260 -976.4882 0.559 -0.304 -0.771 225 34 47
-4101.6938 6003.1050 2119.4536 -0.074 -0.912 0.403 50 31 14
-3951.0393 6007.8149 1978.6018 0.118 -0.479 0.870 89 55 26
-3898.8132 5977.3735 1938.2518 0.673 -0.536 0.510 107 71 39
-3878.8110 5963.0200 1923.5104 0.599 -0.597 0.533 113 77 45
-3877.0117 5977.2368 1918.0853 0.780 -0.460 0.423 112 76 44
-3877.0732 5994.4604 1913.5897 0.652 -0.706 0.277 112 76 44
-3862.1042 6005.2021 1896.8789 0.827 -0.505 0.248 107 68 35
-3753.4431 5866.4233 1832.8689 -0.142 -0.871 0.471 120 80 45
-3505.2329 6021.2930 1561.9237 -0.210 -0.505 0.837 89 62 33
-3292.2402 6328.6499 1283.3071 -0.521 -0.584 0.622 46 36 24
-3272.1997 6310.8286 1269.4468 -0.522 -0.586 0.619 45 35 23
-3277.8259 6453.5039 1236.9475 0.737 -0.286 -0.613 35 25 15
-3280.2456 6503.3486 1226.0144 -0.462 -0.629 0.625 37 29 18
-3261.4866 6488.0508 1212.6747 -0.173 -0.948 0.266 43 35 24
-3161.1116 6351.1797 1155.8387 -0.140 -0.961 0.240 42 33 24
-3074.1785 6283.7598 1093.1013 -0.339 -0.590 0.732 28 20 9
-2826.6682 6003.7876 937.7454 -0.569 -0.613 -0.548 29 20 11
-2148.1238 6309.1528 228.2421 0.373 -0.616 0.694 25 14 10
-2024.2928 6027.3628 187.9766 0.498 -0.505 0.704 16 5 1
-1873.3168 5653.7773 146.8202 -0.475 -0.843 -0.254 13 2 1
-1739.2137 5916.1807 -46.8093 0.109 -0.539 -0.836 255 238 244
-1581.8392 5653.6460 -123.2486 0.992 -0.023 0.122 228 75 79
-1563.9995 5931.2515 -213.1586 0.247 -0.596 0.764 254 74 89
-4200.5332 5970.4878 2200.6116 0.838 -0.516 0.176 76 59 41
-3994.3352 5875.4575 2035.0250 0.281 -0.507 0.815 64 45 28
-3909.8828 5961.3677 1933.8673 0.679 -0.509 0.529 102 66 34
-3892.7639 5951.5718 1920.6293 0.610 -0.588 0.531 110 71 40
-3880.4216 5949.1899 1909.8346 0.599 -0.597 0.533 101 65 33
-3839.3682 5969.7261 1866.3292 0.638 -0.684 0.353 113 73 38
-3729.3254 5845.4224 1797.6127 -0.047 -0.929 0.367 123 83 48
-3652.4097 6053.2905 1670.8640 0.917 -0.381 0.120 107 75 44
-3536.2620 6310.8125 1494.5209 -0.808 -0.492 -0.323 86 63 38
-3279.6511 6435.7065 1223.5107 0.793 -0.334 -0.510 43 33 21
-3280.3442 6504.3926 1205.8091 -0.183 -0.940 0.289 43 35 24
-3122.5652 6295.2798 1115.5320 0.346 -0.917 0.200 40 31 22
-3113.9971 6299.9312 1106.3546 0.223 -0.921 0.319 40 31 22
-2402.4771 5578.1138 640.1678 0.797 -0.317 0.514 10 12 1
-2268.0405 5388.6030 566.2742 0.730 -0.651 0.209 20 6 6
-2164.4397 5639.2202 403.3948 -0.514 -0.794 0.324 22 12 3
-2145.2749 6271.3486 216.8254 0.158 -0.931 0.329 25 14 10
-2046.2220 6125.0708 164.1556 -0.022 -0.737 -0.675 16 5 1
-1647.6545 5277.3350 21.4320 0.310 -0.931 0.190 222 191 197
-1648.0712 5306.6899 13.9782 0.486 -0.758 0.436 221 192 197
-1785.5801 6044.2739 -55.6547 -0.059 -0.586 -0.808 255 237 243
-1625.8657 6059.8960 -207.7430 0.763 -0.609 0.216 246 61 76
-1582.1071 5929.9829 -213.5739 0.580 -0.721 0.379 251 66 82
-1398.3226 6238.2827 -466.1187 0.415 -0.496 -0.763 254 98 102
-480.3123 4207.7446 -774.0269 -0.685 -0.482 -0.546 216 101 83
-473.0170 4256.7554 -793.8725 -0.720 -0.493 -0.488 239 71 77
-481.1846 4389.9541 -821.8812 -0.664 -0.485 -0.569 246 58 75
-4547.5122 6174.9766 2447.5439 -0.581 -0.679 -0.448 56 35 16
-3996.2422 5584.0610 2096.7266 0.042 -0.859 0.511 75 58 37
-4310.1470 6264.3647 2203.7234 -0.230 -0.813 -0.534 55 36 15
-4122.7319 6019.2148 2096.3970 -0.267 -0.599 0.755 57 36 16
-4061.0815 5943.5698 2059.7437 -0.265 -0.590 0.763 66 44 26
-4011.6638 5885.8477 2029.5769 -0.094 -0.675 0.732 68 48 30
-3902.9714 5738.7017 1968.6731 -0.465 -0.878 -0.113 69 49 31
-4131.0474 6132.2031 2073.6089 0.359 -0.418 0.834 90 57 32
-4053.7534 6048.6069 2024.6211 0.172 -0.424 0.889 78 45 20
-3729.9004 5881.0195 1770.0820 0.871 -0.478 0.115 119 82 49
-3706.6296 6018.0483 1711.5715 0.197 -0.737 0.646 122 87 59
-3679.2625 6008.4165 1688.8397 0.065 -0.749 0.659 119 83 54
-3252.8730 5650.4727 1390.7533 -0.560 -0.769 0.307 88 61 31
-3293.1812 5776.4673 1394.0680 -0.639 -0.768 0.049 96 69 39
-3195.9795 5919.2549 1265.5740 0.561 -0.614 -0.555 23 14 7
-3420.4766 6471.4438 1324.3824 -0.349 -0.587 -0.731 41 31 19
-3412.4880 6477.7480 1315.2872 -0.358 -0.602 -0.714 34 24 12
-3381.6797 6461.5737 1291.1354 -0.109 -0.635 -0.765 35 25 12
-3127.0037 6305.2295 1097.5924 0.193 -0.929 0.314 41 31 22
-2993.5813 6117.5464 1024.7361 -0.491 -0.539 0.684 31 22 12
-2826.7600 6164.7168 857.6011 -0.471 -0.823 -0.318 19 4 0
-1855.3081 5517.7627 132.9871 -0.385 -0.530 0.756 17 5 1
-1713.9327 5271.5527 68.5604 0.202 -0.844 0.496 198 177 177
-1694.3997 5291.1113 45.2038 0.029 -0.694 -0.720 231 200 206
-1666.6350 5312.3096 13.7857 0.125 -0.974 0.191 218 186 192
-1555.8444 5866.8647 -238.3833 -0.057 -0.857 0.513 254 81 93
-1412.5149 6394.1572 -513.3144 -0.227 -0.344 -0.911 245 82 88
-495.4374 4285.7822 -793.2997 -0.747 -0.543 -0.383 216 100 84
-4525.4072 6129.0029 2419.8220 -0.636 -0.734 -0.236 56 33 15
-4463.0239 6058.3901 2381.3594 -0.445 -0.877 0.182 53 28 10
-4069.9875 5659.9302 2126.3796 0.354 -0.756 0.551 94 69 44
-4287.8418 6049.6631 2221.6858 -0.516 -0.787 0.338 94 69 44
-4445.9243 6466.3906 2254.3425 0.101 -0.394 0.913 71 45 23
-3955.5283 5754.6597 1994.6810 -0.499 -0.846 -0.189 71 45 23
-3903.7214 5693.1924 1963.5096 -0.615 -0.706 -0.352 76 50 28
-3935.2007 5755.9253 1975.5320 -0.453 -0.848 -0.276 78 52 30
-3958.7891 5823.1865 1979.0206 -0.173 -0.622 0.764 79 51 28
-3969.1719 5887.4810 1971.1021 0.255 -0.640 0.725 91 54 28
-3924.5793 5868.7344 1934.9612 0.374 -0.582 -0.722 115 78 52
-3762.5608 5917.0259 1771.9242 0.782 -0.556 -0.282 122 88 60
-3704.3865 5891.9429 1724.9464 0.509 -0.620 -0.597 112 82 55
-3697.0842 6038.7871 1678.1697 0.025 -0.722 0.691 109 75 48
-3613.8232 5935.4331 1629.3177 0.016 -0.809 0.587 109 75 48
-3395.4456 6075.5059 1389.1312 0.842 -0.539 -0.007 79 58 37
-3377.2256 6081.2866 1370.7014 -0.532 -0.770 -0.353 66 45 24
-3364.4324 6077.3989 1359.9268 -0.532 -0.770 -0.353 53 32 11
-3284.3909 5968.5264 1315.5570 0.504 -0.580 0.640 31 19 7
-3272.4136 6145.5688 1256.2251 0.748 -0.564 -0.351 47 34 21
-2196.3999 6333.6299 209.6037 0.563 -0.815 0.139 36 20 13
-1684.3328 5076.1074 78.6483 0.113 -0.229 0.967 243 206 207
-1707.5134 5225.8267 59.2862 0.013 -0.691 -0.722 227 189 192
-1591.0555 5232.7319 -50.3251 0.464 -0.718 0.519 255 247 250
-1667.7404 5549.4556 -65.7094 0.804 -0.399 -0.441 255 247 250
-1632.2734 6123.7358 -255.0356 0.636 -0.766 -0.097 248 78 87
-1111.6931 5322.1816 -518.1383 -0.912 -0.401 0.091 223 108 102
-1171.2576 6066.7114 -665.9567 0.387 -0.917 -0.097 228 130 113
-1148.5555 6045.5024 -681.1767 0.578 -0.791 -0.199 225 127 110
-1138.1655 6039.7505 -689.2204 0.563 -0.803 -0.194 211 113 96
-507.1516 4507.6938 -855.3843 -0.737 -0.507 -0.448 249 50 81
-307.7432 4108.7407 -931.1141 -0.165 -0.954 -0.251 253 135 143
-301.0226 4100.9321 -935.2029 -0.194 -0.939 -0.285 230 86 102
-69.5112 3536.1509 -995.4337 -0.715 -0.693 0.088 247 53 75
-23.5277 3172.6646 -938.9041 -0.808 -0.515 0.287 203 1 17
-5.3400 3245.8455 -975.6738 0.450 -0.335 -0.828 222 36 47
-0.8330 3295.3875 -993.3455 0.454 -0.340 -0.824 215 30 40
-4725.7896 6341.0967 2527.0244 -0.685 -0.706 0.180 61 35 18
-4547.7202 6128.6978 2420.8679 -0.621 -0.733 -0.276 58 32 15
-4509.1860 6091.3608 2395.5210 -0.556 -0.786 0.269 58 32 15
-3909.9663 5447.2471 2018.8516 0.821 -0.569 -0.038 95 67 43
-4326.1528 6073.0122 2231.3560 -0.168 -0.796 0.581 95 67 43
-4326.1592 6272.2402 2176.5176 0.200 -0.425 0.883 71 45 22
-4102.5161 6039.8613 2033.7278 -0.105 -0.535 0.838 87 54 31
-3974.1279 5863.0020 1963.7184 0.337 -0.669 -0.663 93 55 32
-3948.1204 5856.1621 1941.5571 0.226 -0.620 0.751 102 65 39
-3926.5986 5872.4121 1917.1866 0.439 -0.564 -0.700 127 89 65
-3763.0068 5884.1646 1762.7092 0.775 -0.557 -0.298 104 70 43
-3757.4338 5926.6196 1745.8696 0.792 -0.592 0.151 108 78 52
-3805.0012 6020.7598 1763.9307 0.228 -0.920 -0.318 107 77 51
-3605.9453 5887.4697 1616.5945 -0.178 -0.978 0.113 104 70 43
-3604.0254 5901.9136 1610.8434 -0.174 -0.975 0.141 104 70 43
-3556.0562 5856.7866 1578.9178 -0.389 -0.805 0.449 103 69 41
-3556.8188 5875.7607 1574.3997 -0.105 -0.959 -0.263 103 70 39
-3545.2275 5873.9312 1564.1871 0.051 -0.821 -0.569 103 70 39
-3537.5645 5878.7466 1555.7770 0.086 -0.765 -0.638 104 71 40
-3379.6860 6106.2383 1347.1918 0.486 -0.553 0.676 41 22 4
-3280.7556 5962.5020 1295.2980 0.520 -0.766 -0.378 26 21 11
-3266.8127 6115.1797 1240.3778 0.753 -0.584 -0.303 48 34 21
-3236.8521 6441.4995 1122.8478 -0.009 -0.999 -0.040 53 37 22
-3187.2590 6363.2021 1098.5526 -0.028 -0.967 0.252 53 37 22
-3162.4692 6334.9736 1083.4052 0.111 -0.976 0.187 53 37 22
-1731.2765 5118.6660 95.0851 0.711 -0.678 0.189 90 53 53
-1736.1707 5158.8394 88.5507 0.462 -0.750 0.474 164 124 125
-1659.1345 4999.6157 61.1619 0.140 -0.224 0.964 248 208 209
-1608.2540 5891.2158 -231.3221 0.302 -0.888 0.347 232 63 69
-1594.6077 5875.2065 -239.5310 0.487 -0.725 0.486 238 67 76
-1586.8760 5881.2456 -248.3416 0.451 -0.888 0.087 245 74 83
-1616.0559 6027.0410 -261.4998 0.494 -0.866 0.082 249 78 87
-1550.1714 5847.9312 -273.1043 0.696 -0.619 0.365 254 87 95
-1303.2439 5692.9248 -458.7203 -0.357 -0.932 -0.057 251 82 89
-413.6219 4248.3950 -883.5266 -0.783 -0.619 0.063 245 43 80
-358.1129 4508.8462 -1006.5436 -0.601 -0.703 -0.382 255 167 144
-305.9617 4088.6272 -939.0779 0.680 -0.390 0.620 232 85 104
-86.8552 3256.8103 -912.6569 0.819 -0.324 0.474 255 87 102
-87.9572 3460.8879 -967.8177 -0.623 -0.526 0.578 254 85 100
-73.1167 3480.2244 -986.8609 -0.484 -0.491 0.724 248 52 74
-9.1643 3151.8303 -955.5835 0.676 -0.344 -0.652 223 37 48
7.4072 3994.4229 -1202.8574 0.308 -0.715 -0.628 247 61 70
-4616.5845 6192.1118 2447.1875 -0.611 -0.703 0.363 59 32 15
-4545.0229 6125.5479 2399.5735 -0.537 -0.796 0.280 59 32 13
-4193.2964 6092.8398 2083.6824 0.276 -0.441 0.854 84 58 35
-4172.7646 6078.9624 2068.5701 0.247 -0.432 0.867 90 64 41
-3972.2227 5844.5449 1948.4492 0.316 -0.660 -0.682 95 57 34
-3921.2681 5832.2373 1904.7904 0.418 -0.594 -0.687 127 90 64
-3766.4126 5993.9893 1716.7377 0.613 -0.522 -0.593 98 68 42
-3756.4631 6013.0259 1702.2518 0.779 -0.307 -0.546 100 68 43
-3740.1660 6021.8052 1684.7532 0.700 -0.681 -0.215 101 67 40
-3742.6492 6043.7417 1680.9484 0.686 -0.683 -0.251 103 67 41
-3612.4531 5881.3677 1605.7953 -0.150 -0.936 0.319 98 64 37
-3598.1858 5875.1719 1594.3353 -0.150 -0.936 0.319 97 63 36
-3570.8655 5847.0972 1576.8977 -0.127 -0.834 0.537 97 63 35
-3575.8418 5873.0234 1574.2875 -0.374 -0.796 0.475 97 63 35
-3615.7100 6085.7192 1551.9897 0.001 -0.560 0.828 100 69 40
-3365.6462 6022.5356 1338.5050 0.812 -0.324 0.485 66 45 24
-2876.9143 6231.7681 828.7598 0.824 -0.453 -0.341 14 6 3
-2524.4109 6348.1035 470.7131 -0.276 -0.943 -0.186 40 26 13
-1726.9618 5056.7231 92.9304 0.152 -0.558 0.816 86 63 59
-1695.9554 5382.5161 -26.2971 -0.660 -0.686 0.308 255 241 248
-1613.5262 5877.4058 -240.0510 0.294 -0.890 0.350 228 65 70
-1498.6595 5756.8862 -312.6768 0.789 -0.579 -0.205 255 89 99
-1471.6412 5686.6494 -318.1134 0.732 -0.681 -0.016 255 89 99
-1447.7966 6514.8145 -570.3957 -0.193 -0.639 0.744 232 108 106
-420.6473 4257.3638 -891.8227 -0.850 -0.503 -0.158 242 44 79
-295.3191 4031.2031 -944.7438 0.895 -0.320 0.312 255 58 96
-90.5632 3385.3530 -954.3696 0.828 -0.297 0.476 255 84 100
-87.4736 3451.4666 -975.6055 0.019 -0.763 0.646 255 76 95
-77.8996 3475.0000 -990.9944 -0.493 -0.505 0.708 249 52 74
-32.5137 3174.2083 -949.3019 -0.818 -0.517 0.250 201 1 17
-13.7066 3162.3762 -963.3896 0.693 -0.332 -0.640 222 36 47
-5.4231 3319.8530 -1014.8257 0.722 -0.285 -0.631 220 39 48
-4649.8711 6222.2896 2449.5630 -0.611 -0.703 0.363 63 37 20
-4266.1665 6151.1650 2115.2080 0.253 -0.452 0.855 73 47 24
-4181.8276 6059.8740 2062.9583 0.276 -0.441 0.854 87 61 38
-4171.6953 6061.3862 2053.1775 0.236 -0.395 0.888 98 72 49
-3921.3198 5736.8730 1913.0852 -0.332 -0.622 0.709 96 62 40
-3862.6333 5680.3247 1874.7689 0.496 -0.530 -0.688 115 78 52
-3929.1672 5812.4512 1899.1119 0.141 -0.609 -0.780 121 84 58
-3786.3591 5871.7129 1750.6001 0.756 -0.574 -0.316 70 38 13
-3782.7344 5899.8511 1739.3527 0.729 -0.584 -0.357 90 59 31
-3763.9150 5886.8516 1725.6241 0.647 -0.667 -0.370 92 62 36
-3776.4756 5941.2573 1721.9478 0.287 -0.953 -0.100 91 64 37
-3792.7297 6002.2075 1719.8446 0.728 -0.241 0.642 90 63 36
-3748.7754 6072.4751 1659.5272 0.583 -0.309 0.752 94 60 33
-3628.7996 5909.1929 1594.5818 -0.383 -0.770 0.511 93 59 32
-3592.0029 6139.4321 1495.9597 0.744 -0.583 0.326 96 65 36
-3420.5999 5932.3003 1395.8364 -0.701 -0.687 0.192 93 63 35
-3394.3889 5904.4077 1379.4637 -0.675 -0.720 0.160 84 54 26
-3385.2764 5906.7900 1370.3799 -0.164 -0.885 0.435 78 48 20
-3323.5046 5984.7427 1291.4518 0.343 -0.347 0.873 31 20 8
-3196.2812 5942.3706 1185.8665 0.698 -0.595 0.398 46 34 20
-2602.9248 6360.4312 520.5670 -0.348 -0.790 -0.505 23 14 7
-1692.0422 4977.6763 67.6601 -0.003 -0.754 0.657 205 165 166
-1684.1350 4978.3901 60.1579 -0.175 -0.814 0.554 218 176 178
-1622.1858 5876.1885 -249.1182 0.303 -0.881 0.362 217 70 71
-1604.5664 5845.6094 -256.8028 0.535 -0.816 0.221 228 71 75
-1604.2003 5878.8594 -266.4763 0.451 -0.874 0.181 237 77 83
-1455.6482 6506.2358 -579.7990 -0.193 -0.639 0.744 227 111 106
-502.3277 4136.6279 -794.8207 -0.233 -0.937 0.261 222 92 86
-500.0381 4170.0449 -806.3173 0.036 -0.999 -0.036 232 79 87
-342.4842 4165.8945 -950.6420 -0.750 -0.618 -0.234 255 167 144
-82.4184 3460.5913 -992.7700 0.380 -0.769 0.514 248 51 74
-77.6751 3474.4990 -1001.0548 0.429 -0.649 0.628 242 37 60
-10.0323 3312.3301 -1017.9869 0.710 -0.287 -0.643 222 41 50
7.3845 4223.7827 -1289.9739 -0.785 -0.593 -0.181 255 88 88
13.5499 4170.7715 -1280.7836 -0.463 -0.567 -0.681 252 100 93
-3032.5090 4097.7705 1539.2371 -0.660 -0.627 -0.415 101 73 52
-4151.4590 6015.5220 2028.2126 0.232 -0.396 0.888 107 81 58
-3905.4805 5698.0669 1891.2015 -0.321 -0.617 0.719 115 81 59
-3790.7078 5896.1519 1729.1208 0.729 -0.584 -0.357 86 55 27
-3773.5522 5885.8389 1716.2122 0.650 -0.661 -0.376 79 49 23
-3787.7275 5942.6987 1713.1743 0.782 -0.247 0.572 77 50 23
-3608.1233 5857.9551 1571.4446 -0.143 -0.947 0.288 93 59 32
-3688.7048 6137.2954 1566.6182 0.668 -0.646 -0.369 94 61 30
-3680.5352 6142.0332 1557.7354 0.381 -0.896 -0.227 94 60 32
-3564.3965 6129.9185 1453.9868 0.605 -0.642 0.471 105 75 47
-3297.4062 5805.8057 1299.4719 -0.044 -0.807 -0.589 59 38 19
-2915.3401 6111.3364 860.2476 0.766 -0.616 -0.187 46 33 24
-1778.8037 5138.1426 87.2552 -0.220 -0.696 -0.684 161 143 133
-1736.4941 5087.1226 62.6727 0.168 -0.749 -0.641 211 171 172
-1585.3717 5546.4580 -207.0205 0.997 -0.056 -0.050 75 44 31
-1625.4686 5855.2939 -257.5720 0.460 -0.883 0.096 191 65 60
-1570.0530 6001.1689 -350.0706 0.596 -0.669 -0.444 242 89 92
-1537.8971 5912.7671 -354.6847 -0.444 -0.818 0.364 247 94 97
-515.6890 4196.4590 -811.4881 0.176 -0.981 0.085 216 87 81
-525.8193 4332.9004 -840.8208 0.242 -0.970 0.018 227 74 82
-434.8509 4275.9614 -908.6321 -0.854 -0.450 -0.260 244 52 85
-309.9621 3993.7678 -943.8874 0.701 -0.697 -0.150 251 71 102
-46.7625 3205.0591 -963.1888 -0.199 -0.543 0.816 211 4 24
-36.8878 3179.1755 -964.9639 -0.816 -0.515 0.264 192 0 13
-4153.6221 5986.6616 2019.3134 0.200 -0.365 0.909 90 64 41
-4102.6738 5943.9009 1984.5609 0.205 -0.364 0.909 112 88 64
-3884.0591 5682.2656 1857.8137 0.496 -0.530 -0.688 112 75 49
-3803.0222 5607.2871 1804.5315 -0.012 -0.963 0.269 103 66 40
-3806.2776 5627.7764 1801.6693 -0.360 -0.920 0.155 104 66 42
-3788.7642 5632.5317 1784.1547 -0.014 -0.966 0.257 86 47 17
-3786.8840 5661.1982 1774.2148 0.440 -0.491 0.752 105 64 32
-3813.4731 5882.0728 1735.5150 0.719 -0.509 -0.473 79 45 20
-3329.9470 5865.0034 1294.4209 0.010 -0.824 -0.566 59 38 17
-3354.7749 5985.5728 1282.8087 0.630 -0.455 0.629 47 28 10
-3255.9170 5843.0435 1232.4255 0.381 -0.804 -0.456 26 20 11
-3065.2700 6096.8945 983.9188 -0.300 -0.940 0.162 45 31 20
-3096.9888 6182.8398 988.5733 0.595 -0.799 -0.091 44 30 21
-2927.7754 6183.8921 832.1981 0.654 -0.629 -0.421 25 17 14
-2647.9128 6421.0449 506.1835 -0.365 -0.920 -0.143 29 20 13
-2612.8318 6387.0786 483.5492 -0.423 -0.906 -0.033 44 32 21
-2645.5337 6495.3359 482.7235 0.402 -0.480 -0.780 48 34 23
-1777.1567 5159.1548 64.2516 -0.203 -0.723 -0.661 209 172 172
-1752.1403 5109.8545 55.2897 0.482 -0.720 -0.500 209 169 170
-1801.3593 5609.2207 -42.2543 -0.759 -0.565 -0.323 254 247 250
-1444.4932 6072.3638 -503.9816 -0.026 -0.753 0.658 253 80 90
-1416.1963 6032.4282 -518.6500 -0.483 -0.650 0.587 247 71 81
-1304.3013 5743.7163 -539.2139 0.467 -0.817 0.337 231 129 120
-1391.5250 6639.8188 -715.2679 0.824 -0.334 0.457 229 144 129
-1395.7118 6971.7935 -806.4322 0.384 -0.517 0.765 235 140 122
-1124.4167 6233.1675 -845.2332 0.146 -0.268 -0.952 228 129 109
-348.0616 4091.4932 -948.2607 -0.023 -0.709 0.704 255 165 143
-322.4738 4003.4373 -946.6561 0.713 -0.701 0.005 231 74 97
-315.0876 3986.1394 -948.5173 0.670 -0.719 -0.186 253 71 101
-312.0441 4023.2932 -961.9595 0.904 -0.291 0.314 252 53 90
-27.2749 3175.6907 -981.9945 0.596 -0.381 -0.707 216 30 41
5.7768 3071.5771 -982.6777 -0.524 -0.759 0.386 251 102 94
-4116.6499 5837.4888 2009.2622 0.831 -0.441 -0.339 78 52 29
-3898.2588 5641.8877 1864.4734 -0.163 -0.600 0.783 101 73 49
-3877.9731 5642.6445 1845.5548 0.170 -0.681 0.712 98 62 38
-3875.4629 5654.4014 1839.8435 0.389 -0.585 -0.712 98 62 36
-3811.2520 5604.7314 1795.0071 -0.012 -0.963 0.269 94 58 32
-3816.7766 5628.5928 1793.2043 -0.352 -0.924 0.151 89 51 28
-3801.2244 5620.6973 1781.1498 -0.352 -0.924 0.151 85 48 22
-3348.5188 5936.7773 1272.4993 0.020 -0.859 -0.511 55 34 13
-3349.5786 5957.7031 1267.4290 -0.221 -0.940 -0.259 48 29 10
-3079.9993 6106.1914 976.0175 -0.266 -0.959 0.093 31 17 6
-2940.8501 6145.0732 836.5123 0.885 -0.456 -0.094 24 14 10
-2855.4407 6073.6753 778.4139 -0.097 -0.518 0.850 14 6 3
-2295.0728 5065.1719 553.3037 0.332 -0.917 0.222 17 14 8
-2421.1716 5497.0859 544.7263 -0.689 -0.670 -0.276 20 15 9
-2419.9404 5515.8535 538.1677 -0.685 -0.691 -0.231 25 18 12
-2672.9788 6537.7075 476.1206 0.387 -0.495 -0.778 48 34 23
-1491.7274 6536.5571 -612.4352 -0.566 -0.797 0.209 233 139 127
-1518.6290 7148.2451 -764.4056 0.550 -0.458 -0.699 233 153 136
-1518.3037 7199.7026 -779.5759 0.558 -0.470 -0.684 233 153 136
-1200.6189 5989.6104 -722.7224 0.385 -0.585 -0.714 241 146 128
-979.1052 5665.5713 -833.2734 0.727 -0.356 0.588 228 123 104
-525.5109 4126.9082 -806.7504 0.515 -0.699 0.496 210 95 76
-532.6359 4393.6934 -877.2794 -0.647 -0.762 0.021 249 44 78
-325.8100 4122.9434 -989.6907 0.913 -0.333 0.235 253 53 90
-50.2791 3164.3962 -966.6722 -0.220 -0.559 0.800 201 1 16
-4207.1660 6001.4316 2026.1761 0.771 -0.494 0.401 78 52 29
-3881.9570 5633.6826 1833.8525 0.280 -0.727 0.628 89 55 31
-3837.9722 5614.4302 1798.9470 0.194 -0.923 0.333 94 59 33
-3815.5337 5596.2563 1783.5769 0.002 -0.964 0.267 89 54 28
-3816.1370 5612.6387 1779.3535 0.003 -0.967 0.256 80 43 21
-3757.1855 5964.6958 1622.3396 0.710 -0.592 0.381 90 56 29
-3639.4292 6074.0674 1481.9481 -0.265 -0.943 0.203 59 28 1
-3372.1299 5961.1782 1268.6260 -0.172 -0.945 -0.277 53 32 11
-3367.0735 5971.0586 1261.0853 -0.217 -0.941 -0.259 46 27 9
-3167.3560 5909.9893 1094.9072 0.414 -0.910 0.030 144 130 114
-3099.6179 6104.0156 975.9000 -0.050 -0.870 -0.491 28 14 1
-2935.9211 6272.2021 776.0269 0.010 -0.464 0.886 15 7 3
-2661.3855 6456.3057 469.3983 -0.317 -0.838 0.445 44 32 20
-1029.9535 5517.9644 -759.8518 -0.438 -0.893 0.105 237 140 124
-1247.5784 6810.1733 -936.3303 -0.290 -0.351 -0.890 239 139 124
-1229.6071 6885.4829 -974.8564 -0.277 -0.351 -0.894 230 126 109
-967.4304 5650.0273 -855.9785 0.918 -0.293 0.267 227 123 105
-959.2776 5653.0610 -864.3743 0.971 -0.221 0.088 224 121 99
-891.2700 5396.2017 -852.0954 0.495 -0.769 0.404 224 121 99
-973.8923 6189.3560 -1007.3609 0.323 -0.572 0.754 220 112 89
-560.6499 4354.0293 -852.6578 0.013 -0.875 0.485 212 94 76
-363.9924 4069.3499 -950.7842 -0.797 -0.603 -0.008 254 167 139
-330.8105 3896.4224 -930.9062 -0.832 -0.549 0.083 241 101 116
-59.7059 3175.8127 -970.4468 -0.329 -0.735 0.593 210 3 23
-54.7588 3164.1958 -971.6155 -0.543 -0.539 0.643 200 0 16
-49.9958 3159.9353 -974.7606 -0.569 -0.560 0.602 193 0 13
-4020.2773 5745.1421 1910.4219 -0.315 -0.595 0.739 76 50 25
-4029.8699 5790.4175 1905.9220 0.153 -0.368 0.917 95 71 45
-3705.9246 5899.4741 1575.5428 0.672 -0.331 0.662 100 64 41
-3491.7073 5840.8687 1395.5642 -0.267 -0.748 0.608 65 34 6
-3458.8457 5820.2056 1371.3922 -0.003 -0.981 0.192 88 57 30
-3551.9958 6054.3560 1388.2090 0.750 -0.481 0.453 82 52 26
-3490.7395 5966.2427 1357.7549 0.834 -0.427 0.350 75 45 19
-3343.9084 5929.8291 1233.2858 -0.202 -0.758 -0.620 29 19 6
-3192.8794 5900.3867 1102.8987 0.449 -0.884 0.129 146 124 109
-2955.8921 6003.2822 854.3986 0.392 -0.850 -0.353 23 10 1
-2940.6284 6036.1006 830.6812 0.431 -0.821 -0.376 18 5 0
-2866.8625 5989.1484 776.5884 0.923 -0.370 0.101 16 6 0
-2775.2429 5967.6426 698.5642 -0.081 -0.669 0.739 38 24 16
-2740.7542 5914.1182 682.5707 0.373 -0.636 0.676 38 23 15
-2722.3877 5895.7915 671.0566 0.366 -0.646 0.670 37 22 14
-1704.2576 4970.1919 6.1919 -0.324 -0.922 0.211 250 228 227
-1609.0660 5389.3301 -204.8754 -0.272 -0.812 0.517 254 247 248
-1601.6643 5484.2246 -239.6335 0.611 -0.316 -0.726 81 64 61
-1407.7037 6298.1826 -657.9008 0.695 -0.662 0.281 234 161 151
-1407.5579 6342.2949 -671.0247 0.499 -0.819 0.285 234 162 151
-1391.8329 6360.9355 -690.9921 0.493 -0.798 0.347 230 162 152
-1295.3191 6135.3013 -713.4137 0.916 -0.379 -0.133 229 160 150
-1138.2415 5768.6167 -750.0638 -0.211 -0.814 -0.541 234 152 142
-1130.9148 5776.8799 -759.2429 -0.229 -0.808 -0.543 237 144 136
-1072.7284 5520.4160 -737.2971 -0.246 -0.897 0.367 239 143 136
-971.5941 5944.7466 -955.3648 0.833 -0.191 0.519 218 122 103
-128.0078 5466.1123 -1591.1379 0.595 -0.792 -0.139 210 1 19
-54.3945 3156.2615 -978.7454 -0.547 -0.564 0.619 195 2 17
-46.1672 3215.0000 -1003.6169 0.265 -0.496 -0.827 208 25 35
-2953.8726 3907.2759 1457.0063 0.322 -0.766 -0.556 123 86 57
-4098.1475 5827.9897 1939.1084 -0.399 -0.639 0.658 79 53 28
-3813.1768 5578.4341 1751.0510 0.309 -0.440 -0.843 91 65 42
-3664.5857 5850.0347 1533.5981 0.565 -0.331 0.756 129 93 71
-3404.4875 5982.8506 1254.7854 -0.690 -0.685 -0.232 49 28 9
-3385.9585 5968.5225 1241.9934 -0.690 -0.685 -0.232 40 22 1
-3361.4834 5943.3633 1226.9491 -0.201 -0.755 -0.624 29 19 6
-3001.3904 6276.5688 796.5653 0.879 -0.329 -0.344 28 18 9
-2419.5459 5431.7568 512.2411 0.775 -0.501 -0.385 41 21 10
-2605.8191 6218.4458 449.8395 0.863 -0.458 0.213 46 27 13
-1823.6362 5031.1108 82.9660 0.341 -0.578 0.741 63 33 23
-1548.0128 6653.3872 -652.8086 -0.403 -0.895 -0.192 237 167 157
-1394.4304 6420.9668 -725.0566 0.681 -0.725 -0.108 234 167 158
-1314.1512 6135.9551 -714.2217 0.906 -0.412 -0.100 233 165 156
-1181.3193 5590.6206 -674.3759 0.224 -0.964 0.140 233 164 155
-624.6838 4976.0718 -1003.9382 -0.363 -0.417 -0.833 255 34 77
-68.7133 3175.6487 -980.4406 -0.403 -0.709 0.579 203 0 16
-4188.3931 5772.6475 2020.0872 0.459 -0.566 0.685 110 76 49
-4167.5684 5758.4302 2005.2002 0.474 -0.581 0.661 107 75 47
-3657.4031 5873.4570 1501.5258 0.915 -0.334 0.225 118 76 54
-3657.5615 6015.3867 1459.1001 0.883 -0.341 0.322 77 42 16
-3658.0588 6034.3521 1453.8689 0.952 -0.299 0.063 69 37 12
-3463.9275 5902.5015 1314.8844 0.007 -0.749 0.662 52 22 0
-3380.1619 5958.7910 1220.9657 -0.186 -0.760 -0.623 29 19 6
-3110.6528 6003.2207 959.7856 0.098 -0.953 -0.288 99 82 66
-3109.4026 6021.3228 953.2063 0.129 -0.953 -0.275 68 51 35
-2590.8088 5606.8008 600.6166 0.831 -0.485 0.271 48 34 25
-1978.3282 5343.7104 116.2626 -0.519 -0.637 0.570 50 32 20
-1630.8416 6023.3652 -407.1624 -0.329 -0.931 -0.160 202 135 126
-1409.6777 6401.0225 -723.8320 0.736 -0.417 0.534 241 174 165
-1407.2976 6436.1123 -736.5461 0.851 -0.394 0.346 241 174 165
-1407.0796 6529.0288 -764.6165 0.859 -0.492 0.138 239 172 163
-1193.9371 5569.5562 -672.8428 0.636 -0.749 0.186 240 172 163
-357.3618 3938.1628 -952.8686 -0.789 -0.590 0.172 250 132 130
-338.2144 3855.8035 -945.7742 -0.713 -0.640 0.286 250 69 98
-4197.3589 5740.5112 2019.5417 0.539 -0.660 0.523 119 82 55
-4182.7085 5750.0576 2003.1870 0.411 -0.488 0.770 113 79 52
-4095.8384 5794.5542 1909.8756 -0.425 -0.649 0.630 88 62 39
-4043.4768 5734.1909 1880.0209 -0.422 -0.642 0.640 83 57 32
-3975.8604 5651.3218 1842.9572 -0.401 -0.636 0.660 87 61 36
-3811.7690 5577.4331 1714.5045 0.204 -0.590 0.782 69 34 7
-3657.4272 5839.6108 1493.2904 0.779 -0.436 0.450 110 69 49
-3511.1196 5912.0415 1336.8939 -0.047 -0.822 0.567 90 60 34
-3505.0732 5919.7793 1328.9948 -0.351 -0.675 0.649 70 40 14
-3491.0798 5913.8066 1317.9410 -0.141 -0.718 0.682 59 29 4
-3469.5256 5894.6704 1303.9229 -0.154 -0.748 0.646 57 27 3
-3484.6204 6070.2622 1264.6472 -0.687 -0.687 -0.237 76 55 34
-3465.8684 6055.9688 1251.7385 -0.687 -0.687 -0.237 50 29 10
-3287.4773 5982.1655 1110.1169 0.150 -0.771 -0.619 118 99 82
-3279.2520 5986.3906 1101.2782 0.756 -0.648 -0.089 126 105 88
-3125.0518 6011.7871 951.8643 0.098 -0.945 -0.312 89 72 56
-2229.5417 5601.8979 252.8616 0.119 -0.500 0.858 41 23 11
-1550.8528 5828.9971 -439.6666 0.456 -0.820 0.346 209 142 133
-1073.7147 6285.7065 -1016.4477 0.857 -0.092 0.508 236 145 127
-1008.4547 6548.2036 -1155.8828 0.103 -0.399 -0.911 220 113 95
-1011.0088 6630.6650 -1178.4952 -0.464 -0.666 -0.584 220 113 94
-421.1897 4421.2324 -1051.8384 -0.251 -0.958 0.143 254 162 139
-4201.0718 5731.2544 2007.3497 0.467 -0.477 0.745 124 87 60
-4190.6182 5731.6177 1997.6361 0.456 -0.474 0.753 124 89 61
-4177.5312 5728.2817 1986.6340 0.411 -0.488 0.770 117 83 56
-4156.5674 5713.8438 1971.7869 -0.210 -0.850 0.482 111 80 52
-4131.1035 5692.9800 1954.7689 -0.209 -0.849 0.486 111 80 52
-4093.1238 5654.3125 1931.6919 -0.300 -0.772 0.560 111 80 52
-4001.8071 5539.8711 1882.7650 -0.433 -0.743 0.509 113 82 54
-3665.1345 5835.6426 1483.1719 0.769 -0.451 0.454 82 41 19
-3667.8811 5874.5566 1473.8094 0.924 -0.325 0.203 88 46 22
-3695.2356 5936.7930 1479.9277 0.897 -0.284 0.340 89 47 23
-3695.2070 5954.3208 1474.5480 0.883 -0.286 0.373 86 46 21
-3689.3276 5962.2842 1466.7152 0.883 -0.286 0.373 89 47 23
-3596.0381 5842.9932 1417.4570 0.275 -0.442 0.854 100 59 35
-3402.2830 5760.8716 1264.5620 0.313 -0.794 0.521 77 47 21
-3281.4739 5971.7373 1089.1866 0.767 -0.638 -0.068 101 80 63
-3287.6489 6062.0967 1067.2609 0.297 -0.626 -0.721 94 72 51
-2660.7693 5941.2549 528.3376 0.837 -0.540 0.090 56 38 26
-2326.6785 6165.6851 152.9056 0.785 -0.620 0.012 50 32 20
-1657.2397 6161.8540 -460.8492 -0.407 -0.858 -0.314 216 149 140
-1608.1560 6049.0981 -471.4972 0.559 -0.759 -0.334 228 160 151
-1552.8263 5982.6050 -502.0127 0.542 -0.524 0.657 246 169 163
-1452.3514 5842.4448 -551.4969 0.644 -0.673 0.365 251 176 165
-1482.6533 6204.9033 -634.3669 0.246 -0.935 0.256 251 181 171
-1016.4275 5896.2715 -968.3628 0.513 -0.340 0.788 242 151 133
-1014.6725 6657.5190 -1202.4800 0.626 -0.376 0.683 229 118 99
-345.7854 3816.7378 -949.2483 -0.775 -0.592 0.220 246 65 94
-4452.2837 5837.5024 2186.8196 -0.169 -0.858 0.485 135 99 73
-4480.7808 5890.6055 2196.6162 0.109 -0.509 0.854 135 100 72
-4097.7026 5661.3164 1915.5991 0.333 -0.613 0.717 116 85 57
-4140.0229 5859.5845 1893.3508 -0.225 -0.609 0.761 84 58 33
-3831.2136 5561.6445 1701.6704 0.388 -0.589 0.709 91 62 38
-3792.9033 5690.9121 1626.6644 0.855 -0.477 -0.202 117 68 51
-3673.5288 5715.3472 1509.5452 0.746 -0.514 0.423 80 44 20
-3471.3313 5687.4751 1332.5117 0.476 -0.392 0.787 75 44 16
-3462.0049 5688.9414 1323.4980 0.865 -0.324 0.384 77 46 18
-3458.0769 5769.0278 1295.2119 0.920 -0.367 0.142 117 87 61
-3420.3586 5757.2896 1264.2029 0.425 -0.687 -0.589 90 60 34
-3544.1208 6119.6689 1266.1466 -0.247 -0.917 -0.313 68 46 25
-3486.3328 6074.7114 1226.9501 -0.707 -0.673 -0.218 39 21 2
-3285.6367 5960.7559 1077.8230 0.764 -0.642 0.062 84 63 46
-3300.6526 6067.3208 1058.7682 0.322 -0.660 -0.679 88 66 45
-3272.9387 6035.1621 1043.2362 -0.366 -0.929 -0.047 83 61 38
-3259.9539 6030.5825 1032.7272 -0.366 -0.929 -0.047 77 55 32
-3244.0208 6020.3779 1021.2446 -0.273 -0.961 -0.047 72 50 27
-2762.8906 6057.7153 568.0479 -0.285 -0.935 0.210 71 51 40
-2722.5977 5990.4058 551.8004 0.206 -0.977 0.051 71 51 40
-2349.5493 5763.4854 279.2612 0.594 -0.594 0.543 53 35 21
-1710.1732 6002.4053 -381.3311 0.887 -0.239 0.394 184 125 117
-1512.6583 6169.3564 -614.1041 0.469 -0.811 0.350 251 180 168
-33.5726 3078.7700 -1019.5286 -0.706 -0.523 0.478 249 110 98
-4106.2207 5038.3774 2098.9307 0.911 -0.411 0.005 103 72 52
-4175.2251 5711.1519 1953.0706 0.710 -0.535 -0.458 125 91 63
-4160.1470 5704.9692 1941.1588 0.465 -0.600 0.652 125 91 63
-4135.0566 5837.3115 1876.9924 -0.225 -0.609 0.761 85 58 31
-3961.5598 5632.1621 1781.5939 0.611 -0.627 0.483 69 41 17
-3925.3018 5594.4985 1760.0375 0.605 -0.667 0.435 69 41 19
-3695.1763 5684.6914 1520.8586 0.742 -0.656 -0.136 93 55 32
-3683.9553 5699.6235 1505.9211 0.464 -0.813 0.351 82 44 21
-3680.1643 5710.0229 1499.2097 0.660 -0.691 0.296 80 42 19
-3417.7856 5753.5112 1244.9596 0.391 -0.778 -0.492 98 68 42
-3403.7913 5747.0654 1234.1240 0.331 -0.789 0.517 94 64 38
-3469.1885 5896.0879 1247.7928 -0.275 -0.864 -0.421 95 70 46
-3369.7495 5795.0283 1187.9789 -0.160 -0.764 -0.625 55 33 12
-3349.8862 5832.7979 1158.0120 -0.191 -0.753 -0.629 29 19 6
-3352.7729 5874.8975 1147.5714 -0.054 -0.940 0.337 25 18 9
-3281.3416 5858.1030 1087.2556 0.572 -0.533 0.624 29 11 1
-3258.6414 5911.4858 1049.8313 0.402 -0.846 0.349 83 61 44
-3224.9431 5868.1680 1032.3813 0.403 -0.721 0.564 81 62 43
-3295.7314 6038.9922 1044.2183 0.313 -0.647 -0.695 80 59 38
-3273.1814 6036.3545 1024.3489 -0.353 -0.935 -0.042 70 48 25
-3269.8425 6049.9839 1017.0480 -0.357 -0.934 -0.021 66 44 21
-3210.8440 6017.9951 972.8633 -0.004 -0.672 -0.740 68 49 29
-2779.4031 5765.4771 655.5314 0.444 -0.526 -0.726 57 47 38
-2773.2695 6058.7822 558.7132 -0.285 -0.935 0.210 86 63 50
-2703.8091 6409.3223 385.9984 0.397 -0.492 -0.775 64 45 30
-2178.8105 5743.3218 111.3837 0.788 -0.528 0.317 55 37 25
-1715.0275 6307.2983 -489.4760 -0.171 -0.631 -0.757 227 160 151
-1696.4042 6274.9814 -496.5151 -0.366 -0.833 -0.416 234 167 158
-1513.0403 5654.4536 -471.8223 -0.348 -0.559 0.752 245 169 163
-1012.6450 6392.6338 -1160.4344 0.990 -0.140 0.016 236 131 112
-669.4733 5099.7231 -1073.3143 -0.384 -0.459 -0.801 255 28 74
-165.7217 3641.1755 -1082.0265 0.819 -0.309 0.483 254 74 86
-155.4846 3653.7786 -1095.3372 0.380 -0.477 0.793 249 59 75
-131.0502 3454.1624 -1055.6932 -0.184 -0.910 0.370 241 31 53
-4520.3770 5855.6250 2205.9036 -0.700 -0.685 -0.202 144 107 81
-4465.0425 5796.8760 2173.5911 -0.691 -0.693 -0.206 148 111 85
-4134.5249 5684.4517 1905.7859 0.656 -0.474 -0.587 123 89 60
-4099.1479 5664.4253 1879.6282 0.661 -0.375 -0.649 120 85 56
-4309.2334 6040.7388 1954.2355 -0.257 -0.563 0.786 109 78 51
-3856.7417 5631.4766 1667.6890 0.576 -0.552 0.602 100 63 37
-3790.0981 5547.1948 1633.0151 0.664 -0.731 -0.158 92 55 29
-3866.4426 5692.8521 1657.3337 0.731 -0.380 0.567 108 72 45
-3699.5144 5675.8638 1509.5979 0.740 -0.656 -0.147 88 50 24
-3686.3459 5687.6543 1493.8251 0.505 -0.789 0.350 87 49 23
-3501.6025 5654.3379 1334.8746 0.783 -0.400 0.476 96 57 31
-3481.5571 5637.9937 1321.6205 0.323 -0.780 0.535 83 48 21
-3458.8269 5771.5933 1258.8750 0.420 -0.681 -0.599 136 106 80
-3487.2678 6039.7520 1200.8461 0.464 -0.581 0.668 40 21 1
-3500.5403 6082.2437 1199.6887 0.317 -0.740 0.593 30 20 6
-3403.0803 5928.0688 1158.6798 0.587 -0.727 -0.356 27 21 11
-3358.8640 5886.4805 1131.1801 -0.056 -0.929 0.367 30 22 10
-3273.3411 5825.4932 1071.8885 0.771 -0.473 0.426 40 22 10
-3211.9822 5825.7891 1015.5328 0.386 -0.722 0.574 86 65 47
-3269.2954 5970.7285 1022.6260 0.449 -0.764 0.462 74 53 33
-3271.6982 5994.7905 1017.2823 0.283 -0.793 0.540 69 48 28
-3259.7971 5992.1655 1007.1929 0.283 -0.793 0.540 64 43 23
-3251.2161 5995.7593 998.1974 0.229 -0.845 0.483 63 41 19
-2752.0933 5606.4272 662.6416 0.878 -0.398 0.265 40 30 22
-2794.1753 5776.5542 647.8685 0.436 -0.521 -0.734 37 28 19
-2921.6902 6318.4624 594.8243 -0.695 -0.702 0.155 100 72 60
-2768.9814 6361.3330 441.3521 0.927 -0.367 -0.083 78 52 36
-2359.1187 5741.2388 260.0212 0.313 -0.912 0.264 65 48 32
-2345.0947 5730.2217 250.6177 0.101 -0.907 0.408 65 48 32
-1778.5347 4886.5684 -4.2775 -0.276 -0.569 0.774 249 215 209
-1612.1274 5498.3174 -348.7381 -0.320 -0.765 -0.558 215 158 152
-1736.0802 5994.9507 -390.8482 0.818 -0.391 0.422 230 172 164
-1733.3823 6019.2480 -400.9429 0.820 -0.463 0.337 232 174 167
-1731.4923 6046.6592 -411.2734 0.929 -0.360 -0.089 229 172 164
-435.8338 4379.0586 -1076.2834 0.343 -0.315 0.885 253 148 135
-164.6009 3622.4841 -1087.6914 0.840 -0.526 0.136 254 71 84
-160.9612 3659.7529 -1102.7180 0.418 -0.541 0.730 249 58 74
-156.5741 3682.7803 -1113.9633 -0.020 -0.602 0.798 247 45 65
-134.7042 4143.8926 -1278.6439 -0.312 -0.539 -0.782 209 1 19
-4385.2876 5705.8369 2110.5759 0.666 -0.574 -0.477 151 114 87
-4197.7080 5568.1646 1982.2346 0.256 -0.379 0.889 147 111 79
-4194.3823 5709.1450 1934.5823 0.899 -0.274 -0.341 136 98 66
-4049.0562 5745.0479 1790.0453 -0.102 -0.586 0.804 66 38 14
-3685.6196 5687.0996 1475.3237 0.651 -0.692 0.311 105 64 38
-3673.0754 5683.5996 1464.9355 0.648 -0.685 0.334 104 65 39
-3732.3284 5810.6831 1479.0273 0.764 -0.482 0.430 98 59 31
-3707.2197 5821.0542 1452.7365 0.890 -0.448 0.083 111 70 45
-3724.8113 5866.2983 1454.5428 0.778 -0.512 0.363 118 77 49
-3695.3628 5835.8906 1437.1765 0.736 -0.608 0.298 120 79 47
-3652.6089 5817.7534 1403.7351 0.291 -0.383 0.877 137 94 61
-3593.8572 5738.9927 1374.8136 0.737 -0.485 0.471 144 101 68
-3506.8574 5630.1470 1329.5242 0.216 -0.851 0.478 132 90 57
-3485.7083 5628.7109 1310.5973 0.323 -0.780 0.535 83 48 21
-3482.9192 5884.8892 1226.9894 0.190 -0.980 0.061 87 59 37
-3404.8516 5839.8105 1169.7100 -0.225 -0.960 -0.166 50 22 4
-3464.8821 5982.1357 1179.6921 -0.378 -0.913 0.152 48 24 4
-3439.3494 5955.7441 1164.6439 -0.255 -0.926 -0.278 39 23 4
-3428.7971 5955.7407 1154.9749 -0.255 -0.926 -0.278 34 25 8
-3263.5784 5808.4385 1050.1721 0.475 -0.724 0.500 67 45 29
-3181.1958 5982.7412 919.5287 0.403 -0.182 0.897 73 57 44
-2978.3877 5747.2310 808.1868 -0.674 -0.738 -0.021 53 46 35
-2805.1536 5779.5679 639.2029 0.436 -0.521 -0.734 18 12 6
-2394.1099 5733.6587 277.0448 0.931 -0.178 -0.318 83 62 37
-2374.8074 5781.0742 244.3540 0.223 -0.960 0.169 74 59 32
-2331.2456 5793.0015 200.6602 0.358 -0.526 0.771 70 55 31
-2304.7471 5750.1733 189.9272 0.210 -0.845 0.493 68 53 38
-2313.2075 5845.9219 167.3866 0.332 -0.890 0.312 33 19 7
-1988.8802 5235.0181 63.4542 -0.751 -0.500 0.432 80 55 42
-1668.9139 5826.0312 -416.7553 0.873 -0.181 0.453 233 176 175
-1661.0151 5831.0757 -425.5898 0.872 -0.180 0.455 235 176 174
-1671.5975 6040.5630 -482.1715 0.216 -0.891 0.400 231 168 162
-1671.5110 6075.7124 -493.3716 0.268 -0.877 0.398 232 168 162
-457.0189 4459.5068 -1094.9905 0.262 -0.406 0.876 254 145 130
-168.4692 3596.3474 -1086.3252 -0.091 -0.796 0.598 255 69 84
-162.9530 3592.7725 -1090.2493 -0.091 -0.796 0.598 249 56 73
-157.3219 3586.4502 -1093.4094 -0.078 -0.797 0.599 244 44 63
-144.8472 3428.2041 -1054.7739 0.061 -0.865 0.498 243 36 57
-75.1606 4213.2861 -1367.0265 0.088 -0.991 0.097 251 86 84
-4200.9526 5840.1694 1880.4409 -0.187 -0.513 0.838 125 88 59
-4069.5315 5744.4150 1790.6351 -0.105 -0.614 0.782 77 46 20
-4027.6667 5714.5669 1761.8179 -0.104 -0.535 0.839 71 43 21
-3985.7878 5669.0400 1737.9915 -0.104 -0.535 0.839 71 43 21
-3844.6414 5645.5366 1616.2207 0.768 -0.408 0.494 116 80 56
-3753.0361 5569.4043 1556.6185 0.723 -0.615 -0.313 125 81 56
-3750.0178 5580.3550 1550.3596 0.640 -0.690 -0.338 140 96 71
-3718.0183 5641.5566 1501.5211 0.629 -0.767 -0.128 159 116 84
-3699.6890 5677.3115 1473.3232 0.575 -0.671 0.468 126 85 56
-3687.8062 5674.8647 1463.2213 0.641 -0.693 0.331 118 76 51
-3721.1033 5776.7637 1461.1980 0.832 -0.498 0.246 99 60 31
-3709.3135 5825.0278 1434.9976 0.746 -0.211 0.632 126 85 56
-3693.2327 5816.1064 1423.1167 0.741 -0.209 0.638 131 90 57
-3508.5725 5616.9468 1317.5504 0.224 -0.856 0.465 150 108 74
-3473.0793 5762.0542 1238.7354 -0.165 -0.859 -0.485 129 99 73
-3512.0769 5881.5815 1236.3073 0.383 -0.702 -0.601 100 70 44
-3418.7285 5739.4580 1196.1683 -0.128 -0.799 0.588 99 69 43
-3474.5266 5853.0713 1211.0146 0.088 -0.988 0.126 96 65 43
-3460.8823 5847.5254 1200.2881 0.380 -0.869 0.317 105 74 54
-3407.3264 5808.6401 1163.6476 -0.293 -0.955 -0.038 74 43 23
-3417.3391 5844.1646 1161.4810 -0.225 -0.960 -0.166 74 43 23
-3432.7192 5889.2959 1161.1643 -0.257 -0.918 -0.302 73 43 25
-3444.1396 5927.7329 1159.3574 -0.258 -0.938 -0.230 70 44 23
-3400.1731 5868.7754 1137.9052 0.203 -0.833 -0.515 55 36 17
-3393.5459 5875.4565 1129.7034 0.203 -0.833 -0.515 43 34 15
-3266.9727 6046.7847 959.1031 0.262 -0.153 0.953 64 45 30
-3109.0381 5884.3896 866.2812 -0.740 -0.669 -0.072 55 39 26
-3052.5559 5834.1577 830.5817 0.269 -0.958 -0.096 49 39 27
-2963.5713 5738.4067 779.6407 -0.715 -0.677 -0.174 35 27 16
-2833.5693 5819.0869 634.8289 0.408 -0.546 -0.731 17 12 6
-2819.8542 5832.3081 618.0483 0.408 -0.553 -0.727 21 11 0
-2390.8223 5679.9619 273.7305 0.942 -0.179 -0.284 91 66 38
-2382.8623 5777.9878 235.1574 0.227 -0.961 0.158 81 63 35
-2325.7292 5755.6421 189.9624 0.208 -0.841 0.500 77 59 34
-2297.7532 5782.3003 155.8324 0.364 -0.881 0.302 35 19 6
-2299.0842 5886.0503 123.9419 -0.188 -0.911 0.367 34 15 3
-2349.6914 6070.5044 111.4264 0.751 -0.541 0.379 50 24 11
-2334.6980 6084.0508 93.3715 0.595 -0.801 0.067 63 35 23
-1991.8625 5220.6548 54.9155 -0.697 -0.550 0.460 91 63 51
-1610.4707 5434.3442 -362.5833 -0.294 -0.865 0.406 227 173 171
-1701.7289 5811.7036 -399.4295 0.353 -0.609 0.710 228 172 171
-1695.8983 5823.8545 -408.6472 0.352 -0.627 0.695 232 176 175
-1644.8824 5742.0630 -429.2689 -0.558 -0.745 -0.366 235 176 175
-1598.1356 5672.7407 -449.9599 -0.562 -0.775 -0.291 230 167 162
-1702.7889 6120.6392 -497.0492 -0.026 -0.619 0.785 236 173 168
-427.4389 4236.3076 -1063.7529 0.080 -0.522 0.849 245 78 92
-172.2333 3569.5083 -1084.6917 0.267 -0.658 0.704 255 69 84
-166.8095 3567.1885 -1088.9187 0.267 -0.658 0.704 249 56 73
-161.3955 3564.8726 -1093.1382 0.267 -0.658 0.704 244 45 63
-155.8112 3558.6946 -1096.2811 0.041 -0.803 0.594 242 36 57
-4239.3184 5669.1318 1951.9020 -0.283 -0.959 0.017 153 114 85
-4170.8799 5692.3081 1881.7988 0.738 -0.448 -0.505 144 105 72
-3870.3657 5531.4688 1658.4998 0.075 -0.464 0.883 79 51 29
-3727.5601 5593.5044 1507.8186 0.528 -0.843 -0.098 188 144 114
-3720.7153 5598.7139 1499.8768 0.528 -0.843 -0.098 183 140 108
-3707.4907 5625.7974 1479.0544 0.648 -0.754 -0.112 162 119 87
-3704.2881 5636.7817 1472.5876 0.678 -0.728 -0.101 156 113 81
-3687.5103 5658.7896 1450.1466 0.620 -0.727 0.296 131 89 64
-3460.0496 5758.0605 1209.9937 0.295 -0.739 -0.605 96 66 40
-3453.0354 5763.6475 1201.7750 0.304 -0.737 -0.604 102 72 46
-3433.2603 5765.0312 1183.2291 0.235 -0.836 0.496 103 73 49
-3453.6365 5817.7852 1184.8999 -0.074 -0.783 0.618 102 71 50
-3413.7322 5784.5977 1159.0565 -0.032 -0.779 0.626 100 69 48
-3480.3259 5918.0967 1177.0421 -0.436 -0.879 0.191 100 69 48
-3426.5242 5842.7314 1152.0537 0.454 -0.849 0.270 100 69 48
-3416.3735 5843.1440 1142.6299 0.355 -0.912 0.204 98 68 48
-3418.2480 5864.6152 1137.4346 0.460 -0.874 0.154 97 70 49
-3404.0720 5858.0010 1126.5880 0.460 -0.874 0.157 88 67 48
-3395.5950 5861.3799 1117.7412 0.452 -0.880 0.149 76 61 42
-3401.7039 5890.5571 1113.9415 0.402 -0.909 0.113 63 49 32
-3368.6653 5850.4746 1096.6017 -0.040 -0.915 0.401 55 40 22
-3011.4282 5793.9668 787.8015 -0.683 -0.668 -0.296 37 29 18
-2366.2681 5575.9116 267.4553 0.904 -0.427 -0.013 103 71 46
-2297.2109 5757.2612 145.8742 0.383 -0.673 0.633 35 19 4
-2299.7949 5888.8765 105.8764 -0.549 -0.826 0.127 46 18 7
-2019.7421 5226.4673 62.7469 0.236 -0.877 0.419 63 35 23
-1619.2615 5717.2915 -461.8053 -0.390 -0.782 -0.485 230 167 162
-163.2687 3499.8357 -1080.7793 -0.672 -0.556 -0.489 244 45 63
-104.4450 3169.6470 -1028.3440 -0.824 -0.458 0.334 188 0 11
-84.5814 3468.2065 -1142.6233 0.615 -0.324 -0.719 241 62 66
-4262.5103 5701.3823 1944.3885 0.773 -0.565 0.287 154 115 86
-4223.5479 5766.3682 1887.6510 0.666 -0.335 -0.667 145 106 75
-3810.8521 5217.4941 1688.2936 -0.093 -0.961 -0.262 144 105 74
-3794.7507 5208.5806 1676.4578 -0.085 -0.962 -0.258 138 102 70
-4131.3042 5742.2798 1811.0870 -0.206 -0.687 0.697 133 96 67
-3727.6733 5578.5752 1494.9919 0.718 -0.692 -0.074 193 150 119
-3728.9270 5627.7520 1480.1753 0.579 -0.796 -0.179 168 125 93
-3711.1611 5616.1616 1467.6854 0.333 -0.929 0.158 162 119 87
-3702.0391 5617.9131 1458.7723 0.333 -0.929 0.158 156 113 81
-3448.9648 5653.7446 1215.6324 0.598 -0.801 -0.024 142 112 86
-3430.3643 5639.5264 1203.2323 0.523 -0.820 0.233 131 101 75
-3486.5867 5768.7334 1212.7214 -0.080 -0.948 0.309 94 64 38
-3481.0012 5776.7637 1205.0054 0.540 -0.518 0.664 89 59 33
-3442.1804 5745.7773 1179.5513 -0.156 -0.796 0.584 104 74 48
-3488.6941 5896.8462 1173.0625 -0.257 -0.966 0.021 116 85 65
-3480.7393 5901.2515 1164.3555 -0.372 -0.920 0.122 121 90 69
-3432.7070 5836.0835 1141.5707 0.454 -0.849 0.270 115 84 64
-3420.7332 5833.3101 1131.5175 0.473 -0.855 0.214 112 81 61
-3411.8818 5835.9634 1122.5590 0.473 -0.855 0.214 118 90 71
-3403.0281 5838.6177 1113.5981 0.473 -0.855 0.214 121 95 78
-3393.4548 5840.0122 1104.3878 0.476 -0.867 0.148 108 86 71
-3353.5232 5806.0400 1078.8867 -0.231 -0.671 0.704 77 56 41
-3137.7478 5654.1973 930.7885 0.433 -0.805 0.404 63 42 25
-3106.3804 5940.6553 809.1063 -0.754 -0.652 -0.076 38 32 20
-3066.0469 5881.9102 791.2791 -0.688 -0.675 -0.265 34 26 15
-3039.4402 5849.7256 777.3875 -0.793 -0.601 -0.099 25 17 6
-2399.0625 5477.8730 312.2867 0.886 -0.463 0.017 120 73 53
-1831.7887 4947.7466 -34.5619 -0.364 -0.907 -0.212 233 194 189
-1816.5266 5163.8770 -118.6819 0.115 -0.596 -0.795 245 220 223
-1700.6960 5360.2139 -288.3754 0.449 -0.605 -0.658 249 224 228
-1665.8419 5331.4644 -310.9270 0.088 -0.594 -0.800 255 240 241
-1598.1055 5335.2178 -374.1097 0.600 -0.592 0.538 227 173 171
-179.9941 3524.1289 -1083.4771 -0.652 -0.555 -0.518 255 69 83
-175.0601 3530.1943 -1089.9596 -0.656 -0.569 -0.496 249 55 72
-4257.4009 5282.5942 2058.4465 0.285 -0.947 -0.145 149 114 84
-4210.2134 5644.8604 1896.7168 0.929 -0.233 -0.289 155 116 87
-4204.1328 5651.0786 1889.1222 0.917 -0.234 -0.324 153 114 83
-3826.8022 5226.6309 1683.0934 -0.094 -0.960 -0.264 148 109 76
-3791.7646 5218.6025 1653.6886 -0.113 -0.939 0.325 140 103 74
-3972.6863 5561.4956 1706.8484 -0.270 -0.630 0.728 102 72 45
-3947.2795 5554.6763 1685.8528 0.042 -0.460 0.887 117 89 67
-3913.0281 5520.1152 1665.8521 -0.072 -0.528 0.846 128 100 78
-3739.7556 5629.1631 1471.7416 0.648 -0.444 0.619 143 100 68
-3704.5732 5703.0181 1415.3997 0.779 -0.199 0.595 104 65 36
-3700.9971 5713.7334 1408.6223 0.734 -0.211 0.646 98 58 32
-3449.2253 5637.8457 1203.2834 0.585 -0.811 -0.025 131 101 75
-3495.5647 5891.2520 1162.6956 -0.225 -0.974 -0.036 133 105 84
-3487.8972 5896.1353 1154.0872 -0.395 -0.908 0.135 138 110 89
-3474.9104 5891.8267 1143.6243 -0.398 -0.907 0.139 115 87 66
-3427.0264 5826.8804 1121.1071 0.339 -0.919 0.200 109 80 62
-3413.0020 5820.5068 1110.3716 0.458 -0.868 -0.189 136 106 88
-3402.6597 5820.5166 1100.9128 0.430 -0.870 -0.242 140 110 96
-3391.4446 5818.9863 1091.1605 0.377 -0.918 0.124 127 97 86
-3388.1382 5831.3364 1084.0948 -0.258 -0.707 0.658 105 77 66
-3165.6174 5669.4194 933.6603 0.509 -0.672 0.538 81 59 45
-3067.0803 5844.8623 786.1414 0.657 -0.696 -0.289 40 34 22
-3094.1011 5917.4419 787.0861 -0.269 -0.759 -0.593 36 28 17
-2423.5422 5646.7979 262.6268 0.802 -0.421 0.423 122 77 56
-1866.0975 4975.0806 -27.1258 -0.359 -0.775 0.520 240 199 193
-1845.0040 5197.8882 -119.3473 0.091 -0.639 -0.764 242 218 221
-1836.2566 5197.2949 -127.1504 0.114 -0.640 -0.759 246 224 226
-1686.8738 5262.0996 -284.9369 0.025 -0.575 0.818 250 225 229
-1704.7754 5402.4858 -314.5262 0.032 -0.660 -0.750 234 215 215
-1610.4412 5291.3032 -364.3749 0.429 -0.856 0.290 255 235 235
-1572.2729 5248.5415 -385.2718 0.734 -0.613 0.293 220 164 163
-872.2307 5112.8438 -980.8612 -0.121 -0.356 -0.927 235 143 128
-552.7666 4218.4697 -980.1540 -0.031 -0.748 -0.663 254 21 66
-175.5671 3544.0715 -1104.2406 -0.548 -0.723 -0.420 241 42 60
-4161.5244 5564.2305 1860.6658 0.906 -0.276 -0.321 161 120 92
