ply
format ascii 1.0
element vertex 789
property float x
property float y
property float z
property float nx
property float ny
property float nz
property uchar diffuse_red
property uchar diffuse_green
property uchar diffuse_blue
end_header
-2751.8853 3156.6799 60.0904 -0.085 -0.869 -0.487 79 76 89
-2747.9285 3162.7317 56.6426 -0.080 -0.867 -0.491 64 69 80
-2713.2175 3176.5547 38.9350 0.136 -0.647 -0.750 94 93 99
-2710.2603 3311.4307 -5.2617 0.831 -0.393 0.393 80 48 51
-2710.1426 3322.1860 -8.7408 0.836 -0.393 0.383 80 48 51
-2769.2578 3435.8909 -22.4041 0.976 0.157 0.151 66 36 38
-2752.9368 3427.9045 -26.1052 0.970 0.124 0.210 65 35 37
-2481.7446 3306.3174 -91.1506 0.434 -0.678 -0.593 29 26 33
-2543.3506 3440.6851 -110.4572 0.930 -0.138 0.342 35 32 40
-2515.0603 3472.3508 -131.4028 0.846 0.078 -0.527 55 51 66
-2536.8782 3512.7312 -135.9395 0.877 0.366 -0.312 58 51 67
-2513.1394 3504.4626 -142.3913 0.953 0.247 0.175 41 37 43
-2497.8267 3637.9231 -190.8682 -0.153 -0.951 -0.269 225 196 200
-2482.7996 3629.0244 -193.7823 -0.153 -0.951 -0.270 231 202 206
-2312.3352 3838.9929 -326.1102 0.124 -0.551 -0.825 129 102 107
-2291.8821 4034.8521 -396.4788 0.009 -0.926 -0.376 216 189 194
-2252.6890 4023.2593 -407.7883 0.973 -0.202 0.109 230 202 201
-1736.0973 4038.7063 -610.5748 0.279 -0.670 -0.687 232 202 204
-1731.8499 4074.4077 -623.6005 0.306 -0.831 -0.464 214 184 186
-1851.5844 4367.6890 -671.3828 0.970 0.159 -0.182 213 183 185
-1890.2444 4508.2988 -701.4707 0.867 0.206 -0.454 229 199 199
-1723.1936 4146.9277 -650.0704 0.659 -0.751 -0.040 231 199 200
-1758.5940 4246.8452 -668.4143 0.326 -0.903 0.280 227 195 196
-1894.3494 4604.7505 -730.6943 0.044 -0.795 -0.606 227 196 194
-1926.8567 4700.6646 -748.8679 0.109 -0.554 -0.826 224 194 192
-1943.3663 4758.6392 -761.0553 0.096 -0.576 -0.812 223 193 191
-1911.1473 4716.8633 -760.0568 0.382 -0.921 -0.080 222 194 191
-1878.1995 4672.4150 -758.4840 0.269 -0.472 0.840 217 188 185
-1874.4579 4681.2603 -762.7412 0.105 -0.591 0.800 211 181 179
-1866.3572 4679.3306 -765.2277 0.105 -0.591 0.800 205 177 174
-1850.8662 4658.9521 -764.6541 0.109 -0.575 0.811 197 172 170
-1800.5917 4586.9375 -760.9159 0.021 -0.659 -0.751 168 147 146
-1789.7200 4595.2002 -767.7180 0.152 -0.403 -0.902 133 112 111
-1781.2271 4591.5171 -769.7947 0.305 -0.559 -0.771 125 104 103
-2681.0564 2035.4460 383.9382 0.416 -0.699 0.581 118 96 91
-2670.9570 2035.3408 380.1212 0.305 -0.692 0.655 136 112 108
-2677.2373 2046.4258 378.9602 0.646 -0.470 0.602 155 131 127
-2674.0029 2051.0183 376.2540 0.610 -0.499 0.616 170 146 142
-2677.7029 2060.4014 374.6551 0.607 -0.498 0.620 165 141 137
-2667.5461 2060.2188 370.8410 0.596 -0.514 0.617 164 140 136
-2669.4739 2068.4102 368.9487 0.553 -0.533 0.641 164 140 136
-2693.7649 2092.2517 370.5634 0.538 -0.543 0.645 166 140 136
-3368.1333 2808.9475 397.8120 0.764 0.049 -0.644 139 90 75
-3772.5383 3218.6702 420.5886 0.934 0.179 -0.309 122 80 64
-3066.4160 2854.8835 268.0362 0.556 -0.814 0.170 87 54 36
-2613.9695 2723.4746 137.6726 0.957 0.012 -0.291 130 67 36
-2608.6812 2736.0515 131.6221 0.996 -0.064 0.058 143 78 50
-2607.6018 2743.8906 128.6961 0.986 -0.144 0.086 147 82 54
-2755.8442 3034.3792 92.0449 0.171 -0.820 -0.546 49 26 26
-2753.3601 3041.7312 88.7395 0.182 -0.814 -0.551 115 86 88
-2737.5703 3045.1565 81.6204 0.192 -0.812 -0.551 118 81 85
-2718.3511 3034.9373 77.5701 0.723 -0.688 0.063 106 65 70
-2742.6082 3070.4321 75.4341 0.546 -0.776 -0.316 97 54 58
-2723.8464 3193.5720 28.7831 -0.125 -0.876 -0.466 114 93 106
-2736.7107 3303.9124 -1.7036 0.929 -0.365 -0.057 111 75 79
-2709.6511 3316.1904 -15.9594 0.836 -0.393 0.383 93 61 64
-2488.1624 3309.0115 -98.1082 0.417 -0.729 -0.543 29 26 33
-2525.1838 3389.1807 -109.7068 0.984 0.128 0.124 35 32 39
-2531.6987 3408.7366 -113.4952 0.887 -0.171 0.428 35 32 39
-2518.6052 3471.2727 -138.5462 0.866 0.101 -0.490 57 50 66
-2515.0054 3489.5593 -145.7843 0.988 0.114 -0.109 60 49 66
-2507.3635 3490.9722 -149.1511 0.996 0.093 -0.007 56 48 56
-2521.5913 3640.5994 -191.7194 -0.106 -0.956 -0.272 200 171 175
-2319.4321 3991.2734 -381.2798 0.494 -0.287 -0.821 167 142 145
-2300.2537 4042.0688 -404.8851 0.060 -0.845 -0.532 229 202 207
-2291.5984 4041.2727 -407.9299 0.049 -0.847 -0.530 232 206 209
-1741.3368 4042.9668 -618.2825 0.176 -0.688 -0.704 232 202 204
-1877.7855 4419.9883 -687.1862 0.644 -0.031 -0.764 229 199 201
-1860.1249 4395.6025 -686.0982 0.973 0.161 -0.167 226 196 198
-1875.1837 4464.2471 -702.3743 0.894 0.167 -0.415 230 200 200
-1884.8662 4697.6270 -773.5392 0.192 -0.534 0.824 216 188 187
-1892.5133 4734.7256 -782.5231 0.232 -0.481 0.845 210 182 183
-1788.4028 4600.5845 -779.1934 0.305 -0.559 -0.771 165 143 145
-2678.4468 2030.3779 377.5627 0.383 -0.725 0.573 80 58 53
-2668.5615 2030.4148 373.7986 0.305 -0.692 0.655 102 78 74
-2664.9370 2034.7010 371.0417 0.224 -0.837 0.499 132 108 104
-2667.8320 2043.4639 369.3170 0.653 -0.477 0.588 155 131 127
-2664.2275 2047.7815 366.5576 0.602 -0.517 0.608 164 140 136
-2658.9614 2050.9500 363.5378 0.540 -0.546 0.640 164 140 136
-2656.0400 2055.7383 360.8860 0.536 -0.460 0.708 164 140 136
-2652.9514 2060.4141 358.2071 0.556 -0.468 0.687 166 140 136
-3385.5332 2827.2668 389.1882 0.659 0.105 -0.745 139 90 75
-3059.8389 2600.7839 338.5375 0.933 -0.357 0.046 133 84 69
-3056.4727 2606.8137 335.3169 0.935 -0.353 0.037 133 85 69
-3083.6736 2636.9790 335.9220 0.957 -0.290 0.017 123 80 64
-3764.4946 3196.0398 414.2098 0.884 0.129 -0.450 122 80 64
-3394.3296 2990.6619 339.8785 0.642 -0.080 -0.762 115 79 63
-3399.4624 3004.9377 337.2269 -0.321 -0.840 0.438 110 74 58
-2991.9771 2898.2354 216.9347 0.532 -0.778 -0.333 30 26 26
-2960.2202 2888.4644 208.0288 0.847 -0.337 -0.412 31 26 26
-2961.4026 2899.0630 205.0626 0.741 -0.018 -0.671 57 47 50
-2933.4216 2882.9431 199.6356 0.372 -0.796 0.477 60 46 47
-2815.2617 2792.7534 183.8450 -0.248 -0.957 0.148 69 44 34
-2609.0374 2740.8982 122.2748 0.913 -0.010 -0.408 147 82 54
-2754.3743 3027.9536 84.9480 0.358 -0.932 -0.052 127 82 77
-2760.8530 3044.5833 82.0487 0.182 -0.814 -0.551 105 57 53
-2754.8296 3048.2817 78.5707 0.182 -0.814 -0.551 124 75 72
-2748.8130 3051.9758 75.0966 0.182 -0.814 -0.551 127 75 73
-2721.2490 3033.0688 70.7260 0.729 -0.679 0.083 129 77 75
-2777.1711 3236.7432 26.3257 0.751 0.052 0.658 119 98 111
-2790.3101 3283.3877 16.2834 0.748 -0.113 0.654 130 92 109
-2782.7974 3285.7822 12.6601 0.731 -0.145 0.667 130 93 101
-2697.6780 3211.5625 4.2653 0.753 0.006 0.658 130 94 98
-2732.4402 3293.6443 -8.9878 0.819 -0.573 0.009 120 84 88
-2703.5046 3314.5164 -26.6965 0.833 -0.374 -0.408 101 69 72
-2704.0278 3326.0288 -30.2074 0.818 -0.366 -0.443 89 57 60
-2723.6602 3359.9697 -33.6916 0.892 -0.443 -0.094 89 57 60
-2739.6558 3389.8391 -37.2445 0.965 0.092 -0.246 89 57 60
-2531.2268 3482.1135 -146.0923 0.913 -0.089 -0.398 57 50 66
-2510.9941 3490.0112 -156.3171 0.993 0.111 -0.037 68 55 65
-2502.7109 3502.1379 -163.3687 0.993 -0.044 -0.106 92 74 84
-2504.1555 3539.1143 -174.7347 0.996 0.055 -0.065 133 118 128
-2525.0684 3627.2183 -195.1852 0.662 -0.498 -0.560 199 170 174
-2525.0566 3639.3086 -199.0853 0.656 -0.464 -0.595 212 183 187
-2516.7317 3639.9204 -202.4423 -0.252 -0.938 -0.238 217 188 192
-2496.0557 3635.4141 -208.8385 -0.184 -0.897 -0.402 225 196 200
-2328.6204 4027.2605 -398.6532 0.491 -0.484 -0.724 218 191 196
-2322.0579 4058.0437 -411.0630 0.323 -0.579 -0.748 223 196 201
-2318.8591 4066.6528 -415.0512 0.327 -0.638 -0.697 223 196 201
-1883.4750 4458.1318 -706.4557 0.847 0.183 -0.499 230 200 200
-1855.4565 4580.6880 -756.5805 0.031 -0.534 0.845 225 196 198
-1808.2677 4587.9424 -776.8298 0.036 -0.705 -0.709 206 184 186
-1804.2416 4595.6621 -780.8456 0.173 -0.481 -0.859 206 184 186
-1797.1050 4595.5332 -783.5129 0.187 -0.500 -0.846 202 180 182
-1780.5020 4589.1895 -787.7712 0.167 -0.755 -0.634 190 170 171
-1728.4996 4617.0571 -816.4896 0.237 -0.610 -0.756 134 122 124
-1725.6464 4627.8237 -821.0417 0.266 -0.591 -0.761 136 125 126
-2396.0476 1313.2230 495.9769 0.979 -0.036 -0.203 51 42 33
-2666.8037 2025.9336 367.5967 0.297 -0.693 0.656 69 45 41
-2663.2964 2030.2900 364.8612 0.222 -0.840 0.495 75 51 47
-2654.6577 2031.1307 361.3248 0.432 -0.760 0.486 81 57 53
-2649.8542 2034.5837 358.3921 0.847 -0.504 0.167 144 120 116
-2645.3445 2038.2333 355.5067 0.910 -0.400 0.109 145 121 117
-2642.8279 2043.2599 352.9286 0.910 -0.400 0.109 149 125 121
-2641.1182 2048.8542 350.4719 0.995 -0.069 -0.076 162 136 132
-3041.8269 2591.0698 326.3830 0.924 -0.303 -0.232 144 96 80
-3072.5918 2632.7014 324.5328 0.943 -0.260 -0.209 133 91 75
-3084.7798 2651.1562 323.1649 0.918 -0.346 -0.192 133 91 75
-2996.3586 2897.4932 210.0183 0.551 -0.782 -0.291 69 47 38
-2964.0547 2887.2737 201.1194 0.847 -0.337 -0.412 69 46 38
-2970.5217 2902.6899 198.5732 0.666 -0.046 -0.744 88 58 52
-2618.6101 2754.7942 113.4670 0.686 -0.166 -0.708 146 81 51
-2615.9231 2761.1104 110.4072 0.673 -0.072 -0.736 152 87 59
-2617.8196 2771.9656 107.6102 0.673 -0.072 -0.736 200 134 108
-2619.8420 2782.9893 104.8063 0.674 -0.077 -0.735 206 141 120
-2723.8474 2972.1055 82.8935 0.927 0.083 -0.366 159 86 79
-2758.1011 3026.9033 78.1000 0.358 -0.932 -0.052 157 87 77
-2775.6694 3054.9990 75.6444 0.187 -0.804 -0.565 156 88 78
-2769.7280 3058.8315 72.1589 0.187 -0.804 -0.565 156 89 79
-2723.1646 3030.1707 63.8409 0.729 -0.679 0.083 151 88 77
-2854.7117 3273.5056 34.7857 0.640 -0.048 0.767 126 106 118
-2764.0869 3238.2388 11.9565 0.819 -0.058 0.570 142 100 120
-2694.6934 3182.0859 3.9102 0.976 -0.184 -0.118 144 106 115
-2695.6311 3193.5676 0.5482 0.977 -0.185 -0.103 143 106 113
-2688.0708 3280.4080 -30.4173 0.831 -0.435 0.346 124 92 95
-2751.0989 3397.7209 -44.5728 0.870 0.302 0.389 100 68 71
-2727.1802 3380.7502 -48.1179 0.134 -0.955 0.266 94 63 66
-2590.3845 3305.2095 -75.3579 0.773 -0.365 0.520 9 13 7
-2599.5334 3327.2090 -79.0216 0.752 -0.419 0.509 14 13 11
-2586.4641 3322.2075 -82.3413 0.722 -0.492 0.486 13 12 10
-2580.2502 3325.5300 -85.7648 0.730 -0.480 0.486 12 8 7
-2575.0972 3330.1426 -89.2049 0.795 -0.365 0.485 13 9 8
-2571.1062 3336.1833 -92.6683 0.910 -0.208 0.359 20 16 15
-2568.0754 3343.4182 -96.1553 0.910 -0.208 0.359 20 16 15
-2525.8721 3301.9885 -98.6927 0.360 -0.690 -0.629 20 16 15
-2528.3774 3370.9829 -120.0782 0.525 -0.744 -0.413 40 37 44
-2523.7205 3376.1731 -123.5179 0.525 -0.744 -0.413 44 41 48
-2519.0637 3381.3623 -126.9572 0.525 -0.744 -0.413 51 48 55
-2540.3953 3419.9036 -131.3717 0.946 0.060 0.318 53 50 58
-2506.4966 3387.5476 -133.7081 0.311 -0.264 -0.913 48 45 57
-2527.1025 3425.3738 -138.1654 0.221 -0.328 -0.919 45 38 54
-2525.0537 3456.8125 -149.1156 0.574 -0.427 -0.699 45 41 56
-2518.9541 3471.7258 -156.2477 0.616 -0.365 -0.698 62 53 70
-2501.2842 3482.8738 -166.5330 0.878 -0.141 -0.458 118 96 108
-2499.7388 3492.3655 -170.1893 0.866 -0.214 -0.451 145 121 133
-2497.7915 3501.3486 -173.8327 0.924 -0.291 -0.248 107 83 96
-2498.6685 3514.1550 -177.6466 0.996 0.042 -0.078 107 85 97
-2501.4680 3529.6096 -181.5910 0.996 0.064 -0.060 167 145 157
-2495.1809 3532.8293 -185.0090 0.944 0.259 0.206 192 169 179
-2520.0530 3614.2778 -201.9739 0.994 -0.052 -0.101 212 183 187
-2519.8350 3626.0339 -205.8615 0.994 -0.052 -0.101 216 187 191
-2526.5264 3647.3977 -210.2480 0.680 -0.479 -0.555 219 190 194
-2523.0706 3654.7817 -213.9440 0.691 -0.466 -0.553 218 189 193
-2517.1458 3658.7371 -217.4631 0.678 -0.476 -0.560 219 190 194
-2404.0042 3872.0669 -329.2670 0.137 -0.919 0.369 228 199 203
-2459.6741 4283.6973 -441.4681 0.717 -0.378 -0.586 226 199 204
-1926.9006 4415.8535 -685.5643 0.781 0.072 0.621 235 205 207
-1833.7432 4571.3027 -771.0818 0.549 -0.832 0.083 225 199 198
-1832.3932 4585.6353 -776.2313 0.583 -0.806 0.099 220 196 196
-1789.7302 4657.8506 -815.7272 0.094 -0.727 -0.680 191 176 179
-1761.8865 4695.8750 -838.5563 -0.007 -0.365 -0.931 181 166 169
-2654.2334 2027.5579 355.3625 0.432 -0.760 0.486 80 56 52
-2649.2012 2030.8489 352.3995 0.836 -0.529 0.144 91 67 63
-2641.8933 2032.5638 349.0929 0.857 -0.506 0.096 123 99 95
-2638.1306 2036.7126 346.3286 0.858 -0.506 0.086 148 124 120
-2634.8645 2041.2056 343.6391 0.995 -0.073 -0.074 145 120 116
-2637.7454 2049.9866 341.8677 0.997 -0.062 -0.052 173 139 131
-3041.8616 2586.8787 319.3126 0.883 -0.372 -0.285 144 96 80
-3055.5869 2606.2979 318.1615 0.837 -0.398 -0.375 134 91 75
-3174.7354 2754.6523 314.7438 0.793 0.297 -0.532 127 85 69
-3034.5190 2888.8035 218.3808 0.323 -0.326 -0.888 83 45 30
-3044.4016 2907.1602 216.1297 0.801 0.012 -0.598 83 45 30
-3002.1182 2897.9866 203.2070 0.546 -0.778 -0.311 86 47 32
-2967.8923 2886.0818 194.2034 0.847 -0.337 -0.412 87 46 32
-2611.2812 2734.3098 109.4078 0.401 -0.295 -0.867 139 74 46
-2740.4370 2994.0288 73.5446 0.923 0.099 -0.373 175 80 67
-2771.7996 3036.1169 71.6573 0.458 -0.374 0.807 173 81 67
-2802.0889 3117.9121 56.4555 0.578 0.096 0.811 167 95 77
-2826.8508 3154.1907 53.9743 0.570 0.067 0.819 181 106 90
-2729.8428 3378.3494 -55.4009 0.134 -0.955 0.266 104 72 75
-2612.8596 3326.9944 -82.7076 0.981 -0.161 0.107 10 13 8
-2626.3210 3354.2866 -86.5180 0.190 -0.946 0.264 17 17 15
-2596.4734 3339.9236 -93.0754 0.101 -0.905 0.413 5 2 1
-2600.6482 3356.0447 -96.7467 0.742 -0.353 0.570 6 2 1
-2607.9333 3376.0732 -100.5186 0.950 0.146 0.277 21 15 15
-2612.2673 3392.5598 -104.2487 0.943 0.158 0.293 21 15 15
-2544.1489 3407.8210 -134.8345 0.291 -0.736 -0.611 47 44 51
-2548.6582 3424.8557 -138.6771 0.747 -0.515 0.420 51 48 56
-2556.0427 3445.6711 -142.6673 0.777 -0.516 0.361 49 45 58
-2548.9238 3447.8833 -146.0645 0.777 -0.508 0.371 48 42 56
-2500.4067 3396.4648 -147.5962 0.417 -0.882 0.220 44 37 53
-2504.8572 3436.0935 -158.8073 0.891 -0.178 -0.417 55 50 66
-2536.2393 3488.6926 -164.1050 0.678 -0.189 -0.710 71 62 77
-2532.4668 3495.2854 -167.6676 0.675 -0.184 -0.715 84 71 87
-2519.6311 3501.4700 -174.5068 0.627 -0.460 -0.629 143 113 127
-2515.4556 3507.5251 -178.0463 0.633 -0.453 -0.627 140 110 124
-2506.1907 3506.7781 -181.2885 0.645 -0.478 -0.596 110 81 95
-2502.0891 3512.9172 -184.8275 0.649 -0.474 -0.595 150 121 135
-2499.9565 3521.7141 -188.4899 0.996 0.015 -0.084 179 151 165
-2540.4492 3636.2275 -210.4917 0.996 0.026 0.083 212 183 187
-2560.7354 3676.2844 -215.8852 0.984 -0.105 0.141 217 188 192
-2558.7627 3685.8408 -219.7345 0.986 -0.105 0.130 219 190 194
-2503.6353 3621.7305 -219.6261 0.479 -0.466 -0.744 219 190 194
-2358.0054 3845.9417 -347.3080 0.488 -0.562 0.668 226 199 204
-2356.9658 3857.3965 -351.4236 0.611 -0.691 0.386 226 199 204
-2350.8689 3860.8755 -354.8481 0.611 -0.691 0.386 227 200 205
-2339.7000 4004.1255 -405.6266 0.962 0.044 -0.270 224 199 202
-2265.0044 3893.6799 -397.8134 0.302 -0.763 -0.572 225 200 204
-1827.9558 4583.2817 -786.4360 0.355 -0.332 0.874 218 196 196
-1820.9353 4583.5771 -789.1729 0.355 -0.332 0.874 218 196 198
-1892.4784 4798.6641 -832.1959 0.112 -0.488 0.866 216 194 196
-1771.4485 4692.9229 -843.3414 0.411 -0.395 -0.822 200 184 185
-1768.9255 4723.5698 -854.2551 0.385 -0.430 -0.817 199 176 182
-2642.8127 2029.9156 343.3585 0.857 -0.506 0.096 75 51 47
-2639.7703 2034.5591 340.7026 0.857 -0.506 0.096 93 69 65
-2635.5027 2038.3564 337.8643 0.995 -0.073 -0.074 129 105 100
-2640.3889 2048.5210 336.3741 0.995 -0.082 -0.061 160 127 119
-2638.6296 2054.0884 333.8971 0.818 -0.436 0.375 163 129 120
-2632.8245 2056.8284 330.8284 0.762 -0.503 0.409 164 130 121
-2640.8325 2069.2808 329.7599 0.946 -0.062 -0.319 165 131 122
-2814.5303 2389.0288 290.3685 0.485 -0.686 -0.543 144 95 80
-3075.8154 2626.6699 310.5916 0.450 -0.852 -0.268 134 91 75
-3090.7881 2647.2744 309.4685 0.472 -0.881 -0.005 134 91 75
-3077.9280 2922.5945 214.7305 0.784 -0.172 -0.596 99 49 30
-3005.8806 2896.6731 196.2183 0.581 -0.742 -0.335 101 51 32
-2960.7849 2893.9453 180.2229 0.828 -0.366 -0.425 113 50 29
-2816.8269 2780.7134 163.3001 -0.252 -0.956 0.150 113 50 31
-2694.6582 2875.9578 86.4458 0.905 0.309 -0.292 188 146 130
-2705.2573 2895.9661 83.8797 0.971 0.207 -0.118 236 198 175
-2706.7551 2906.9263 80.8609 0.972 0.204 -0.120 233 189 162
-2742.4087 2981.4648 69.8663 0.872 0.449 -0.193 189 75 58
-2746.1370 3044.3406 50.7266 0.712 -0.153 -0.685 182 101 77
-2733.0466 3376.5837 -62.6893 0.882 -0.344 -0.322 117 85 88
-2613.3521 3322.1465 -89.7296 0.980 -0.164 0.113 9 13 7
-2619.0396 3339.9695 -93.4211 0.992 -0.080 0.097 14 14 12
-2603.5437 3343.0845 -100.2410 0.161 -0.942 0.293 26 22 21
-2606.6909 3357.9475 -103.9170 0.727 -0.397 0.560 28 22 22
-2617.7080 3382.5540 -107.8283 0.918 0.191 0.347 22 16 16
-2618.9517 3395.2397 -111.5059 0.918 0.191 0.347 22 16 16
-2557.8501 3453.6946 -153.4776 0.702 -0.599 0.384 53 45 60
-2494.8674 3394.8865 -157.8544 0.402 -0.886 0.231 56 47 64
-2487.4390 3396.4351 -161.1418 0.714 -0.578 0.395 52 45 61
-2501.9995 3426.6875 -165.5703 0.835 -0.053 -0.548 80 71 88
-2517.0337 3469.1926 -173.8233 0.907 -0.131 -0.401 129 112 129
-2511.3452 3484.6892 -181.0147 0.934 -0.313 -0.172 140 106 122
-2508.1931 3492.0532 -184.6002 0.853 -0.521 -0.037 131 95 112
-2504.3799 3498.5486 -188.1496 0.853 -0.521 -0.037 149 113 130
-2500.0862 3504.4084 -191.6712 0.858 -0.511 -0.046 187 152 168
-2481.1428 3525.4761 -205.6455 0.903 0.142 -0.406 201 171 176
-2493.2947 3553.7781 -210.3389 0.882 0.130 -0.453 206 177 181
-2546.7759 3650.9670 -222.0557 0.999 0.017 -0.037 217 188 192
-2548.6096 3665.6833 -226.1755 1.000 0.015 -0.025 219 190 194
-2191.6492 3752.3022 -388.1314 0.410 -0.810 -0.419 224 199 202
-2183.0825 3750.9365 -390.8931 0.679 -0.734 -0.031 224 199 203
-1871.1899 4735.8228 -829.3569 0.254 -0.335 0.907 223 201 203
-1696.0955 4450.8706 -801.8532 0.803 -0.480 -0.353 215 201 201
-1677.1727 4419.0254 -798.5379 0.784 -0.361 -0.504 215 201 201
-1677.4320 4437.1167 -804.3496 0.791 -0.336 -0.511 217 200 201
-1714.7323 4588.9248 -839.9646 0.540 -0.441 0.717 216 187 195
-1716.9241 4613.0078 -847.0096 0.515 -0.495 0.699 215 187 194
-1691.6796 4655.9229 -870.4791 0.569 -0.548 0.613 224 194 202
-2635.3333 2034.9519 331.9780 0.982 -0.169 -0.079 73 50 45
-2636.9995 2042.8629 330.0036 0.997 -0.054 -0.047 113 81 73
-2632.0100 2046.1610 327.0618 0.994 -0.096 -0.050 132 99 90
-2628.7896 2050.6902 324.3754 0.753 -0.557 0.350 155 121 113
-2621.1858 2052.1416 321.0650 0.509 -0.741 0.438 172 139 130
-2621.6313 2059.2493 318.8992 0.393 -0.590 0.705 162 129 120
-2613.7710 2060.4980 315.5597 0.393 -0.590 0.705 162 128 120
-2608.8311 2063.7996 312.6352 0.461 -0.602 0.652 162 128 120
-2690.0037 2857.3689 82.5416 0.901 0.316 -0.296 195 148 134
-2696.0833 2872.7505 79.7615 0.906 0.306 -0.292 227 189 167
-2702.7502 2888.7942 76.9829 0.892 0.047 0.449 248 212 184
-2613.4380 3316.8169 -96.7313 0.980 -0.164 0.113 9 11 6
-2613.0745 3338.2354 -103.8937 0.232 -0.890 0.393 33 29 28
-2602.6157 3336.4797 -107.2162 0.245 -0.897 0.369 66 61 60
-2602.4294 3347.2349 -110.8141 0.729 -0.381 0.569 85 77 78
-2608.0315 3365.1318 -114.5975 0.900 0.041 0.434 77 69 70
-2613.8962 3383.4424 -118.4187 0.918 0.191 0.347 77 68 69
-2609.0242 3388.5745 -121.9184 0.880 0.120 0.460 79 70 71
-2622.2622 3427.4431 -129.7358 0.362 -0.627 -0.690 54 47 54
-2561.6289 3430.1428 -153.2223 0.591 -0.595 -0.545 44 36 45
-2555.7361 3479.5952 -171.6429 0.752 -0.632 0.185 120 107 124
-2536.5071 3466.0403 -174.3634 0.929 0.086 -0.360 125 110 127
-2544.1125 3487.4731 -178.5601 0.830 -0.528 -0.180 127 110 126
-2542.4111 3496.7954 -182.2527 0.814 -0.564 -0.141 134 112 128
-2525.0710 3485.5281 -185.0197 0.856 -0.503 -0.118 140 107 121
-2520.4641 3490.9880 -188.5281 0.855 -0.502 -0.133 113 75 91
-2516.9578 3497.9099 -192.1059 0.855 -0.502 -0.133 128 89 106
-2505.7603 3494.5928 -195.1915 0.866 -0.499 -0.032 200 161 177
-2500.2893 3498.8716 -198.6346 0.863 -0.504 -0.046 193 156 172
-2498.8489 3555.4316 -217.7274 0.974 0.094 -0.207 206 176 180
-2551.6072 3651.5037 -229.5809 0.994 0.031 -0.108 217 187 191
-2218.9885 3676.5039 -361.7648 0.650 0.041 -0.759 220 193 196
-1922.4365 4969.5527 -896.5201 0.739 -0.197 -0.645 226 209 210
-1666.9402 4400.7314 -805.1392 0.797 -0.503 -0.334 215 197 198
-1675.4680 4440.4639 -814.9957 0.724 -0.667 -0.174 222 199 202
-1674.8792 4474.0933 -826.2482 0.716 -0.696 0.042 228 197 205
-1721.6664 4634.5815 -861.4608 0.554 -0.253 0.793 233 202 210
-1587.7893 4311.2261 -805.2779 0.168 -0.728 0.665 234 203 211
-1631.0013 4445.2251 -833.1325 0.612 -0.287 0.737 234 203 211
-2628.5955 2047.2513 318.4910 0.753 -0.557 0.350 117 91 84
-2621.0679 2048.7554 315.2022 0.509 -0.741 0.438 134 108 101
-2616.2368 2052.1372 312.2953 0.536 -0.568 0.624 151 125 118
-2610.7395 2055.0417 309.2984 0.393 -0.590 0.705 152 126 119
-2604.9727 2057.7451 306.2679 0.476 -0.599 0.644 153 127 119
-3089.0776 2628.5295 297.7931 0.503 -0.862 -0.065 148 98 83
-3089.0098 2637.2498 294.8942 0.361 -0.832 0.420 148 98 83
-3084.8413 2642.7520 291.5343 0.370 -0.830 0.418 148 98 83
-3089.8315 2664.3833 286.2576 0.327 -0.944 -0.041 136 86 71
-3117.5449 2909.3218 215.8234 0.496 -0.836 0.236 91 57 38
-2657.5276 2766.0715 92.3464 0.459 -0.194 -0.867 141 74 45
-2683.7517 2837.3220 78.5967 0.837 0.322 -0.442 214 168 141
-2689.5537 2852.3267 75.8048 0.902 0.309 -0.303 234 191 164
-2694.4221 2866.4746 72.9490 0.990 0.064 0.129 248 203 175
-2727.9497 3035.3582 29.7352 0.900 -0.377 0.220 178 115 118
-2724.4902 3041.6506 26.3780 0.900 -0.377 0.220 176 116 120
-2650.4692 3247.6316 -68.9653 0.883 0.222 0.414 159 117 124
-2630.0901 3320.5105 -100.5432 0.330 -0.637 0.697 18 6 2
-2617.2954 3316.0361 -103.8160 0.978 -0.166 0.122 26 18 12
-2624.0903 3335.1477 -107.5929 0.393 -0.324 0.861 14 11 7
-2603.6074 3332.2249 -114.2296 0.397 -0.329 0.857 69 57 59
-2598.4177 3336.8562 -117.6814 0.403 -0.337 0.851 150 133 136
-2591.9502 3339.9170 -121.0898 0.409 -0.334 0.849 137 115 120
-2594.7231 3354.3220 -124.8078 0.948 0.048 0.316 140 114 121
-2587.8264 3356.8608 -128.2035 0.949 0.026 0.315 142 114 121
-2603.4995 3387.3267 -132.4278 0.877 0.116 0.467 141 112 120
-2624.6484 3424.7771 -136.9221 0.975 -0.133 0.175 135 111 120
-2567.0476 3431.3999 -160.4766 0.591 -0.595 -0.545 87 62 71
-2567.1414 3454.2410 -167.9689 0.358 -0.707 -0.610 128 94 105
-2511.4939 3393.9927 -168.7620 0.309 -0.885 -0.347 162 127 139
-2505.4670 3397.4128 -172.1253 0.309 -0.885 -0.347 180 145 157
-2512.9617 3418.3604 -176.2476 0.914 0.091 -0.396 165 131 143
-2516.1980 3433.8762 -180.1599 0.914 0.091 -0.396 149 115 126
-2539.3918 3475.5415 -185.2844 0.637 -0.082 0.767 143 108 120
-2516.4099 3468.3660 -191.4469 0.928 -0.351 -0.123 123 82 95
-2511.2498 3484.5530 -198.6958 0.928 -0.351 -0.123 191 149 162
-2503.2673 3485.4895 -201.9662 0.859 -0.511 -0.038 206 164 175
-2502.0981 3495.4897 -205.6954 0.865 -0.500 -0.043 201 160 171
-1853.9548 4728.8589 -852.6241 0.347 -0.707 -0.616 230 203 208
-1873.2056 4796.1060 -867.6419 0.437 -0.573 -0.693 230 204 208
-1693.7224 4426.8438 -812.5504 0.539 -0.396 -0.744 226 201 205
-1715.6334 4554.6274 -846.5303 0.607 -0.788 -0.108 230 201 205
-1681.0481 4481.3096 -835.2017 0.556 -0.818 -0.147 231 200 205
-1693.9171 4551.2061 -853.4604 0.539 -0.842 -0.032 233 202 207
-1684.6959 4580.9829 -866.6945 0.657 -0.752 0.056 233 202 207
-1691.4287 4617.5522 -876.2474 0.546 -0.450 0.707 234 203 208
-2626.9114 2042.7788 312.4100 0.747 -0.566 0.348 82 59 51
-2619.0654 2044.0555 309.0897 0.513 -0.743 0.430 85 60 53
-2614.1516 2047.3701 306.1777 0.500 -0.733 0.460 133 108 101
-2634.7234 2068.6555 306.7299 0.889 -0.442 0.122 143 118 111
-3114.1582 2901.6470 208.0766 0.447 -0.839 0.311 95 62 43
-3108.7510 2906.5537 204.4554 0.393 -0.904 0.169 95 62 43
-3100.7083 2909.1494 200.6258 0.764 -0.561 -0.318 95 62 43
-3097.2803 2915.7776 197.1658 0.764 -0.561 -0.318 90 54 35
-2686.7026 2835.6721 72.0427 0.905 0.285 -0.316 237 191 160
-2690.5632 2848.7395 69.1432 0.902 0.309 -0.303 248 203 172
-2708.3645 3069.5081 2.6426 0.467 -0.847 0.255 168 115 125
-2601.1443 3062.8101 -34.7398 0.730 -0.481 0.486 177 130 140
-2610.4258 3083.1533 -38.0456 0.848 -0.110 0.518 177 130 140
-2628.3828 3313.0400 -107.5068 0.338 -0.636 0.694 20 6 2
-2622.3721 3316.7136 -110.9427 0.931 -0.249 0.267 26 16 11
-2622.9377 3328.3030 -114.5699 0.939 -0.223 0.262 15 13 9
-2596.6880 3329.2866 -124.5903 0.544 -0.303 0.782 136 117 121
-2595.8669 3339.2380 -128.1874 0.936 0.031 0.352 161 137 143
-2595.2402 3349.4607 -131.8027 0.937 0.036 0.347 166 136 144
-2591.7803 3356.2290 -135.3208 0.937 0.033 0.347 168 135 144
-2600.9370 3378.6018 -139.3445 0.877 0.111 0.468 168 134 143
-2579.7097 3453.2317 -171.8870 0.643 -0.685 -0.343 197 158 169
-2516.6284 3395.0071 -175.9122 0.309 -0.885 -0.347 192 152 163
-2516.5381 3406.1028 -179.6184 0.961 0.064 -0.268 186 145 157
-2512.5300 3412.1670 -183.1059 0.957 0.102 -0.270 175 134 146
-2474.3499 3452.7222 -210.6308 0.855 -0.351 -0.383 203 161 171
-2555.5239 3608.5027 -232.2147 0.978 0.204 -0.033 220 185 187
-2625.6377 2058.9275 299.6440 0.969 -0.077 0.236 101 76 69
-3168.4294 2754.6255 267.8896 0.788 0.147 -0.598 138 91 75
-3088.6079 2808.9109 220.4974 0.554 -0.790 0.262 121 79 63
-3128.4067 2899.6641 204.9559 0.809 -0.244 -0.535 102 69 50
-2636.3960 2727.8938 81.1900 0.845 -0.079 -0.528 141 74 45
-2604.6396 2714.8516 73.8518 0.746 -0.212 -0.632 139 72 43
-2679.3433 2814.6946 68.1200 0.841 0.319 -0.437 186 121 93
-2685.7678 2830.1938 65.3289 0.844 0.323 -0.428 252 202 170
-2598.0510 3054.4272 -41.4678 0.709 -0.475 0.521 184 137 147
-2627.1248 3306.1240 -114.4605 0.338 -0.636 0.694 23 7 3
-2621.9546 3310.7927 -117.9133 0.931 -0.249 0.267 26 15 10
-2622.4258 3322.2446 -121.5475 0.939 -0.223 0.262 17 15 11
-2605.7285 3313.0068 -124.6146 0.563 -0.301 0.769 11 6 3
-2598.5913 3315.2515 -127.9845 0.519 -0.326 0.790 31 20 22
-2592.6660 3318.9473 -131.3916 0.544 -0.303 0.782 111 93 97
-2587.2905 3323.3027 -134.8157 0.527 -0.336 0.780 176 151 158
-2592.0403 3340.0547 -138.6391 0.934 0.030 0.356 181 150 158
-2588.6084 3346.8301 -142.1533 0.936 0.029 0.351 183 148 158
-2587.5469 3356.5400 -145.7718 0.882 0.121 0.456 184 147 158
-2618.0432 3416.5898 -154.5253 0.789 -0.089 0.608 179 145 157
-2598.6230 3448.8079 -172.3759 0.735 -0.678 -0.017 186 152 163
-2525.8826 3435.1230 -194.5672 0.690 0.283 0.666 156 112 125
-2503.7583 3497.6931 -223.5030 0.997 -0.030 -0.066 208 166 176
-2504.1870 3509.8735 -227.3950 0.998 -0.029 -0.062 214 172 182
-2533.7336 3573.0967 -237.5526 0.950 0.050 -0.309 220 185 187
-2419.5969 1898.3593 270.9200 0.601 0.146 0.786 79 56 48
-3492.4001 3051.5051 278.4039 0.693 0.170 -0.701 132 85 69
-3110.1785 2850.7532 205.5806 0.334 -0.924 -0.183 114 81 62
-3090.6982 2843.5322 200.8638 0.279 -0.868 -0.411 114 81 62
-3087.9382 2850.5889 197.4975 0.288 -0.867 -0.407 114 81 62
-3113.9128 2901.5950 189.9695 0.393 -0.904 0.169 106 73 54
-3111.5161 2909.1250 186.5780 0.748 -0.579 -0.325 106 73 54
-2680.1580 2774.6272 73.6508 0.577 -0.113 -0.809 141 74 45
-2680.5898 2811.3940 61.5313 0.870 0.276 -0.408 186 121 93
-2732.7263 3065.4116 -4.2153 0.341 -0.628 -0.700 179 126 136
-2727.5881 3069.9934 -7.6254 0.333 -0.633 -0.699 179 126 136
-2725.0432 3077.3284 -11.0060 0.336 -0.637 -0.694 179 126 136
-2622.6140 3086.7144 -51.6206 0.949 0.097 -0.299 188 141 151
-2592.8948 3063.6829 -54.8044 0.884 -0.009 0.467 188 141 151
-2552.4058 3048.1902 -64.4464 0.954 -0.153 -0.258 193 146 156
-2623.2268 3296.0757 -121.3084 0.314 -0.418 0.853 26 9 5
-2621.5381 3304.8853 -124.8681 0.931 -0.249 0.267 25 14 9
-2618.5710 3312.1838 -128.3910 0.931 -0.249 0.267 20 17 13
-2614.3362 3317.9683 -131.8722 0.667 -0.469 0.580 9 4 3
-2586.7532 3306.3403 -138.0822 0.540 -0.324 0.777 91 73 77
-2581.0020 3310.2031 -141.4766 0.568 -0.284 0.772 172 147 154
-2575.9973 3314.9685 -144.8992 0.562 -0.293 0.774 177 145 154
-2584.1924 3335.9290 -148.8998 0.930 0.032 0.366 180 143 154
-2591.4600 3355.8596 -152.8959 0.948 -0.260 0.182 182 142 153
-2563.7710 3332.6865 -155.2896 0.948 -0.173 0.266 179 139 152
-2601.7561 3401.9556 -164.5212 0.736 -0.354 0.577 180 140 153
-2539.7397 3563.4067 -241.1273 0.947 -0.012 -0.320 219 178 187
-2546.8562 3584.8391 -245.6802 0.953 -0.118 -0.279 220 185 187
-2275.1543 3640.6514 -363.7372 0.793 0.414 0.447 229 198 196
-2285.7761 3669.3677 -369.4397 0.829 0.431 0.355 230 198 199
-1921.5250 4219.1724 -686.3206 0.901 0.363 0.238 237 207 209
-3511.4910 3082.6943 265.0159 0.771 0.322 -0.549 141 94 78
-3570.7354 3141.8853 266.7410 0.751 0.348 -0.561 135 92 76
-3082.8184 2841.5645 189.7638 0.357 -0.836 -0.417 120 87 68
-3111.1973 2875.4180 188.7452 0.611 -0.647 -0.456 116 83 64
-3113.7168 2887.1321 185.7340 0.385 -0.913 0.133 116 83 64
-3106.3821 2899.9258 178.7718 0.460 -0.540 -0.705 116 83 64
-3074.2292 2929.4365 157.1638 0.225 -0.933 0.281 99 64 45
-2662.3855 2744.1135 69.3236 0.766 -0.535 -0.356 141 74 45
-2749.9658 2846.7107 66.8105 0.833 -0.181 -0.523 144 77 48
-2682.9231 2800.0347 58.0479 0.816 0.298 -0.495 178 111 82
-2682.6943 2808.9360 54.9791 0.884 0.275 -0.379 192 126 98
-2687.6060 2822.9089 52.0815 0.886 0.276 -0.372 233 171 143
-2802.0403 3133.5249 -10.4192 0.849 -0.441 0.289 183 130 140
-2689.0559 3084.0400 -34.9719 0.232 -0.798 -0.557 186 136 148
-2604.3330 3204.6274 -106.2728 0.967 0.183 0.178 181 132 137
-2653.7314 3272.8958 -111.1783 0.480 -0.697 0.533 168 123 126
-2662.7925 3294.2751 -115.0488 0.334 -0.423 0.843 153 110 112
-2623.6907 3302.0596 -131.9007 0.925 -0.254 0.281 19 7 3
-2615.8311 3303.4871 -135.2420 0.922 -0.264 0.283 18 14 10
-2607.6743 3315.3904 -142.2051 0.527 -0.556 0.643 23 12 13
-2567.3018 3298.9316 -151.3889 0.556 -0.304 0.774 190 158 167
-2558.5334 3299.0347 -154.6169 0.628 -0.328 0.705 192 155 166
-2554.3413 3304.7266 -158.0527 0.625 -0.324 0.710 187 145 157
-2564.4258 3602.5095 -254.2543 0.951 -0.248 0.182 224 189 191
-2353.6580 1876.7885 241.5612 0.089 -0.573 -0.814 132 96 85
-3077.3411 2927.4438 149.9767 0.142 -0.961 0.239 104 69 50
-3058.5696 2920.3938 145.5468 0.597 -0.445 -0.667 104 69 50
-2732.3345 2761.3867 80.8490 0.335 -0.941 0.039 137 71 45
-2685.9512 2798.4829 51.5390 0.863 0.321 -0.389 178 111 82
-2725.7527 3098.3379 -35.0409 0.137 -0.814 -0.564 186 136 148
-2632.7114 3108.1165 -72.0624 0.963 0.089 -0.254 192 145 155
-2562.7378 3040.0227 -74.4899 0.958 -0.158 -0.239 189 142 152
-2561.5515 3048.6062 -77.8114 0.958 -0.144 -0.249 185 138 148
-2612.4941 3208.9080 -113.3434 0.426 -0.866 0.263 185 136 141
-2644.5833 3256.8826 -117.8716 0.309 -0.895 0.322 173 127 130
-2663.6179 3289.8691 -122.0833 0.236 -0.374 0.897 157 115 117
-2613.8455 3295.7153 -142.0951 0.487 -0.695 0.529 18 14 10
-2566.9290 3293.0845 -158.2161 0.209 -0.518 0.830 178 146 155
-2555.6699 3290.1387 -161.3052 0.628 -0.328 0.705 190 153 163
-2349.5149 3729.7930 -384.1367 0.951 0.187 0.245 228 197 195
-2343.0247 3732.4468 -387.3833 0.962 0.116 0.246 221 190 188
-2335.0627 3758.1362 -398.9231 0.848 0.472 0.242 211 179 180
-2369.4539 1884.9830 238.2723 0.087 -0.570 -0.817 231 195 184
-2709.9922 2771.8276 61.1000 0.684 -0.663 -0.304 141 74 45
-2706.1838 2777.2244 57.9002 0.684 -0.663 -0.304 141 74 45
-2687.9556 2795.9351 44.9933 0.863 0.321 -0.389 178 111 82
-2673.9722 2837.1877 25.9916 1.000 0.017 0.013 206 115 100
-2623.6155 3092.9651 -78.7111 0.967 0.254 0.017 183 136 146
-2562.7837 3035.1606 -81.1025 0.871 -0.116 -0.477 186 139 149
-2558.4446 3060.0605 -91.0920 0.146 -0.981 0.126 195 150 157
-2606.9446 3197.2454 -120.0059 0.517 -0.791 0.329 191 143 148
-2625.3311 3229.1436 -124.1639 0.408 -0.780 0.474 179 134 137
-2613.9080 3290.4097 -149.0126 0.487 -0.695 0.529 19 14 11
-2600.7078 3285.3899 -152.0770 0.707 -0.479 0.520 19 14 11
-2563.6577 3283.7244 -164.8809 0.209 -0.518 0.830 159 128 136
-2553.9207 3282.6260 -168.0224 0.209 -0.518 0.830 185 148 158
-2312.4375 3679.2683 -389.3395 0.907 0.324 0.271 213 182 180
-1808.8562 3911.6570 -649.6499 0.880 0.359 0.311 239 209 211
-2691.5486 1398.6930 512.9111 0.930 0.350 0.109 53 43 34
-2374.5557 1849.0750 246.0516 0.599 0.276 0.751 194 172 160
-2382.7473 1879.0883 238.7951 0.956 0.181 0.231 198 174 163
-3106.4861 2885.8979 156.5851 0.230 -0.591 0.773 119 83 64
-2974.1108 2835.9026 126.0384 -0.026 -0.918 -0.395 116 79 61
-2721.8650 2778.6753 54.9049 0.700 -0.527 -0.482 141 74 46
-2711.5049 2777.8469 51.4662 0.692 -0.649 -0.316 142 74 46
-2688.4897 2810.1899 32.2122 0.897 0.275 -0.345 182 111 87
-2580.8237 3010.9004 -74.6470 0.868 0.495 0.031 192 145 154
-2647.3181 3217.7139 -121.0411 0.441 -0.851 0.285 195 150 156
-2651.0247 3243.1389 -128.3491 0.668 -0.659 0.346 194 149 152
-2611.9026 3208.2688 -130.5491 0.512 -0.777 0.367 184 139 142
-2656.2458 3270.5449 -135.7863 0.342 -0.240 0.908 167 127 128
-2614.8386 3286.1494 -155.9572 0.507 -0.677 0.534 21 13 10
-2591.6116 3269.1401 -158.5183 0.683 -0.548 0.483 20 13 11
-2560.7915 3274.8804 -171.5358 0.368 -0.339 0.866 143 115 122
-2552.5742 3275.6223 -174.7386 0.368 -0.339 0.866 180 146 155
-2525.4990 3328.8557 -202.5487 0.835 0.328 0.442 124 67 85
-2419.1992 3248.3633 -213.3697 0.531 -0.586 0.612 193 150 161
-2327.7549 3550.5173 -348.8726 0.024 -0.977 -0.214 227 195 196
-2268.3699 3666.9590 -409.7616 0.892 0.447 0.067 230 198 199
-1917.9137 4104.6143 -684.3132 0.083 -0.914 0.398 238 208 210
-1781.7629 3903.5481 -664.8845 0.274 -0.827 0.491 223 193 195
-1717.3422 3806.8047 -655.1456 0.892 0.233 0.387 238 208 210
-2652.7419 1641.1031 410.2303 0.613 -0.613 -0.498 61 51 42
-2659.1140 1673.1592 401.5687 0.355 -0.878 0.321 67 57 48
-2380.5593 1874.5763 233.2861 0.956 0.181 0.231 200 177 160
-2821.7048 2696.1804 110.5759 0.399 -0.602 -0.691 118 82 66
-2910.5896 2793.2759 109.2083 0.325 -0.568 -0.757 114 82 62
-2735.1294 2786.8120 48.7079 0.336 -0.942 0.009 132 61 36
-2732.3953 2793.3018 45.5162 0.331 -0.944 -0.005 132 60 36
-2680.9131 2771.1272 34.6844 -0.332 -0.932 0.143 161 89 65
-2568.5237 3051.5505 -101.1741 0.954 0.242 -0.180 200 152 153
-2658.5232 3257.1843 -139.1813 0.214 -0.392 0.895 187 147 146
-2633.6235 3249.4753 -145.4493 0.243 -0.733 0.636 174 136 134
-2627.1921 3252.5857 -148.8091 0.266 -0.717 0.644 148 112 110
-2615.7051 3249.7253 -151.9383 0.179 -0.744 0.644 90 56 54
-2587.7271 3248.5103 -161.5226 0.782 -0.501 0.372 32 14 11
-2589.5591 3261.3557 -165.2511 0.764 -0.558 0.326 30 15 13
-2557.6467 3265.7222 -178.1460 0.137 -0.660 0.739 146 127 128
-2420.8401 3202.8728 -205.5912 0.688 -0.151 0.710 208 163 169
-2156.1135 3416.8269 -373.2099 0.868 0.430 0.250 220 184 184
-2209.0674 3509.0837 -385.7674 0.890 0.434 0.138 228 192 192
-2181.1697 3501.5984 -393.1830 0.859 0.469 0.206 229 195 196
-1941.2505 4145.7974 -698.7545 0.274 -0.738 0.617 232 202 204
-1783.8492 3886.6113 -666.5612 0.276 -0.838 0.471 214 188 187
-1777.4492 3887.0796 -669.0081 0.279 -0.841 0.463 225 198 197
-1782.5237 3940.8101 -685.5298 0.982 0.188 0.031 232 207 205
-1774.9158 3967.6846 -697.4196 0.137 -0.956 -0.258 236 209 208
-2645.1267 1662.7706 393.7177 0.389 -0.915 0.111 63 53 44
-2643.2410 1667.4778 391.4339 0.341 -0.929 0.144 64 54 45
-2399.5603 1891.0187 228.1540 0.613 -0.600 0.514 200 177 159
-2355.7043 1896.9387 210.5267 -0.390 -0.755 -0.527 209 187 166
-2895.6064 2766.3145 104.6162 0.686 -0.259 -0.681 122 87 71
-2700.9341 2776.8896 31.7519 -0.341 -0.930 0.134 146 74 50
-2565.8811 3134.2576 -138.7552 0.067 -0.997 -0.036 198 157 155
-2638.8716 3229.1038 -145.2986 0.154 -0.720 0.677 191 152 150
-2632.1130 3242.4211 -152.2664 0.022 -0.972 0.233 178 140 137
-2625.4939 3245.2988 -155.6068 0.034 -0.968 0.249 152 114 111
-2616.3408 3245.1797 -158.8215 0.197 -0.897 0.397 107 70 68
-2588.0032 3254.1821 -171.9858 0.634 -0.597 0.492 30 15 12
-2575.5859 3260.6567 -178.6212 0.186 -0.607 0.772 27 13 12
-2550.6741 3251.9563 -184.5000 0.082 -0.671 0.737 121 103 103
-2174.9739 3462.8237 -390.3927 0.861 0.389 0.327 231 195 195
-1781.5981 3874.6318 -671.4357 0.198 -0.867 0.457 246 220 219
-1777.2500 3879.4512 -674.6339 0.257 -0.846 0.467 242 218 216
-1776.3738 3891.7109 -679.1470 0.918 -0.024 0.396 236 212 210
-1775.0281 3903.0173 -683.5004 0.983 0.177 0.054 233 209 207
-1797.9310 3995.8879 -707.1817 0.057 -0.950 -0.306 236 212 210
-1799.7397 4014.5210 -712.9240 0.348 -0.892 -0.289 238 212 211
-1799.0804 4027.8450 -717.7247 0.315 -0.915 -0.253 242 214 213
-1791.5632 4026.1257 -719.8092 0.322 -0.912 -0.254 241 211 211
-1782.2445 4020.3679 -721.1504 0.338 -0.895 -0.290 235 207 206
-1768.3859 4004.4429 -720.6219 0.941 0.096 0.324 234 206 205
-1743.6353 3964.0693 -715.5889 0.919 0.042 0.391 237 209 208
-2832.7075 1545.0847 494.2232 0.943 -0.322 -0.087 56 46 37
-2731.8040 1503.6719 472.7594 0.788 -0.420 -0.449 56 46 37
-2775.6277 1540.6038 475.5609 0.426 -0.692 -0.583 49 39 30
-2867.3894 2727.8713 99.4225 0.358 -0.586 -0.727 130 94 78
-2883.6177 2751.2202 97.1309 0.644 -0.358 -0.677 129 94 78
-2891.8323 2767.5706 94.4113 0.707 -0.398 -0.585 122 95 74
-2641.1250 3237.0330 -155.9052 0.025 -0.970 0.244 191 153 150
-2634.5176 3239.9453 -159.2464 0.026 -0.971 0.238 186 148 145
-2627.1655 3241.9700 -162.5456 0.026 -0.971 0.239 174 136 133
-2614.9160 3238.2231 -165.5920 0.202 -0.907 0.369 136 98 95
-2586.3162 3246.8699 -178.6914 0.627 -0.598 0.499 30 15 12
-2573.0862 3241.7112 -181.5990 0.691 -0.529 0.493 30 15 12
-2571.0972 3249.9568 -185.1409 0.181 -0.611 0.770 29 15 12
-1863.4823 4011.9851 -697.8806 0.719 -0.547 0.429 208 178 180
-1806.5272 3906.1753 -681.6246 0.574 -0.717 0.395 244 215 217
-1769.2566 3841.2751 -672.4807 0.431 -0.763 0.481 226 200 199
-1793.6930 3907.3030 -686.5556 0.982 0.154 0.113 230 206 204
-1791.7762 3917.4404 -690.7230 0.970 0.240 -0.033 236 212 210
-1799.3380 3947.9714 -698.5542 0.965 0.254 -0.066 240 216 214
-1814.3755 4009.4497 -714.3903 0.972 0.232 -0.032 240 216 214
-1787.4410 4039.1384 -734.1422 0.963 -0.269 -0.013 236 208 207
-1782.2091 4042.4287 -737.1265 0.958 -0.287 0.011 237 209 208
-1764.3068 4017.4033 -734.8504 0.891 -0.230 0.391 237 209 208
-1723.1322 3939.9504 -722.7682 0.869 -0.001 0.494 237 209 208
-1719.5784 3946.5408 -726.2943 0.872 0.002 0.490 237 208 210
-2810.6353 1526.6619 486.2723 0.938 -0.342 -0.063 60 50 41
-2833.7974 1542.9108 488.8154 0.943 -0.316 -0.101 60 50 41
-2787.5295 1538.0226 474.2065 0.565 -0.613 -0.553 49 39 30
-2786.4863 1543.0677 472.0952 0.195 -0.946 0.259 49 39 30
-2776.8147 1544.0406 468.3520 0.195 -0.946 0.259 49 39 30
-2657.6921 1596.2146 408.3565 0.656 -0.208 -0.726 43 33 24
-2680.0415 1618.9894 408.3578 0.583 -0.277 -0.763 43 33 24
-2652.8711 1610.4620 401.7339 0.011 -0.995 -0.097 43 33 24
-2644.7109 1611.7922 398.3996 0.064 -0.984 -0.163 43 33 24
-2638.6655 1614.2139 395.4330 0.058 -0.981 -0.185 44 34 25
-2656.4707 1663.3947 384.7069 0.374 -0.920 0.117 51 41 32
-2654.2727 1673.7031 380.3697 0.161 -0.749 0.643 67 54 46
-2380.1438 1799.4938 240.3269 0.332 -0.094 0.938 71 51 40
-2358.2639 1802.5101 231.5769 0.499 -0.465 0.731 199 179 168
-2887.7017 2750.3982 90.4609 0.569 -0.306 -0.763 133 99 82
-2628.1135 3227.2234 -165.7876 0.314 -0.794 0.521 191 153 150
-2618.3149 3236.9341 -172.5956 0.257 -0.807 0.531 193 154 151
-2564.2175 3236.4246 -191.4761 0.169 -0.586 0.792 28 14 11
-2554.5391 3235.4097 -194.5347 0.167 -0.589 0.791 19 5 3
-2544.6790 3234.1309 -197.5661 0.167 -0.589 0.791 74 59 56
-2531.3806 3228.6460 -200.3549 0.168 -0.697 0.697 121 103 101
-2256.0771 3515.2468 -396.3921 0.940 0.333 0.075 221 185 185
-1911.5991 4003.0837 -686.3501 0.691 -0.191 0.697 238 204 205
-1803.3140 3892.1838 -686.1649 0.578 -0.720 0.384 224 196 198
-1774.6583 3845.6248 -680.1669 0.427 -0.783 0.452 229 204 203
-1790.3075 3892.8716 -690.9842 0.982 0.156 0.107 221 197 195
-1793.6414 3914.1597 -697.1676 0.970 0.226 0.092 208 184 182
-1785.8799 4057.9202 -749.5895 0.189 -0.981 -0.047 237 209 208
-1748.6753 4004.4680 -744.2207 0.606 -0.589 0.534 237 208 210
-1728.3020 3973.3660 -740.6478 0.602 -0.527 0.600 236 205 210
-2832.8894 1539.8157 483.0306 0.960 -0.262 -0.098 74 64 55
-2793.8843 1538.3448 469.8676 0.522 -0.663 -0.537 71 61 52
-2784.6755 1539.5590 466.2180 0.416 -0.864 0.283 71 61 52
-2777.7681 1541.8354 463.0063 0.416 -0.864 0.283 71 61 52
-2630.5117 1557.6711 405.8879 0.980 -0.102 0.173 53 43 34
-2631.5085 1596.6417 392.7110 0.754 -0.515 -0.408 46 36 27
-2636.6121 1604.8627 391.6466 0.805 -0.389 -0.448 46 36 27
-2330.8787 1894.6566 183.8842 0.352 -0.918 0.183 198 174 160
-2325.9907 1897.2507 181.2704 0.444 -0.830 -0.337 198 174 160
-2322.3647 1900.7555 178.7828 -0.111 -0.793 -0.599 198 174 160
-2310.6514 1898.3412 175.5145 0.451 -0.847 -0.282 192 168 155
-2306.4683 1901.4104 172.9828 0.451 -0.847 -0.282 163 138 125
-2300.3984 1903.0833 170.2743 0.940 0.128 0.315 138 113 100
-2889.6045 2756.6731 80.5526 0.508 -0.437 -0.742 132 106 84
-2675.2864 2774.9348 -0.9171 0.911 -0.226 -0.344 188 116 110
-2625.2156 3239.7363 -179.7982 0.270 -0.808 0.523 193 154 151
-2609.4878 3231.8975 -182.5909 0.220 -0.640 0.736 199 162 161
-2562.4697 3229.0637 -198.0900 0.169 -0.589 0.790 23 9 7
-2552.1594 3227.2844 -201.0868 0.167 -0.589 0.791 38 23 20
-2533.3071 3225.7109 -207.1494 0.174 -0.728 0.663 99 81 79
-2521.8701 3222.4224 -210.0174 0.173 -0.732 0.659 155 133 132
-2505.5457 3213.1284 -212.5142 0.010 -0.974 0.227 206 167 170
-2251.7617 3491.2002 -397.9967 0.940 0.340 0.024 212 176 176
-2278.0906 3542.1995 -406.4682 0.454 -0.878 -0.154 222 186 186
-1861.5629 3978.7212 -703.9985 0.743 -0.269 0.613 230 200 202
-1849.5844 3968.0291 -704.4865 0.549 -0.496 0.673 230 200 202
-1811.7040 3902.6719 -695.0809 0.539 -0.829 0.151 229 201 203
-1798.4237 3888.7671 -694.9102 0.494 -0.785 0.375 217 192 191
-1797.1232 3900.1367 -699.3124 0.519 -0.775 0.360 209 188 185
-1803.1179 3927.0989 -706.5692 0.993 0.008 0.120 131 107 105
-1775.7019 4042.5305 -756.2454 0.004 -0.959 0.283 234 206 205
-1754.2538 4009.4158 -752.2704 0.625 -0.625 0.468 229 199 201
-1718.8635 3959.2354 -747.2596 0.589 -0.577 0.566 233 202 207
-1713.5867 3961.9641 -750.0566 0.021 -0.979 -0.201 233 202 207
-999.8132 2906.5151 -633.9396 0.339 -0.148 -0.929 232 201 206
-2834.4978 1537.8857 477.7308 0.962 -0.260 -0.087 74 64 55
-2785.2241 1548.2408 456.9322 0.619 0.010 0.785 65 55 46
-2754.4094 1550.1897 445.5030 0.624 -0.696 0.357 47 37 28
-2748.5601 1558.4504 440.5831 0.981 0.037 -0.189 64 54 45
-2617.6870 1543.1794 400.2503 0.945 -0.138 0.296 57 47 38
-2619.2273 1549.3591 398.6337 0.953 -0.131 0.275 57 47 38
-2647.0757 1596.4989 391.9180 0.960 0.144 -0.239 56 46 37
-2637.2261 1636.1486 374.6619 0.997 0.073 0.020 56 46 37
-2376.5459 1773.8405 235.7298 0.395 -0.185 0.900 73 55 44
-2334.0376 1887.8218 181.1722 0.449 -0.274 0.850 194 175 160
-2325.0542 1893.5785 176.0318 0.860 -0.034 0.509 193 176 160
-2312.8843 1903.1189 168.4609 0.890 -0.035 0.454 212 194 179
-2299.9526 1899.7599 165.1205 0.913 0.064 0.404 193 174 159
-2295.4146 1902.5460 162.5662 0.947 0.125 0.296 154 132 117
-2293.7078 1938.3879 149.4780 -0.116 -0.988 0.102 154 114 101
-2775.5581 2811.7236 13.1705 0.421 -0.907 -0.030 128 56 32
-2676.6841 2771.8340 -7.4185 0.902 -0.242 -0.358 188 115 114
-2704.9973 3252.1460 -164.9550 0.153 -0.988 -0.007 203 157 157
-2635.8896 3236.3181 -183.5467 0.542 -0.841 0.008 205 165 163
-2628.8115 3238.6624 -186.8330 0.272 -0.804 0.528 191 152 150
-2609.2830 3226.3984 -189.3710 0.231 -0.629 0.742 196 159 156
-2558.9707 3219.6318 -204.5642 0.530 -0.659 0.534 50 35 32
-2549.2515 3218.5474 -207.5767 0.535 -0.665 0.521 47 32 29
-2530.7729 3217.4001 -213.6231 -0.051 -0.968 0.247 138 120 118
-2517.7427 3212.1775 -216.3486 -0.021 -0.965 0.260 204 182 182
-2509.7073 3212.9458 -219.4195 0.008 -0.975 0.221 205 167 170
-2501.9089 3213.9714 -222.4974 0.042 -0.990 0.133 207 166 170
-1897.4668 3834.4236 -649.6195 0.901 0.232 -0.368 231 197 196
-1930.7605 3941.8489 -675.4482 0.890 0.220 -0.399 234 200 199
-1901.9922 3954.6548 -689.9476 0.744 -0.666 0.055 235 201 200
-1851.0110 3906.8870 -691.0831 0.469 -0.236 0.851 224 194 194
-1857.9025 3963.7615 -708.5027 0.703 -0.458 0.544 230 200 202
-1811.5991 3895.2571 -700.7784 0.499 -0.675 0.543 228 201 200
-1796.0022 3876.4822 -699.6755 0.452 -0.814 0.364 228 203 201
-1803.2288 3905.8604 -707.3943 0.613 -0.484 0.625 150 129 126
-1737.4960 3993.7783 -760.9694 0.100 -0.993 -0.063 234 202 207
-1768.2357 4108.6719 -790.2922 0.250 -0.961 -0.115 234 203 208
-2777.4507 1536.3845 451.9196 0.618 0.011 0.786 71 61 52
-2609.9414 1536.7014 393.6579 0.954 -0.150 0.259 64 54 45
-2640.5999 1584.9509 387.4130 0.967 0.038 -0.253 67 57 48
-2648.0444 1594.3248 386.7165 0.960 0.144 -0.239 69 59 50
-2585.1150 1655.9459 343.3024 0.890 0.445 0.102 71 58 50
-2297.9692 1895.3129 159.8383 0.854 -0.109 0.508 199 185 168
-2293.1396 1897.8757 157.2646 0.947 0.125 0.296 198 182 165
-2557.5264 3212.6714 -211.1493 0.534 -0.490 0.689 37 22 19
-2547.4138 3211.1116 -214.1139 0.572 -0.641 0.512 30 15 13
-2520.7781 3210.6118 -223.1856 0.051 -0.931 0.362 202 181 180
-2507.3188 3204.8167 -225.8296 0.029 -0.953 0.303 205 168 170
-2503.3757 3210.5181 -229.1941 0.043 -0.989 0.139 207 166 170
-2250.9570 3466.7053 -406.4900 0.925 0.378 -0.034 222 186 186
-1888.7825 3810.4509 -652.5342 0.933 0.256 -0.254 231 197 196
-1918.4734 3980.8262 -701.8606 0.563 -0.540 -0.625 229 195 193
-1914.1605 3986.3716 -705.2986 0.512 -0.540 0.668 229 195 194
-1805.2144 3874.6912 -704.0297 0.380 -0.924 -0.043 229 201 200
-1798.2083 3873.9805 -706.2131 0.435 -0.900 -0.023 186 161 160
-1799.6758 3891.1362 -711.7085 0.679 -0.647 0.348 59 35 31
-2752.1919 1554.8777 430.2621 0.989 0.078 -0.124 63 53 44
-2643.4407 1589.2800 380.6029 0.814 -0.173 -0.554 78 68 59
-2625.5684 1613.2999 365.9866 0.908 0.393 0.145 77 67 58
-2580.3186 1650.5618 337.2587 0.892 0.451 0.014 75 62 54
-2299.5645 1851.1621 169.7678 0.779 -0.405 -0.479 199 178 160
-2306.7583 1886.5496 159.8151 0.690 -0.154 0.707 196 186 169
-2301.3650 1888.7136 157.1914 0.643 -0.203 0.739 215 205 188
-2295.2024 1890.3016 154.5044 0.855 -0.115 0.506 187 175 158
-2290.5217 1892.9639 151.9518 0.946 0.120 0.301 122 109 92
-2554.7480 3204.1418 -217.6173 0.566 -0.429 0.704 33 17 14
-2551.6975 3210.9949 -221.0798 0.514 -0.710 0.482 48 34 30
-2516.5056 3200.2327 -229.4541 -0.086 -0.979 0.187 193 173 171
-2506.2654 3198.3230 -232.3203 0.037 -0.979 0.198 205 168 170
-2497.4214 3198.0581 -235.2823 0.037 -0.979 0.198 208 166 170
-2242.7039 3471.8262 -419.4956 0.899 0.434 0.061 218 182 182
-1896.7075 3873.8118 -680.3058 0.905 0.132 -0.404 226 186 186
-1823.6395 3878.0320 -707.0300 0.491 -0.680 0.544 231 200 199
-1801.5875 3887.9897 -718.1477 0.482 -0.873 -0.077 53 30 25
-1803.3582 3905.8550 -723.8152 0.596 -0.803 0.006 57 32 29
-1737.7703 4038.7896 -793.1953 0.555 -0.745 0.370 234 204 207
-1715.3655 4002.5105 -788.1838 0.544 -0.838 -0.046 234 204 207
-1067.1733 3082.0540 -688.5822 0.364 -0.148 -0.920 232 201 206
-2748.0144 1550.2113 424.0577 0.828 -0.123 -0.547 77 64 56
-2633.5042 1576.0065 375.5918 0.437 -0.489 0.755 60 50 41
-2626.1697 1577.7323 372.4615 0.437 -0.489 0.755 64 54 45
-2619.0217 1579.5370 369.3676 0.457 -0.494 0.739 64 54 45
-2612.5889 1581.6957 366.3945 0.547 -0.468 0.694 64 54 45
-2622.8762 1609.1914 360.2264 0.908 0.393 0.145 68 58 49
-2608.6714 1612.8020 354.0693 0.679 -0.683 0.269 81 71 62
-2379.1008 1743.9545 228.8683 0.511 -0.144 0.848 70 52 39
-2363.0605 1745.0797 222.9575 0.263 -0.387 0.884 160 141 128
-2278.9739 1815.8788 169.0659 0.028 -0.997 0.078 207 190 171
-2296.3772 1834.0679 168.6287 0.150 -0.940 -0.307 198 180 162
-2310.5579 1850.0795 167.8521 0.829 -0.369 -0.421 183 165 147
-2302.8022 1850.5521 165.0194 0.779 -0.405 -0.479 171 154 137
-2303.0977 1856.7592 162.9302 0.772 -0.406 -0.490 138 128 113
-2299.9844 1860.5376 160.5266 0.775 -0.441 -0.453 116 107 93
-2296.9521 1864.3748 158.1300 0.781 -0.541 -0.312 161 151 140
-2305.0874 1925.3636 139.4013 0.941 -0.012 -0.337 62 47 35
-2556.3569 3190.3975 -220.7011 0.580 -0.224 0.783 40 11 9
-2552.1560 3195.8550 -224.0712 0.576 -0.432 0.694 40 18 13
-2542.2234 3194.4900 -227.0038 0.566 -0.468 0.679 36 19 13
-2517.5894 3196.3284 -236.1203 0.049 -0.792 0.609 173 156 149
-2494.9883 3189.9019 -241.6211 0.081 -0.793 0.604 209 169 170
-1914.8120 3888.8992 -687.7518 0.920 0.385 0.067 229 177 171
-1848.1375 3879.5957 -707.3871 0.568 -0.640 0.517 232 183 177
-1785.8870 3990.4822 -767.9208 0.932 0.283 0.228 152 110 105
-1743.5194 4014.3015 -790.8909 0.670 -0.715 -0.201 238 201 199
-1747.4429 4053.1514 -803.2537 0.161 -0.952 0.260 230 206 200
-1715.7122 3995.6953 -793.8826 0.435 -0.879 0.195 227 203 198
-1696.1556 3965.6924 -790.0159 0.277 -0.900 0.337 225 200 198
