ply
format ascii 1.0
element vertex 800
property float x
property float y
property float z
property float nx
property float ny
property float nz
property uchar diffuse_red
property uchar diffuse_green
property uchar diffuse_blue
end_header
-4396.6338 2588.4531 1628.4036 0.699 -0.258 0.667 43 31 17
-4247.2095 2757.8076 1528.8274 0.935 0.205 0.288 107 101 89
-4241.8750 2776.4270 1522.9113 0.930 0.101 0.354 40 33 23
-3480.1660 2646.2466 1201.8717 0.723 -0.086 -0.685 83 49 31
-3490.0090 2663.7080 1203.0571 0.551 -0.122 -0.826 76 61 56
-3769.9719 2940.5774 1278.0469 0.769 0.260 -0.584 46 89 110
-3774.6121 2955.2585 1277.3945 0.900 0.237 -0.366 106 141 167
-3776.6621 2967.9854 1275.9344 0.822 -0.100 -0.561 136 161 190
-3772.8784 2976.2058 1272.6747 0.842 -0.146 -0.519 58 74 102
-3772.3921 2987.0156 1270.4241 0.842 -0.146 -0.519 9 18 39
-3803.3530 3045.2827 1273.5251 0.602 0.229 -0.765 183 151 134
-3835.7673 3082.4502 1281.2478 0.441 0.277 -0.854 177 149 128
-2943.1047 2564.3054 973.6661 0.545 -0.622 0.563 92 69 46
-2895.1260 2532.3057 957.9136 0.896 0.441 0.050 91 70 49
-2913.1311 2557.1677 961.4115 0.914 0.296 -0.277 91 70 51
-2787.1731 2837.4519 851.6479 0.443 -0.896 0.014 47 28 21
-2755.5764 2835.7517 837.6359 0.425 -0.905 0.015 54 13 0
-2742.1360 2832.1270 832.2204 0.235 -0.157 -0.959 97 47 19
-2715.7188 2916.5552 804.3841 0.926 -0.181 0.333 226 140 89
-2713.3645 2924.3638 801.8500 0.986 0.140 -0.091 234 148 97
-2717.5940 2939.2207 800.9783 0.954 0.239 -0.180 222 136 85
-2715.1138 2957.3579 796.4475 0.975 -0.003 -0.223 182 94 44
-2384.5635 3013.5312 635.9725 0.728 0.221 -0.648 191 110 54
-2464.7649 3201.6614 637.0210 0.903 -0.413 -0.116 104 66 50
-2378.4531 3156.0620 606.4358 0.869 -0.377 0.319 140 105 89
-2283.3533 3084.5332 576.7338 -0.449 -0.517 -0.729 124 92 71
-2301.9976 3152.9915 572.3348 0.927 0.291 0.238 133 97 74
-2309.6714 3174.4041 571.7944 0.930 0.274 0.244 153 110 81
-2316.9075 3195.3320 571.1465 0.927 0.260 0.269 157 109 79
-2324.3428 3216.6406 570.5174 0.927 0.256 0.273 165 109 76
-2348.2166 3260.6257 573.0860 0.852 0.479 -0.213 155 94 55
-2370.2158 3302.2986 575.2385 0.856 0.476 -0.201 152 89 43
-2415.0076 3447.0056 568.3807 0.861 -0.320 -0.396 81 50 23
-2360.5828 3381.9233 555.9169 -0.276 -0.916 -0.289 58 32 10
-2273.2593 3457.0984 502.1932 0.891 -0.428 -0.149 14 16 11
-2264.6616 3456.2104 498.4603 -0.437 -0.822 -0.365 16 15 11
-2246.7146 3526.3271 477.1532 -0.234 -0.919 -0.317 169 157 150
-2234.9541 3520.3601 472.9395 0.216 -0.061 -0.975 183 163 154
-1889.3931 4867.0703 63.3120 0.151 0.027 -0.988 60 42 30
-2113.8105 5567.5542 33.5594 -0.140 -0.195 -0.971 153 133 122
-2064.8271 5481.9468 27.4181 0.291 -0.853 0.433 154 134 127
-2000.1418 5373.9922 18.3514 0.563 -0.670 0.484 212 192 185
-4451.0830 2726.3826 1616.0659 0.674 -0.385 0.630 124 108 85
-4365.2217 2685.3354 1585.0306 0.168 -0.755 0.633 123 109 83
-4391.7261 2723.4714 1589.7965 0.785 -0.356 0.507 102 87 62
-4246.0542 2775.3811 1514.1630 0.933 0.114 0.342 35 28 18
-3574.7839 2611.9646 1241.7532 0.537 0.390 -0.748 121 166 206
-3495.0479 2643.6028 1199.7441 0.941 0.120 -0.316 83 39 13
-3488.2178 2648.5229 1195.7279 0.962 0.084 -0.261 85 52 33
-3499.4680 2667.0361 1197.3112 0.889 0.072 -0.453 61 46 41
-3778.6948 2932.0066 1273.3820 0.842 0.147 -0.519 128 173 198
-3781.7522 2945.4233 1272.2269 0.842 0.147 -0.519 121 161 186
-3787.7031 2961.1248 1271.9474 0.844 -0.262 -0.468 129 161 186
-3782.0227 2967.8687 1268.1057 0.822 -0.100 -0.561 118 141 165
-3777.8525 2975.7859 1264.7247 0.842 -0.146 -0.519 29 43 64
-3777.3721 2986.5933 1262.4644 0.842 -0.146 -0.519 6 10 26
-3780.2168 3000.0376 1261.2080 0.848 -0.142 -0.510 106 87 78
-3802.4680 3040.1641 1263.6758 0.604 0.215 -0.767 182 150 134
-3806.4712 3100.6118 1254.0566 -0.128 -0.986 0.110 184 153 135
-2898.2339 2549.7378 947.8274 0.917 0.396 0.056 98 73 56
-2926.4517 2583.6311 954.1696 -0.162 -0.958 0.236 65 40 22
-2910.0513 2703.1423 924.1651 0.211 -0.871 -0.443 77 43 25
-2916.1514 2728.3411 922.1573 0.253 -0.751 -0.610 91 58 38
-2910.5527 2732.9966 918.7475 0.253 -0.751 -0.610 91 58 38
-2769.9639 2825.6653 837.7048 0.253 -0.690 -0.678 61 25 8
-2759.0576 2824.6899 832.9614 0.418 -0.908 -0.021 73 29 9
-2750.5942 2826.1453 828.8622 0.384 -0.696 -0.607 79 28 3
-2848.4080 2946.2219 850.3569 0.432 0.474 -0.767 176 94 45
-2714.8167 2900.5732 798.6256 0.931 -0.213 0.297 176 90 39
-2713.3696 2909.2954 796.3228 0.933 -0.204 0.295 182 96 45
-2716.0940 2932.7961 793.1108 0.951 0.251 -0.181 169 83 32
-2716.6697 2943.7686 791.2966 0.974 -0.007 -0.228 173 87 36
-2718.3745 2966.4209 787.7843 0.982 -0.010 -0.187 181 93 43
-2461.6479 3214.2214 624.9379 0.811 -0.323 -0.487 119 89 73
-2377.8396 3138.6162 601.3639 0.830 -0.501 0.245 136 108 91
-2375.5422 3146.5417 598.8275 0.886 -0.357 0.295 136 108 91
-2361.1702 3149.5530 591.7643 0.990 -0.137 -0.033 123 92 68
-2357.0083 3155.0161 588.8510 0.972 -0.220 0.079 114 79 57
-2311.0754 3181.5020 563.0895 0.939 0.345 -0.002 135 89 59
-2317.5637 3201.4395 562.2519 0.920 0.390 -0.036 123 71 38
-2362.6572 3285.7791 566.6819 0.856 0.475 -0.204 151 90 43
-2262.4397 3470.2620 486.5226 -0.341 -0.740 -0.580 25 21 20
-2248.9143 3535.0977 468.1538 0.335 -0.018 -0.942 155 140 131
-2094.2485 5355.0825 54.1925 -0.007 -0.128 -0.992 52 35 25
-2026.3142 5202.7158 52.3030 0.207 0.045 -0.977 72 52 41
-2171.8096 5637.8970 35.7699 -0.005 -0.101 -0.995 153 133 122
-2079.6492 5463.4531 27.1080 0.159 -0.918 0.362 148 128 117
-2061.7649 5437.8613 23.8655 0.184 -0.890 0.417 155 135 126
-2006.3977 5355.0005 14.5138 0.743 -0.527 0.414 183 163 156
-1981.5369 5330.5396 7.9053 0.941 -0.268 -0.207 229 209 202
-1978.1669 5342.3477 4.1502 0.949 -0.228 -0.218 234 214 207
-1980.5065 5369.5459 0.0653 0.960 -0.205 -0.193 223 202 197
-1909.5515 5219.4458 -3.6175 0.610 -0.638 0.470 209 189 188
-1962.3965 5383.7290 -10.7988 0.765 -0.390 0.512 208 188 189
-4411.2188 2536.9277 1623.0682 0.841 -0.372 0.394 41 31 19
-4359.2676 2538.9321 1599.3030 0.914 0.364 -0.177 47 35 21
-4378.6724 2560.6853 1603.8971 0.956 -0.042 0.291 46 34 20
-4371.1226 2577.5654 1597.2861 0.659 -0.350 0.666 39 27 13
-4369.4141 2587.2258 1594.6786 0.629 -0.381 0.678 39 27 13
-4360.6704 2592.7749 1589.6870 0.629 -0.381 0.678 41 28 13
-4342.0293 2667.7190 1567.0328 0.155 -0.760 0.631 128 113 88
-4236.9644 2754.7981 1503.1688 0.908 -0.103 0.406 44 38 26
-3580.8909 2612.7100 1234.9062 0.543 0.387 -0.745 120 165 205
-3711.9946 2738.3770 1270.0001 0.496 0.602 -0.625 52 49 47
-3500.7378 2644.1011 1192.8541 0.967 0.220 -0.130 83 39 13
-3491.5173 2647.2361 1188.1073 0.959 0.084 -0.270 77 43 25
-3501.7842 2664.9878 1189.3499 0.942 0.196 -0.273 60 45 40
-3504.6438 2677.2390 1188.3054 0.942 0.196 -0.273 102 109 122
-3513.8137 2694.3120 1189.1835 0.941 0.220 -0.257 143 168 194
-3782.7278 2930.8965 1265.1971 0.859 0.151 -0.489 125 169 200
-3783.2847 2942.3772 1263.2626 0.854 0.123 -0.505 131 170 196
-3788.7649 2957.6912 1262.8148 0.929 -0.180 -0.322 143 175 198
-3782.8252 2975.3662 1256.7773 0.842 -0.146 -0.519 9 23 36
-3809.4167 3041.2446 1256.2083 0.659 0.243 -0.712 180 148 131
-3673.2830 3022.4199 1198.5159 0.585 -0.694 0.418 191 156 137
-3536.2722 2932.5942 1153.9418 -0.126 -0.651 -0.749 179 144 125
-2883.4460 2542.3462 934.3713 0.981 0.061 0.186 99 65 51
-2917.6084 2581.4414 942.3074 -0.279 -0.943 0.180 99 66 49
-2784.1614 2825.3826 835.8140 0.201 -0.671 -0.714 65 24 2
-2763.6460 2844.9050 822.8643 0.249 -0.150 -0.957 157 88 48
-2826.0491 2918.6719 836.9131 0.516 0.482 -0.708 177 94 43
-2711.7021 2902.7805 788.4689 0.933 -0.207 0.295 176 90 39
-2712.6167 2914.0015 786.7450 0.986 0.141 -0.091 177 91 40
-2716.2910 2928.2002 785.6965 0.951 0.251 -0.181 185 99 48
-2720.3420 2942.8618 784.7295 0.951 0.251 -0.181 181 95 44
-2718.4214 2951.1816 782.2815 0.978 0.004 -0.209 179 91 41
-2446.2808 3199.7573 612.4787 0.917 0.231 0.324 118 94 78
-2393.5166 3142.4338 599.6390 0.907 -0.320 0.273 127 106 89
-2376.1753 3130.7910 594.0494 0.836 -0.496 0.235 132 109 91
-2364.4893 3137.2959 587.5514 0.849 -0.511 0.134 132 104 83
-2307.8110 3127.4656 563.9109 0.632 -0.620 0.465 131 99 75
-2301.2830 3162.3452 554.3341 0.920 0.390 -0.036 141 95 65
-2312.3594 3188.4412 554.3530 0.920 0.390 -0.036 104 55 21
-2269.1514 3437.5383 487.4960 0.708 -0.276 -0.650 17 19 14
-2260.8167 3461.0383 479.2719 -0.397 -0.681 -0.616 21 16 13
-2251.0647 3470.3828 473.1039 0.614 -0.660 -0.433 22 14 12
-2241.3035 3504.0503 462.3027 0.687 -0.461 -0.562 26 19 11
-2237.1284 3509.8225 459.3248 0.686 -0.467 -0.558 46 36 24
-2085.2510 5463.2593 19.1804 0.174 -0.916 0.362 151 131 120
-2005.0439 5316.1577 11.0751 0.949 -0.304 -0.089 163 143 136
-1993.5793 5306.5557 7.7423 0.958 -0.276 -0.071 181 162 155
-1986.4003 5328.8618 0.2655 0.923 -0.351 -0.159 231 211 204
-1978.0886 5327.4517 -3.2073 0.919 -0.214 -0.331 224 204 197
-1985.7731 5368.8672 -7.6307 0.942 -0.275 -0.194 219 198 193
-1896.1776 5168.8418 -9.8892 0.528 -0.720 0.451 208 188 187
-4365.0532 2497.0410 1599.2273 0.817 -0.466 0.340 33 23 11
-4404.0659 2529.6008 1610.4822 0.853 -0.374 0.364 34 24 12
-4370.7441 2531.7000 1595.1389 0.760 -0.523 0.386 44 32 18
-4367.6172 2540.4387 1592.0625 0.925 0.346 -0.157 44 32 18
-4387.5474 2562.4822 1596.7758 0.959 -0.050 0.278 43 31 17
-4359.8843 2578.2942 1581.3427 0.650 -0.366 0.666 50 38 24
-4356.4487 2586.9199 1578.1495 0.650 -0.362 0.668 49 37 22
-4226.8257 2668.8225 1504.3368 0.818 -0.293 0.495 107 94 72
-4256.1616 2752.4287 1501.4728 0.924 0.226 0.307 32 24 11
-4241.0322 2764.6807 1492.3418 0.923 0.235 0.305 33 25 12
-4256.0869 2785.4167 1495.1193 -0.129 -0.927 0.352 33 26 15
-3719.7705 2740.1924 1263.3065 0.497 0.603 -0.624 51 47 45
-3488.4543 2631.2153 1180.4661 0.827 0.146 -0.543 83 39 13
-3491.7803 2643.6833 1179.5687 0.870 0.043 -0.491 77 43 25
-3503.4795 2662.4797 1181.2134 0.934 0.181 -0.309 65 50 45
-3777.0156 2922.3372 1254.0779 0.837 0.290 -0.465 125 168 205
-3783.9829 2938.7000 1254.0670 0.838 0.289 -0.462 129 168 197
-3789.0286 2953.6528 1253.4646 0.909 0.042 -0.416 140 175 195
-3790.8057 2977.2832 1249.7343 0.867 0.127 -0.481 0 17 23
-3811.5247 3027.1753 1249.4656 0.659 0.243 -0.712 174 143 128
-3817.8506 3043.4927 1249.1759 0.659 0.243 -0.712 175 143 126
-2870.2932 2545.5601 919.7014 0.600 -0.535 0.594 111 70 56
-2871.2061 2555.6255 918.1823 0.507 -0.617 0.602 117 74 61
-2931.3423 2685.1062 920.3397 0.987 -0.126 -0.104 93 67 53
-2884.4053 2739.4905 888.8745 0.837 -0.545 -0.044 39 39 22
-2782.9478 2799.7185 831.8433 0.840 -0.079 -0.537 71 30 8
-2781.9480 2818.6694 827.7643 0.209 -0.660 -0.722 95 42 10
-2777.0020 2823.7205 824.5789 0.203 -0.209 -0.957 120 62 26
-2776.6084 2833.3540 822.5567 0.203 -0.209 -0.957 134 71 29
-2393.1003 3136.2498 592.5658 0.551 -0.781 0.295 90 74 57
-2379.7183 3129.7627 587.8084 0.847 -0.480 0.229 107 90 71
-2373.2095 3132.1550 584.4315 0.884 -0.381 0.271 127 104 83
-2360.4976 3126.4065 579.8331 -0.005 -0.711 -0.704 132 106 84
-2331.6184 3131.7739 565.8558 -0.029 -0.690 -0.723 107 75 54
-2316.7766 3133.7432 558.8236 0.672 -0.667 0.321 130 100 77
-2302.2839 3125.1943 553.9631 0.587 -0.669 0.457 148 114 93
-2330.6377 3229.7717 546.6409 0.918 0.395 -0.047 155 91 47
-2299.3979 3209.1714 536.5801 0.867 0.380 -0.323 155 80 32
-2262.3972 3456.6919 472.5677 0.947 0.320 0.038 27 19 16
-2254.1672 3456.2688 468.9586 0.912 -0.308 -0.270 27 19 16
-2257.2588 3473.0305 467.1334 -0.291 -0.942 -0.168 26 18 15
-2253.7417 3479.7786 464.2635 0.631 -0.591 -0.503 25 20 17
-2254.1621 3578.8816 445.4652 0.828 -0.549 -0.112 186 159 148
-2048.8821 4358.1055 204.1309 0.231 -0.210 -0.950 159 113 90
-2039.5537 4354.3057 200.6763 0.394 -0.307 -0.866 155 109 85
-2131.5676 4701.4009 175.4350 0.752 -0.417 0.511 135 89 63
-2066.0417 5419.6284 8.4508 0.480 -0.758 0.442 160 142 132
-1992.0933 5350.1484 -11.3953 0.641 -0.766 0.045 219 199 192
-1983.8022 5348.8394 -14.8621 0.660 -0.750 0.055 214 193 188
-1954.8539 5312.6963 -20.9176 0.596 -0.799 -0.083 207 187 186
-4354.5542 2550.6970 1573.5579 0.648 -0.342 0.680 92 80 66
-4332.4321 2569.4912 1560.0521 0.656 -0.331 0.678 105 93 78
-4336.3398 2582.3699 1559.3140 0.843 -0.020 0.537 106 92 73
-4227.8721 2665.9292 1494.7506 0.817 -0.310 0.486 52 37 14
-4202.8340 2660.9990 1484.5178 0.947 0.248 0.203 62 48 25
-4250.0308 2755.7783 1487.3207 0.933 0.152 0.326 31 25 12
-4240.1006 2760.3679 1482.0002 0.905 0.254 0.342 33 26 13
-4235.4731 2768.3586 1478.3922 -0.076 -0.913 0.401 33 25 14
-4320.6123 2879.7095 1494.9471 0.439 0.239 -0.866 14 23 33
-4303.1460 2879.5188 1487.1823 0.534 0.155 -0.831 12 26 40
-3622.5264 2625.2551 1232.2070 0.331 -0.693 -0.640 111 167 213
-3529.5593 2708.7344 1174.5828 0.604 -0.483 -0.633 123 167 210
-3775.5554 2917.0496 1244.2874 0.831 0.300 -0.468 124 167 207
-3784.4902 2934.8870 1244.8384 0.841 0.286 -0.460 128 167 199
-3959.5073 3174.1863 1276.8638 0.677 -0.696 -0.241 172 140 122
-3698.5698 3022.8782 1189.4915 0.931 -0.355 -0.083 172 137 118
-3686.3181 3024.1604 1183.7719 0.890 -0.408 -0.204 172 137 118
-3714.6228 3058.4182 1189.8079 -0.051 -0.549 -0.835 172 137 118
-3445.4841 2892.1526 1101.6570 -0.068 -0.836 -0.544 185 150 130
-2860.7866 2542.6475 907.8942 0.970 0.114 0.216 114 66 54
-2947.7898 2744.8704 907.7570 0.698 -0.448 0.559 50 33 24
-2869.7908 2692.4395 883.0287 0.995 0.096 -0.011 49 32 23
-2845.3643 2679.4189 874.6292 0.995 -0.086 -0.059 48 32 24
-2801.7085 2648.3240 861.1263 0.979 0.082 -0.188 38 29 20
-2804.3596 2727.7371 846.9957 0.738 -0.548 0.394 47 21 11
-2794.5569 2728.0369 842.5592 0.788 -0.503 0.355 50 22 10
-2783.3523 2775.8953 828.3251 0.858 -0.078 -0.508 72 37 21
-2779.6462 2811.8896 819.7283 0.620 -0.625 -0.474 134 70 30
-2456.1536 2794.8794 678.5153 0.550 -0.711 0.438 167 79 29
-2450.4172 2798.1941 675.3138 0.556 -0.707 0.438 154 68 17
-2396.2786 3123.8823 588.3230 0.475 -0.816 0.328 26 15 4
-2387.9724 3134.8501 582.4978 0.551 -0.780 0.297 64 54 34
-2302.9485 3120.3823 547.3105 0.588 -0.670 0.453 142 106 83
-2303.0693 3131.3787 545.2439 0.594 -0.687 0.418 146 106 83
-2313.4150 3189.1917 538.7158 0.918 0.395 -0.044 132 72 30
-2323.7031 3214.3328 538.4626 0.917 0.396 -0.046 153 85 41
-2211.1401 3553.5850 422.7597 -0.259 -0.792 -0.553 198 152 138
-2032.0021 4234.7354 211.3850 0.742 -0.004 -0.670 167 120 100
-1958.6257 5165.9980 -0.9835 0.501 -0.859 -0.100 134 112 107
-1965.2534 5203.3999 -5.2361 0.967 0.227 -0.114 180 157 149
-2008.1643 5378.2095 -19.7812 0.835 -0.529 -0.151 214 191 185
-1990.6584 5352.4604 -22.6349 0.610 -0.792 -0.006 206 186 179
-1952.0402 5269.9355 -23.9694 0.946 0.167 -0.277 207 186 181
-1962.5065 5318.6250 -28.6843 0.378 -0.899 -0.224 208 189 185
-1956.1254 5322.1870 -32.2214 0.378 -0.899 -0.224 207 187 186
-1943.2653 5308.1719 -35.2628 0.565 -0.802 -0.194 208 188 185
-4342.2676 2582.4890 1551.2576 0.731 -0.270 0.627 125 114 96
-4237.2808 2668.2444 1487.8979 0.804 -0.335 0.491 52 40 21
-4208.8647 2661.2302 1476.6156 0.948 0.247 0.201 46 34 14
-4223.0107 2745.6887 1466.5156 0.926 0.073 0.370 30 26 15
-4206.2109 2756.6692 1456.9092 0.426 -0.751 0.505 28 22 14
-3644.3564 2637.2002 1230.1024 0.517 -0.561 -0.647 111 166 212
-3728.4590 2738.8289 1247.7966 0.497 0.602 -0.625 51 46 43
-3498.3259 2641.0950 1164.3701 0.965 0.067 -0.252 77 43 27
-3788.5840 2933.8301 1236.6975 0.841 0.286 -0.460 130 166 201
-3943.7361 3157.1035 1262.3928 0.673 -0.696 -0.252 166 134 116
-3683.6956 3006.4724 1175.9269 0.921 -0.262 -0.290 159 124 105
-2838.8635 2707.7761 857.9991 0.891 0.312 -0.331 39 19 20
-2784.5991 2704.5378 834.4828 0.862 -0.421 0.281 61 15 10
-2774.3909 2792.2715 812.9106 0.990 -0.026 -0.137 149 79 37
-2791.2173 2818.9678 815.2155 0.970 -0.044 -0.239 157 83 37
-2475.5598 2802.1663 678.0251 0.316 -0.839 0.443 172 88 39
-2453.2942 2796.7458 669.1702 0.555 -0.667 0.496 152 69 19
-2393.9563 3115.3149 580.9304 0.646 -0.683 0.340 23 16 2
-2388.4126 3118.9746 577.7534 0.646 -0.683 0.340 18 16 0
-2387.6812 3128.8528 575.5104 0.616 -0.722 0.316 26 24 5
-2383.0259 3133.6621 572.5056 0.963 -0.262 0.056 36 29 10
-2377.9312 3137.8933 569.4174 0.973 -0.230 -0.033 70 54 36
-2289.1565 3096.2681 537.9969 0.608 -0.674 0.419 134 101 80
-2361.1860 3409.7646 509.1937 0.099 -0.756 -0.647 119 68 30
-2351.0735 3407.1147 505.2086 0.113 -0.740 -0.663 113 69 37
-2217.6099 3260.7332 474.2380 -0.140 -0.938 0.316 17 10 1
-2227.1555 3297.3994 471.3680 0.392 0.058 -0.918 10 7 1
-2233.0498 3317.5151 470.0861 0.408 0.090 -0.909 11 7 0
-2232.0083 3327.5103 467.6825 0.573 -0.144 -0.807 10 7 2
-2024.0016 5384.6045 -24.1725 0.937 0.268 -0.223 217 192 185
-2002.6450 5348.9258 -26.7495 0.953 -0.256 -0.161 213 190 182
-1993.2784 5344.7974 -30.1157 0.705 -0.709 -0.024 205 182 176
-1976.4481 5341.3770 -36.9405 0.344 -0.912 -0.225 204 185 181
-1970.7489 5346.8721 -40.5430 0.458 -0.871 -0.177 192 173 169
-1915.1033 5217.4395 -40.1784 0.145 -0.984 0.106 186 166 162
-1889.5835 5168.6304 -42.0590 0.011 -0.837 -0.547 216 197 193
-4343.8257 2569.4734 1543.8301 0.732 -0.265 0.627 119 107 91
-4334.4219 2574.5315 1538.6737 0.731 -0.270 0.627 122 113 96
-4302.8506 2577.0432 1524.1897 0.796 -0.182 0.578 126 116 96
-4246.9814 2617.4658 1491.5292 0.884 -0.148 0.444 99 94 78
-4238.6255 2633.5657 1484.6801 0.307 -0.665 0.680 61 56 42
-4224.1416 2635.2761 1477.9261 0.113 -0.770 0.627 46 40 26
-3667.7708 2670.5830 1224.4247 0.583 0.564 -0.584 135 164 191
-3785.0398 2915.9663 1228.4625 0.821 0.244 -0.515 128 170 214
-3885.5442 3106.5264 1235.7805 0.782 -0.592 -0.197 163 131 113
-3860.4036 3098.1482 1226.2740 0.865 -0.352 -0.358 163 131 115
-3679.8767 2999.0225 1165.6240 0.920 -0.256 -0.297 149 116 97
-3694.5000 3021.9663 1167.6232 0.916 -0.204 -0.345 150 117 98
-2877.1045 2549.2874 897.6701 -0.037 -0.940 0.339 94 49 39
-2781.9211 2688.1658 828.3491 0.686 -0.580 0.439 61 26 12
-2769.8540 2686.2124 823.3822 0.675 -0.588 0.446 79 22 2
-2769.1265 2695.0972 821.3238 0.941 -0.265 0.212 84 25 3
-2796.4985 2780.0583 816.8575 0.835 -0.097 -0.542 138 76 43
-2796.5796 2790.0188 814.9474 0.835 -0.097 -0.542 147 78 38
-2796.8184 2800.1658 813.0709 0.841 -0.100 -0.532 153 79 36
-2467.4751 2788.4778 669.3776 0.311 -0.831 0.461 169 88 38
-2462.4294 2792.5757 666.3406 0.437 -0.745 0.504 160 79 29
-2445.9353 2803.2810 656.9383 0.529 -0.664 0.529 162 83 32
-2441.4133 2807.9326 654.0252 0.523 -0.663 0.536 170 96 44
-2376.3845 3065.9004 574.8035 0.922 0.293 0.253 118 107 79
-2391.4077 3095.7515 575.6304 0.801 -0.459 0.383 102 93 68
-2383.5442 3117.9062 567.8167 0.976 -0.212 -0.043 16 21 4
-2381.7944 3126.4475 565.3724 0.976 -0.212 -0.043 18 18 3
-2380.5200 3135.6287 563.0139 0.975 -0.221 -0.028 30 23 9
-2375.0403 3139.3418 559.8596 0.984 -0.170 -0.058 46 30 17
-2347.6345 3157.7039 544.1250 -0.123 -0.678 -0.725 118 100 89
-2288.3955 3089.6257 531.1685 0.738 -0.625 0.253 123 103 93
-2246.2214 3318.9692 467.6691 0.406 0.095 -0.909 18 7 2
-2200.6484 3297.7983 451.6056 -0.108 -0.974 -0.200 11 13 9
-1969.2222 5266.4312 -35.5781 0.992 0.105 -0.073 193 169 162
-1981.8638 5341.2158 -44.5854 0.344 -0.912 -0.225 183 164 158
-1975.8087 5345.7593 -48.1569 0.458 -0.871 -0.177 141 123 119
-4287.7266 2575.2549 1507.2969 0.716 -0.238 0.657 122 116 99
-4216.4775 2637.6699 1463.5663 0.964 -0.199 0.178 34 33 22
-4268.4438 2946.7793 1425.7328 -0.498 -0.556 -0.666 18 22 21
-4245.4233 2953.8896 1414.1705 -0.546 -0.600 -0.585 15 34 46
-3692.0908 2684.3293 1222.8619 0.557 0.192 -0.808 122 150 175
-3710.0430 2707.5269 1226.2271 0.537 0.590 -0.603 82 92 101
-3496.1501 2622.1140 1148.5820 0.964 0.082 -0.254 83 40 16
-3815.6956 3001.8203 1215.0105 0.873 -0.107 -0.475 150 128 113
-3820.0122 3038.9736 1209.6112 0.644 -0.691 -0.328 157 128 110
-3722.5903 3062.7957 1161.9130 0.891 -0.296 -0.344 148 117 96
-2870.0688 2530.1465 890.2339 0.182 -0.912 0.367 86 50 34
-2862.1123 2532.3872 886.2804 0.168 -0.917 0.361 65 30 17
-2774.0999 2500.3494 853.7201 0.121 -0.875 0.468 44 23 13
-2843.3530 2608.4624 863.0396 -0.072 -0.987 -0.140 31 33 22
-2791.8306 2626.9512 836.6558 0.987 0.057 0.151 48 16 4
-2789.1985 2643.3435 832.2705 0.993 -0.034 0.117 51 18 0
-2788.7676 2652.3989 830.2998 0.990 -0.045 0.131 52 19 0
-2787.0188 2669.7461 826.1168 0.948 -0.132 0.290 65 32 8
-2761.7734 2674.3140 814.0722 0.659 -0.621 0.424 110 47 6
-2758.9614 2681.1514 811.4862 0.922 -0.306 0.239 118 50 6
-2811.3833 2790.2759 813.1754 0.769 -0.253 -0.586 146 75 27
-2802.2629 2801.1245 807.0154 0.785 -0.281 -0.553 171 83 34
-2462.4758 2787.9746 659.5763 0.437 -0.745 0.504 156 78 29
-2456.4849 2790.9893 656.3384 0.435 -0.743 0.509 139 61 12
-2425.6584 2795.0771 641.9240 0.656 -0.577 0.486 166 94 45
-2362.1431 3042.3413 565.2625 0.915 0.286 0.284 70 57 27
-2391.9819 3101.6948 566.7668 0.758 -0.542 0.363 108 104 79
-2382.2581 3110.6777 560.7072 0.842 -0.394 0.368 61 70 52
-2386.7627 3127.2866 559.4304 0.986 -0.164 -0.000 26 31 17
-2367.3945 3417.5969 493.7972 0.452 -0.119 -0.884 145 72 17
-2328.3281 3385.1672 482.9248 -0.333 -0.915 0.228 143 68 28
-2260.8535 3333.9915 463.1954 0.394 0.094 -0.914 25 6 0
-2291.6089 3390.5532 465.6533 -0.322 -0.931 0.172 20 5 0
-2265.6807 3364.2471 459.3777 -0.113 -0.933 0.343 17 7 2
-2207.7434 3301.9717 446.0417 -0.129 -0.968 -0.216 11 14 14
-1966.4834 5144.7944 -22.8222 0.804 -0.584 -0.113 146 119 111
-1961.7645 5152.3188 -26.3852 0.806 -0.577 -0.130 92 67 60
-4277.8833 2576.5549 1492.1915 0.750 -0.213 0.626 72 66 52
-4238.7783 2584.6138 1473.3977 0.976 -0.011 0.219 51 46 32
-4244.4683 2598.5422 1473.1442 0.986 -0.081 0.148 37 34 22
-4243.2900 2608.3572 1470.6840 0.986 -0.081 0.148 27 27 15
-4263.6260 2631.3032 1475.0876 0.995 -0.072 0.075 33 33 23
-4291.8696 2924.4031 1429.5122 0.913 -0.396 -0.102 18 20 17
-3703.2302 2688.5874 1217.2800 0.563 0.236 -0.792 134 158 179
-3720.8926 2711.5696 1220.5006 0.541 0.590 -0.599 88 94 102
-3750.1614 2743.0625 1227.1418 0.532 0.590 -0.608 50 37 32
-3511.7288 2629.9500 1144.6571 0.700 0.184 -0.689 84 39 16
-3525.3477 2650.0078 1146.6780 0.759 0.097 -0.644 83 47 31
-3527.9111 2661.9341 1145.4454 0.759 0.097 -0.644 66 50 48
-3834.4314 3012.0740 1210.9745 0.335 -0.187 -0.924 145 122 108
-3818.2217 3021.9287 1201.8951 0.845 -0.101 -0.525 150 121 103
-3801.3362 3019.9336 1194.8633 0.612 -0.781 -0.129 150 121 103
-3637.4949 2923.6223 1141.8606 0.948 0.116 -0.296 151 122 104
-3777.7463 3231.0020 1142.7227 0.692 -0.714 0.102 165 130 111
-2801.0583 2612.7139 835.5018 0.433 -0.891 -0.133 45 17 14
-2794.4177 2615.9482 831.9410 0.978 0.049 -0.203 47 16 10
-2778.7097 2629.4844 822.3539 0.987 0.133 -0.088 61 22 1
-2780.3020 2640.3801 820.8982 0.987 0.133 -0.088 67 28 4
-2787.2651 2656.3660 820.7975 0.945 -0.132 0.299 82 44 17
-2772.3660 2661.2554 813.2770 0.937 -0.338 0.087 96 55 25
-2730.5596 2735.7131 780.1564 0.941 -0.157 -0.300 171 81 31
-2481.8091 2795.1536 658.9896 0.964 0.185 0.190 166 88 39
-2440.6650 2768.6262 646.1429 0.838 -0.136 0.528 139 61 12
-2511.4487 2887.8108 653.6910 0.402 -0.801 0.444 167 96 44
-2507.6721 2893.5691 650.8906 0.958 0.277 0.080 166 96 45
-2380.3401 3102.6614 553.5131 0.844 -0.397 0.360 95 100 84
-2387.5278 3122.6907 552.7112 0.986 -0.164 -0.000 75 79 65
-2381.4980 3125.6772 549.4682 0.989 -0.151 -0.002 54 53 42
-2287.8254 3088.3237 515.6606 0.986 0.146 -0.082 95 84 82
-2375.9561 3272.9990 517.8793 0.752 0.475 -0.458 159 95 53
-2291.3066 3371.9797 461.0630 0.430 0.185 -0.884 28 9 4
-2272.0173 3367.1238 453.5400 -0.132 -0.916 0.378 23 14 9
-2218.2866 3311.2175 440.9708 -0.178 -0.957 -0.229 11 14 14
-1957.4570 5107.6758 -29.2230 0.905 -0.408 0.124 168 141 134
-2013.1781 5374.5249 -57.5190 0.365 -0.816 -0.448 173 151 145
-4275.3662 2571.7075 1481.5702 0.746 -0.222 0.628 100 96 84
-4276.2988 2593.2561 1477.6876 0.912 -0.072 0.403 58 54 42
-4283.0967 2639.7007 1471.4176 0.923 -0.119 0.365 33 33 23
-4141.7891 2863.6118 1364.9221 -0.069 -0.831 -0.551 10 13 11
-4144.9370 2910.3967 1356.9851 -0.411 -0.646 -0.643 3 19 31
-3715.0764 2693.3396 1211.8788 0.541 0.189 -0.820 147 163 179
-3761.5103 2747.4348 1221.4503 0.532 0.590 -0.608 50 37 29
-3525.9058 2636.7290 1140.2731 0.698 0.177 -0.694 85 39 14
-3528.4758 2648.6055 1139.0342 0.741 0.110 -0.662 84 47 30
-3534.6641 2663.2148 1138.8362 0.758 0.098 -0.645 68 49 48
-3844.5251 3004.3650 1206.6587 0.281 -0.183 -0.942 132 118 111
-3819.9875 3007.7551 1195.2333 0.862 -0.243 -0.445 143 116 99
-3828.7532 3025.8252 1195.4755 0.625 -0.649 -0.433 144 117 100
-2795.7207 2594.5186 828.7737 0.186 -0.953 0.241 44 18 13
-2786.4146 2595.2698 824.5469 0.186 -0.953 0.241 48 17 9
-2776.0857 2613.6545 816.3609 0.963 0.146 -0.226 83 31 7
-2770.2546 2617.5645 813.0276 0.963 0.156 -0.219 98 45 17
-2751.8809 2647.1707 799.0823 0.861 -0.471 0.193 131 72 38
-2470.7676 2768.6060 651.7416 0.952 0.200 0.230 167 89 40
-2374.8425 3100.7571 543.5753 0.935 -0.104 0.340 95 95 82
-2312.1257 3125.8484 511.1018 0.668 -0.614 0.420 94 80 76
-2306.8171 3129.5339 508.0421 0.668 -0.614 0.420 116 95 88
-2375.6667 3266.6140 510.9098 0.747 0.472 -0.468 160 95 53
-2266.0361 3215.9045 472.9766 0.772 -0.214 -0.599 167 88 28
-2321.6484 3421.4651 456.4086 0.471 0.214 -0.856 15 1 0
-1945.9658 5083.8291 -39.2046 0.689 0.057 -0.722 177 150 141
-1966.8229 5157.5879 -44.7542 0.941 0.277 -0.196 83 54 46
-1995.8719 5273.4810 -55.1048 0.683 0.117 -0.721 176 147 139
-4265.7842 2573.1235 1466.6508 0.786 -0.184 0.590 39 33 19
-4278.1470 2590.9817 1468.4674 0.942 -0.008 0.336 35 29 15
-4266.3169 2594.4026 1462.6193 0.936 -0.022 0.350 29 24 10
-4236.5859 2587.0000 1451.1276 0.966 0.212 0.146 32 29 18
-4134.1929 2910.1416 1341.6923 -0.231 -0.395 -0.889 6 16 21
-4077.8992 2893.1184 1320.5360 -0.315 -0.864 -0.392 14 26 30
-3736.7759 2705.1230 1209.3347 -0.076 -0.441 -0.894 84 92 101
-3735.4277 2714.4797 1206.8716 0.427 0.274 -0.862 67 63 63
-3546.6565 2648.3352 1137.7429 0.346 -0.292 -0.892 85 39 15
-3549.5515 2660.4885 1136.5710 0.317 -0.424 -0.848 83 47 31
-3546.9060 2668.5696 1133.7974 0.315 -0.425 -0.849 66 50 48
-3782.2153 2886.4714 1192.8274 0.569 0.455 -0.685 123 160 193
-3858.3022 3010.7114 1201.1382 0.261 -0.187 -0.947 137 117 106
-3833.6748 3014.0952 1189.7124 0.728 -0.465 -0.503 137 110 93
-3622.7800 2882.1042 1124.1228 0.891 -0.289 0.350 137 108 90
-3637.2808 2915.0364 1123.8523 0.835 -0.405 0.373 137 108 90
-2777.0859 2573.5356 816.8798 0.225 -0.954 0.198 62 29 18
-2763.8193 2570.5842 811.6815 0.228 -0.963 0.144 74 34 23
-2760.1316 2585.6111 807.0612 0.911 -0.116 -0.395 110 49 22
-2673.9119 2624.4521 761.6509 0.891 0.086 -0.446 170 82 40
-2359.5662 3086.1897 531.9454 0.831 -0.203 0.519 69 57 49
-2309.5398 3127.5015 501.8354 0.813 -0.326 0.482 87 67 59
-2359.9243 3239.2844 501.4253 0.773 0.452 -0.445 156 93 51
-2249.6873 3198.0522 461.5782 0.947 -0.221 0.234 166 90 26
-2415.1443 3550.9939 463.0653 0.681 0.435 -0.589 22 6 1
-2239.9128 3341.9180 428.4854 -0.249 -0.950 -0.190 4 9 13
-2223.1707 3328.6982 423.8279 0.756 -0.469 0.458 5 9 13
-1992.8706 5171.6128 -45.9525 -0.106 -0.172 -0.979 179 152 145
-1994.7012 5196.1514 -50.0705 -0.106 -0.172 -0.979 185 158 149
-4284.5918 2467.2310 1485.7567 0.206 -0.771 0.602 117 106 88
-4167.9263 2929.5918 1341.8187 -0.231 -0.395 -0.889 14 18 19
-4159.9507 2935.3098 1337.1987 -0.231 -0.395 -0.889 13 18 17
-4099.4995 2904.2678 1317.1783 -0.314 -0.865 -0.391 13 17 19
-3765.1616 2711.2917 1210.7443 -0.194 -0.610 -0.769 23 29 37
-3763.9395 2741.5608 1204.1102 0.446 0.266 -0.855 57 39 28
-3557.3137 2652.4783 1132.2476 0.346 -0.292 -0.892 84 39 17
-3556.2524 2661.7158 1129.9238 0.194 -0.437 -0.878 81 48 31
-3553.5801 2669.7791 1127.1364 0.190 -0.449 -0.873 64 50 47
-3869.9727 3004.1870 1197.2535 0.454 0.317 -0.833 122 103 91
-3879.0859 3022.4380 1197.5355 0.057 -0.142 -0.988 138 114 98
-2771.4604 2564.4919 808.3644 0.232 -0.971 0.061 89 46 32
-2761.0864 2564.1709 803.9195 0.228 -0.973 0.031 108 57 43
-2764.4756 2576.4619 802.9147 0.765 -0.123 -0.632 119 66 47
-2759.7341 2581.2996 799.8781 0.943 0.010 -0.332 134 66 32
-2764.1919 2631.8787 791.6182 0.908 -0.073 -0.412 148 72 37
-2429.5305 2742.4553 623.8410 0.842 -0.063 0.536 141 63 14
-2326.8450 3017.6243 523.7220 0.912 0.269 0.310 50 33 22
-2338.8035 3128.4382 506.5781 0.492 -0.868 -0.061 25 14 10
-2337.3101 3137.2500 504.1523 0.463 -0.886 -0.005 24 13 11
-2337.3057 3213.7913 488.7180 0.902 -0.403 0.155 165 92 45
-2260.2368 3206.9106 456.6023 0.711 0.075 -0.699 167 91 29
-2285.9058 3254.0981 458.2469 0.546 -0.224 -0.807 162 93 27
-2250.2568 3350.7834 423.2560 -0.253 -0.946 -0.200 3 10 13
-2249.0701 3383.8921 416.0647 0.897 0.431 -0.097 18 20 20
-2171.2705 3325.0562 394.1065 0.456 -0.827 0.329 13 15 14
-2161.3335 3450.3135 364.5322 0.721 -0.405 -0.562 182 149 134
-2035.4568 5327.9067 -68.7509 -0.111 -0.164 -0.980 155 128 119
-2035.8640 5349.4175 -72.9109 -0.152 -0.181 -0.972 168 144 134
-2043.9506 5391.1304 -77.8058 -0.133 -0.165 -0.977 189 165 158
-4255.0859 2457.4578 1464.6621 0.114 -0.822 0.558 110 99 82
-3831.2910 2744.0276 1223.0149 -0.439 -0.663 -0.607 5 7 9
-3771.7676 2732.9790 1199.4812 -0.175 -0.395 -0.902 48 34 26
-3576.9797 2663.2324 1129.2831 0.429 -0.493 -0.757 83 40 17
-3565.7019 2664.9678 1124.0475 0.209 -0.467 -0.859 81 48 33
-3566.3630 2675.5105 1122.1951 0.300 -0.540 -0.786 65 51 49
-3883.6506 3010.4060 1191.6489 0.459 0.320 -0.829 126 103 88
-3887.4900 3024.6069 1190.4305 0.084 -0.083 -0.993 131 103 84
-3396.9138 2944.6531 994.2202 -0.392 -0.907 -0.152 146 110 94
-2786.7051 2565.3113 806.9418 0.809 -0.342 -0.478 84 46 26
-2784.8855 2572.8394 804.6268 0.809 -0.342 -0.478 100 54 36
-2782.1519 2579.5459 802.0826 0.862 -0.233 -0.450 119 64 47
-2783.5503 2590.0542 800.5563 0.911 -0.069 -0.406 132 72 51
-2776.0955 2610.9858 793.0820 0.903 -0.429 0.005 154 67 29
-2770.3083 2614.9084 789.7802 0.925 0.008 -0.381 154 67 30
-2763.4556 2617.8235 786.2215 0.894 -0.078 -0.442 162 75 39
-2326.3518 2990.9917 521.2434 0.883 0.457 0.103 59 30 9
-2286.5276 2970.9329 508.0679 0.576 -0.626 0.526 51 32 29
-2342.0134 3127.0503 500.4238 0.492 -0.868 -0.061 140 129 125
-2336.4290 3130.4338 497.3191 0.492 -0.868 -0.061 63 52 50
-2308.1553 3135.8538 483.9765 0.310 -0.887 0.341 68 23 3
-2336.9907 3207.5042 481.9276 0.902 -0.402 0.157 165 91 43
-2245.3169 3213.0891 441.0979 0.537 0.080 -0.840 163 93 35
-2468.5818 3627.5125 453.7043 0.567 0.370 -0.736 14 4 0
-2256.8857 3354.1560 417.4899 -0.262 -0.940 -0.218 3 10 13
-2157.8579 3298.3772 385.9242 0.526 -0.796 0.300 14 16 15
-2168.6987 3455.1096 358.8231 0.782 -0.362 -0.507 173 142 125
-2167.7358 4834.8462 78.5060 0.991 0.119 -0.056 144 99 73
-2107.4207 5355.3975 -53.2132 0.905 0.309 -0.293 156 129 110
-2074.2026 5414.0078 -79.4874 -0.112 -0.176 -0.978 192 165 154
-2063.0825 5426.5898 -86.8551 -0.098 -0.154 -0.983 184 160 150
-3645.2742 2709.6533 1139.9377 0.049 -0.997 0.055 82 40 17
-3587.1836 2677.0769 1121.5305 0.336 -0.499 -0.799 81 47 31
-3587.7537 2687.5928 1119.6302 0.339 -0.509 -0.791 66 49 44
-3644.3257 2739.7205 1133.3917 0.462 0.444 -0.768 102 103 112
-3813.2720 2897.6121 1174.0367 0.573 0.457 -0.680 130 148 168
-3838.6045 2927.5833 1178.8462 0.587 0.423 -0.690 40 52 66
-2422.8320 2725.9587 609.3335 0.918 -0.289 0.272 138 64 17
-2418.4934 2730.5925 606.5164 0.927 -0.276 0.256 126 51 6
-2417.1580 2748.0859 602.3698 0.937 -0.205 0.283 140 71 23
-2311.0789 2966.3660 512.0624 0.884 0.455 0.104 63 33 14
-2315.1384 2981.7495 510.6735 0.884 0.449 0.128 56 33 14
-2340.0964 3129.6541 491.2504 0.503 -0.862 -0.065 162 151 147
-2312.9543 3136.6091 478.1236 0.300 -0.888 0.348 68 20 1
-2331.9988 3194.9070 474.4391 0.901 -0.376 0.214 167 91 40
-2355.2524 3420.6602 438.3915 0.548 0.319 -0.773 38 13 1
-2179.2092 3312.7881 384.4762 0.237 -0.935 0.263 19 23 22
-2184.4431 3437.2375 361.3328 0.596 -0.392 -0.701 43 38 30
-2180.8103 3443.4619 358.4954 0.587 -0.393 -0.708 57 42 32
-2178.3118 3451.4688 355.7834 0.601 -0.447 -0.662 94 76 65
-2173.6257 3456.0527 352.8265 0.764 -0.423 -0.487 159 139 127
-2322.7878 3742.0476 358.7913 0.710 0.421 -0.564 195 163 152
-2170.9978 4865.8633 63.9419 0.793 0.115 -0.599 140 97 72
-2139.6304 4813.7500 61.0489 0.949 -0.029 -0.314 140 96 71
-2180.1016 4958.2637 49.0093 0.904 -0.329 0.274 132 92 68
-2217.3950 5512.8394 -48.0973 -0.423 -0.860 -0.285 154 127 106
-2129.6833 5459.0991 -74.9613 0.894 -0.412 -0.177 177 147 137
-2044.0927 5261.4004 -71.5276 0.380 -0.662 0.646 184 152 145
-2034.3933 5256.5967 -74.7308 0.378 -0.663 0.646 189 158 150
-2110.2158 5492.5928 -90.1945 -0.109 -0.183 -0.977 183 153 143
-2102.8848 5494.6011 -93.7665 -0.110 -0.193 -0.975 200 170 160
-2103.3330 5516.8105 -98.1063 -0.110 -0.193 -0.975 205 175 167
-2009.7578 5313.8574 -97.0440 0.641 -0.550 -0.536 188 161 154
-4237.9644 2421.3765 1444.2953 0.417 -0.368 -0.831 63 58 47
-3777.7739 2709.0378 1187.5083 0.684 0.313 -0.658 26 19 13
-3604.8733 2676.2649 1119.9526 0.766 -0.487 0.419 79 38 17
-3581.0071 2668.8003 1111.2316 0.692 -0.665 0.280 80 47 26
-3589.1948 2684.9053 1111.4423 0.363 -0.506 -0.782 68 47 31
-3768.9119 2849.5757 1154.8419 0.470 0.428 -0.772 148 160 174
-3823.7390 2901.3909 1167.7581 0.573 0.457 -0.680 109 120 134
-3848.7119 2931.0725 1172.3923 0.587 0.423 -0.690 21 27 37
-3860.5398 2950.9934 1173.3835 0.590 0.423 -0.688 8 6 10
-3884.3787 2991.2661 1175.3558 0.509 0.092 -0.856 121 103 95
-3875.8506 2995.9238 1170.7355 0.474 0.090 -0.876 130 105 93
-2754.8494 2583.3762 773.8208 0.772 -0.060 0.633 154 77 35
-2598.6946 2886.2114 644.5444 0.378 -0.763 -0.524 157 85 41
-2414.0088 2711.6841 601.0340 0.977 -0.206 0.045 130 60 15
-2359.0842 2687.7629 582.3482 -0.088 -0.787 0.611 148 82 40
-2302.6541 2950.4937 504.1528 0.885 0.455 0.102 51 20 4
-2316.7617 2978.5637 504.4500 0.882 0.462 0.096 50 27 12
-2341.3926 3125.7490 484.8087 0.503 -0.864 0.014 65 53 46
-2334.6340 3127.5552 481.5341 0.299 -0.868 0.396 62 45 41
-2286.7344 3193.0349 447.5084 0.867 0.207 -0.453 171 91 27
-2262.0081 3180.6819 439.4216 0.844 0.108 -0.526 180 104 42
-2354.3948 3401.3083 433.8103 0.348 0.226 -0.910 45 12 0
-2212.0110 3485.3428 355.3801 0.178 -0.860 0.479 42 37 30
-2212.8948 3535.2305 345.5156 0.794 0.403 -0.456 170 157 154
-2120.1128 4605.2720 85.9246 0.945 0.266 -0.190 161 118 99
-2159.1450 4740.6743 74.8902 0.818 0.197 -0.541 156 114 94
-2191.0608 4880.7573 59.8373 0.775 0.116 -0.621 147 106 84
-2190.9668 4898.4053 56.1730 0.750 0.063 -0.658 145 104 81
-2172.5706 4965.5791 34.4753 0.994 -0.085 0.074 133 97 73
-2183.5200 5008.7686 30.3109 0.999 -0.046 -0.013 133 97 71
-2248.6216 5575.4658 -58.0873 -0.446 -0.861 -0.246 151 124 103
-2224.9172 5622.0786 -77.8433 -0.247 -0.794 -0.555 157 130 109
-2146.5837 5487.6187 -83.8880 0.957 0.247 -0.155 183 150 141
-2085.9375 5354.0771 -82.5220 0.929 -0.371 0.012 190 155 149
-2007.5103 5174.0161 -79.2431 0.706 0.114 -0.699 196 161 155
-2046.3490 5293.3574 -87.0625 0.443 0.070 -0.894 192 158 151
-3767.4253 2718.5930 1171.4174 -0.148 -0.376 -0.915 50 33 19
-3603.0967 2671.2441 1110.8732 0.766 -0.487 0.419 77 37 20
-3578.9028 2663.5391 1102.1110 0.692 -0.664 0.284 67 37 16
-3834.3926 2905.2986 1161.5065 0.575 0.457 -0.679 105 106 113
-3858.8435 2934.5706 1165.9233 0.587 0.423 -0.690 23 21 26
-3887.1309 2978.0066 1169.0560 0.609 0.378 -0.697 98 84 80
-3895.7214 2995.6687 1169.0837 0.509 0.092 -0.856 118 98 88
-3872.7568 2989.3291 1160.5656 0.438 0.026 -0.899 128 102 89
-3613.2927 2833.1072 1081.7987 -0.305 -0.952 0.009 143 111 88
-2673.3328 2942.7188 656.8923 -0.567 -0.661 -0.491 151 82 39
-2457.7583 2746.1091 605.2517 0.925 0.183 0.332 132 64 21
-2413.1465 2715.6514 592.4518 0.949 0.062 0.309 118 52 10
-2333.6592 2663.9692 569.1113 -0.066 -0.776 0.628 156 95 58
-2232.6265 2808.2424 496.0694 0.928 0.004 0.374 174 97 44
-2305.9001 2959.5635 496.1671 0.882 0.462 0.096 44 24 9
-2338.5327 3137.8442 473.3030 0.453 -0.732 0.509 104 71 59
-2262.9534 3132.8579 441.9883 0.787 -0.043 -0.615 175 96 33
-2276.6453 3195.1367 434.9821 0.875 -0.125 -0.468 186 108 47
-2163.1567 3310.0652 362.6718 -0.184 -0.771 -0.609 11 14 14
-2506.6396 5120.6631 135.6308 0.046 0.011 -0.999 168 125 109
-2095.4524 4460.1157 96.1176 0.172 -0.981 -0.087 170 125 104
-2178.7937 4789.4429 63.7510 0.944 0.322 -0.072 155 114 92
-2321.5537 5488.9688 -19.6633 -0.359 -0.320 -0.877 124 93 65
-2073.7393 5269.0132 -80.2784 0.907 0.285 -0.310 171 142 128
-2043.3917 5251.8506 -89.7204 0.945 0.300 -0.129 198 161 153
-3605.1853 2669.0632 1102.8871 0.775 -0.478 0.414 77 37 20
-3583.1960 2662.9871 1094.7762 0.676 -0.663 0.323 71 41 19
-3786.1746 2843.7881 1143.7275 0.479 0.428 -0.767 62 47 29
-3801.3286 2865.7546 1145.6223 0.475 0.424 -0.771 72 66 64
-3844.8457 2909.0459 1155.1760 0.575 0.457 -0.679 48 43 45
-3868.6006 2937.7776 1159.3312 0.592 0.343 -0.730 15 6 9
-3544.4080 2796.4233 1050.5116 0.283 -0.934 -0.218 152 117 95
-3550.3230 2811.4036 1049.9199 0.864 -0.052 -0.501 151 116 94
-2858.3784 2577.4644 803.5775 0.659 0.397 -0.639 136 108 84
-2460.5496 2744.6770 599.2434 0.934 0.093 0.344 131 64 21
-2413.2988 2711.3513 586.0272 0.950 0.070 0.304 117 52 10
-2311.9714 2644.2874 556.7709 -0.050 -0.765 0.642 154 95 61
-2169.8801 2588.7717 507.7379 -0.335 -0.328 -0.884 165 94 45
-2295.6506 2941.4050 488.0677 0.910 0.404 0.089 45 19 2
-2329.5823 3035.9551 482.8829 0.970 0.234 -0.058 80 54 35
-2354.5928 3153.4724 469.1222 0.670 -0.523 0.527 117 76 60
-2356.9924 3178.3655 464.9720 0.748 -0.469 0.469 153 92 59
-2262.0845 3115.2688 437.6275 0.669 -0.318 -0.672 176 95 36
-2181.8967 3448.6858 334.1560 0.403 -0.732 0.550 22 20 19
-2512.1948 5083.7925 135.1519 0.070 -0.008 -0.998 171 128 112
-2088.6895 4483.7495 79.3208 0.947 0.210 -0.242 164 121 102
-2281.7339 5322.8115 -12.7599 0.155 -0.333 -0.930 126 94 69
-2320.0266 5471.7266 -27.3838 -0.370 -0.317 -0.874 124 92 67
-3617.4507 2674.3169 1097.6833 0.902 -0.250 0.351 77 37 20
-3582.8906 2659.0674 1086.1973 0.674 -0.665 0.320 81 48 29
-3800.0679 2850.1187 1138.4709 0.478 0.426 -0.768 53 36 19
-3814.7571 2871.7419 1140.1876 0.477 0.423 -0.770 22 12 6
-3849.2759 2908.2847 1147.2050 0.611 0.473 -0.634 12 1 0
-3874.9404 2938.4143 1151.8035 0.581 0.432 -0.690 19 6 5
-3910.4788 2998.4260 1154.3475 0.560 0.135 -0.817 120 92 77
-3751.4500 2910.1416 1105.2803 -0.135 -0.832 0.538 113 77 55
-3522.6655 2816.7761 1027.6571 0.702 -0.466 -0.538 151 120 99
-2693.3259 2944.5750 648.8062 -0.539 -0.650 -0.536 150 78 31
-2681.4094 2941.8870 644.3083 -0.535 -0.694 -0.482 138 70 26
-2573.5867 2854.5283 616.7894 0.929 -0.211 0.305 136 69 27
-2424.7002 2710.1328 583.7584 0.937 -0.072 0.342 125 58 15
-2419.8599 2714.1592 580.8616 0.928 -0.083 0.364 119 52 10
-2306.9146 2634.2136 549.6179 -0.058 -0.771 0.635 151 92 58
-2360.7654 3060.1672 483.4377 0.042 -0.902 0.431 99 65 42
-2337.1829 3040.3628 477.5648 0.483 -0.697 0.530 93 56 35
-2331.9768 3075.5239 468.0039 0.988 0.151 -0.027 86 51 29
-2334.0725 3099.4126 463.8999 0.986 0.159 -0.049 84 44 24
-2335.5068 3165.6777 450.6562 0.624 -0.633 0.459 159 84 37
-2265.8491 3104.0813 433.9565 0.782 -0.057 -0.621 172 96 40
-2247.9182 3413.3496 361.6909 0.813 0.299 -0.500 12 16 17
-2264.6387 3534.3379 343.4980 0.628 -0.506 0.591 27 33 29
-2176.9468 4780.0352 45.8532 0.738 0.169 -0.653 166 125 103
-2271.5657 5022.3330 35.3760 -0.082 -0.216 -0.973 164 123 101
-2259.9180 5125.9531 8.7688 -0.100 -0.188 -0.977 148 112 90
-2286.0288 5300.0596 -16.5414 -0.059 -0.241 -0.969 129 97 74
-2269.6638 5281.8218 -19.6773 -0.311 -0.679 -0.666 129 97 74
-2274.3508 5431.3091 -48.9373 0.457 -0.865 0.205 129 103 78
-2125.4497 5411.9087 -108.1046 0.951 0.302 0.067 190 153 145
-3774.1257 2691.6506 1150.9768 0.677 0.151 -0.721 28 20 15
-3777.0796 2745.2605 1140.9530 0.656 0.127 -0.744 71 38 15
-3592.8799 2662.6917 1080.4136 0.685 -0.662 0.304 84 53 33
-3694.2375 2747.1523 1105.5195 0.991 0.104 -0.085 73 50 27
-3808.7234 2852.5552 1131.7740 0.496 0.413 -0.764 32 15 1
-3826.4355 2876.4126 1134.2482 0.500 0.413 -0.762 28 16 7
-3854.7449 2908.3005 1139.5155 0.615 0.472 -0.631 23 10 3
-3876.9478 2935.8062 1143.1217 0.580 0.432 -0.691 37 20 13
-3902.2336 2965.7830 1147.5121 0.556 0.442 -0.704 87 65 54
-2675.7456 2941.1440 633.9858 -0.385 -0.699 -0.603 137 70 28
-2459.7124 2734.7827 586.0141 0.952 0.170 0.256 128 61 18
-2422.1245 2712.2100 574.8640 0.927 -0.086 0.366 116 49 7
-2407.1653 2705.0029 570.0530 -0.023 -0.805 0.593 109 44 5
-2330.0767 2655.9050 547.7748 -0.629 -0.756 -0.184 124 64 28
-2227.6526 2749.5979 484.7559 0.132 -0.403 -0.906 149 83 46
-2342.1938 3031.0403 474.0165 0.493 -0.684 0.538 84 40 12
-2325.6787 3082.8992 456.1271 0.992 0.123 -0.041 116 64 35
-2353.4214 3173.0596 448.9012 0.982 0.109 0.157 163 90 47
-2327.1514 3159.5986 440.6217 0.749 -0.321 0.580 182 100 53
-2266.4556 3120.5605 423.1610 0.533 0.138 -0.835 184 100 54
-2264.8303 3539.9282 334.2897 0.624 -0.483 0.615 27 37 29
-2300.6157 5073.9180 26.8591 -0.206 -0.594 -0.777 165 124 102
-2287.9819 5311.0132 -28.3399 -0.551 -0.485 -0.679 135 103 78
-2226.9187 5286.0332 -48.9120 0.688 -0.042 -0.724 128 101 74
-2029.8708 5157.0225 -105.1196 0.934 0.330 0.136 183 146 138
-3765.3652 2733.0876 1128.9333 0.868 0.063 0.492 72 40 17
-3825.4900 2871.7051 1124.9424 0.482 0.417 -0.771 34 21 10
-3862.9231 2921.2222 1130.2378 0.938 0.255 -0.235 56 35 24
-3691.4661 2856.0852 1071.7887 -0.073 -0.816 0.573 102 64 39
-3542.4304 2824.3235 1015.7254 0.525 -0.041 -0.850 149 117 96
-3171.7686 2925.7539 838.1316 -0.122 0.062 -0.991 114 95 88
-2628.1726 2589.5835 680.2447 0.630 -0.316 0.709 162 78 32
-2619.7437 2905.6348 609.8474 0.079 -0.982 0.172 127 60 17
-2442.0869 2739.2266 570.2060 -0.503 -0.864 0.007 109 44 5
-2440.4990 2746.9270 567.9084 -0.635 -0.740 -0.222 105 44 7
-2333.1851 3014.2205 466.1685 0.880 -0.036 0.474 103 46 13
-2320.7271 3029.2373 457.7444 0.874 -0.040 0.484 117 57 30
-2336.2739 3112.4788 446.6874 0.996 0.064 0.068 151 80 37
-2297.1960 3113.7917 429.9482 0.715 0.250 -0.653 183 100 56
-2269.7668 3108.7612 419.4576 0.535 0.139 -0.833 202 116 77
-2270.3184 3130.8337 415.0216 0.233 0.127 -0.964 203 115 74
-2311.8005 3209.2253 415.9155 0.263 0.141 -0.955 158 78 38
-2126.8904 3153.8354 349.7377 0.995 -0.004 0.104 5 7 6
-2243.6177 3405.5562 345.6685 -0.091 -0.995 -0.033 8 12 13
-2238.3865 3504.2729 322.5857 0.276 -0.797 0.537 28 37 26
-2577.8472 5217.4062 103.2450 0.313 -0.786 0.533 181 138 122
-3679.1897 2728.5244 1084.1393 0.856 0.423 -0.296 56 33 9
-3874.3547 2947.5667 1119.4293 0.966 -0.161 -0.204 99 61 37
-3210.0657 2883.4060 854.3566 0.901 -0.427 0.075 131 99 98
-3161.4709 2870.8303 836.6425 0.416 0.522 -0.745 139 107 107
-2365.9939 2678.1733 543.8612 -0.601 -0.781 -0.168 103 44 7
-2318.3936 2754.3401 507.6860 -0.321 -0.282 -0.904 94 43 11
-2308.3364 2818.7595 489.7623 -0.246 -0.233 -0.941 101 47 15
-2257.6653 2795.6821 473.4110 0.013 -0.235 -0.972 103 49 17
-2249.1616 2794.8313 470.0240 0.251 -0.164 -0.954 103 49 17
-2339.5957 3079.5847 447.3922 0.895 0.017 0.445 143 71 39
-2359.8547 3116.5608 448.0266 0.799 -0.416 0.435 150 74 36
-2318.7344 3180.1375 417.2486 0.245 0.099 -0.965 199 118 79
-2331.0925 3229.8115 411.8666 0.311 0.134 -0.941 106 30 5
-2340.2014 3253.3801 410.6747 0.257 0.034 -0.966 90 21 0
-3819.1582 2764.0515 1125.5924 0.905 0.131 0.405 72 40 17
-3576.4111 2853.4500 1005.0181 0.194 -0.694 -0.694 138 106 85
-3189.9050 2851.0540 844.0050 -0.550 -0.605 -0.576 123 93 93
-3198.3723 2879.0034 841.5637 -0.527 -0.721 -0.449 123 92 95
-3374.7441 3090.4009 870.0424 0.447 0.512 -0.734 83 59 60
-3508.0552 3234.0164 895.0275 0.436 0.513 -0.739 44 41 45
-2611.3638 2897.0012 592.3947 -0.039 -0.989 0.144 119 54 12
-2602.2302 2896.9661 588.5851 -0.041 -0.991 0.126 113 48 8
-2315.9214 2626.9644 526.7010 -0.593 -0.708 -0.383 101 44 10
-2276.6289 2814.0283 470.2571 -0.073 -0.219 -0.973 103 53 21
-2257.8054 2800.6167 465.2600 0.239 -0.183 -0.954 104 53 22
-2234.6963 2781.8118 459.6258 0.947 -0.130 0.294 103 52 22
-2295.1707 2935.2222 452.0760 0.897 0.436 0.080 147 71 39
-2326.2793 3046.4385 441.2815 0.926 0.056 0.373 157 79 47
-2326.0100 3066.9500 436.7804 0.966 0.249 0.063 162 78 37
-2375.7173 3273.7632 413.3052 0.267 0.115 -0.957 92 18 3
-2353.2292 3254.2114 408.0903 0.355 0.139 -0.925 77 6 0
-2328.3352 3231.1858 402.6132 0.927 -0.112 -0.359 82 16 3
-2387.6033 3358.0271 400.2438 0.701 0.420 -0.577 29 9 3
-2312.5664 3275.9492 386.4459 0.882 0.177 -0.438 11 5 1
-2237.3010 3394.7480 329.5741 0.609 -0.025 -0.793 10 11 13
-2520.7314 5079.7671 87.5061 0.093 -0.825 -0.557 186 144 130
-2484.1477 5024.4482 84.0531 0.365 -0.722 -0.588 186 144 130
-3724.3755 2733.4219 1083.0309 0.042 -0.979 0.200 78 35 18
-3737.1780 2763.3467 1081.9209 0.146 -0.989 0.011 82 47 23
-3270.7073 2907.6594 856.7003 -0.401 -0.463 -0.791 129 97 90
-3222.9919 2886.2727 841.4406 -0.517 -0.589 -0.621 108 93 90
-3210.9995 2885.9316 836.5222 -0.524 -0.662 -0.537 106 92 90
-3232.5864 2915.4692 839.1520 -0.377 -0.753 -0.540 102 88 86
-3315.5554 3021.4954 850.8735 0.422 0.516 -0.746 49 38 36
-3394.8196 3114.9587 863.7562 0.562 0.510 -0.651 40 42 41
-3435.8123 3163.3630 870.4041 0.558 0.457 -0.692 41 43 43
-3414.7815 3166.5903 860.9556 0.181 -0.156 -0.971 39 45 44
-2529.3301 2534.5789 628.3799 -0.131 -0.727 -0.674 160 80 45
-2464.0796 2712.4128 562.9541 0.970 -0.222 -0.097 131 66 26
-2612.6123 2893.6519 585.7827 0.096 -0.981 0.169 118 53 12
-2602.6465 2892.7004 581.8391 0.091 -0.981 0.171 112 47 8
-2585.1470 2883.4053 576.5550 0.909 -0.272 -0.317 106 43 6
-2321.1011 3044.7471 431.9293 0.922 0.067 0.382 174 82 36
-2309.1594 3113.0122 412.2696 0.646 0.247 -0.722 184 123 82
-2370.8625 3261.2393 406.0588 0.608 0.105 -0.787 68 17 2
-2348.1709 3241.4124 400.8797 0.534 0.110 -0.839 67 18 0
-2335.8665 3235.6333 397.0014 0.813 -0.347 -0.468 65 19 2
-2343.1458 3256.6848 395.5016 0.885 -0.434 -0.169 53 22 10
-2338.5571 3261.4810 392.5597 0.755 -0.061 -0.653 43 18 9
-2260.2490 3196.8076 373.8800 0.992 -0.112 -0.052 8 6 0
-2304.3936 5182.1719 -34.9456 0.026 -0.983 0.179 161 126 106
-2321.7646 5239.9331 -40.1438 0.047 -0.982 0.183 161 124 106
-2299.3682 5503.1431 -106.1024 -0.131 -0.308 -0.942 134 106 84
-2295.2803 5513.7705 -110.0908 -0.138 -0.288 -0.948 146 118 96
-2289.1782 5519.6035 -113.8859 -0.104 -0.263 -0.959 156 128 107
-2027.8073 5156.3608 -144.5206 -0.061 -0.635 -0.770 187 158 148
-1974.2542 5136.1411 -162.4613 0.957 0.216 -0.192 190 156 147
-2016.9561 5266.1768 -172.6671 0.953 0.215 -0.215 189 152 145
-3749.4092 2747.7859 1080.8149 0.150 -0.930 0.336 78 36 15
-3744.1453 2754.2839 1077.2264 -0.054 -0.978 0.201 80 39 17
-3743.4817 2764.1355 1074.8196 0.145 -0.989 0.012 85 44 22
-3342.5891 2966.4070 864.8435 -0.383 -0.413 -0.826 115 89 85
-3282.6111 2934.6624 846.8466 -0.516 -0.619 -0.592 93 89 80
-3222.6689 2902.3044 828.9972 -0.510 -0.796 -0.326 65 60 52
-3205.6021 2897.4065 822.9813 -0.266 -0.614 -0.743 43 39 31
-3393.4392 3109.0347 855.0617 0.585 0.519 -0.623 39 45 41
-2627.6272 2895.3567 583.8027 0.092 -0.977 0.193 124 59 19
-2607.6392 2883.5186 578.0777 0.565 -0.814 0.137 118 53 13
-2596.2771 2881.0122 573.9094 0.605 -0.760 0.237 111 48 10
-2284.3923 2911.4592 438.0168 0.880 0.472 0.059 172 88 38
-2306.0701 3061.3604 414.5665 0.723 -0.361 -0.589 182 101 63
-2305.8994 3071.5784 412.2846 0.727 -0.622 -0.291 194 120 76
-2306.0830 3082.2983 410.0410 0.908 -0.417 -0.047 191 122 72
-2302.6191 3088.2217 407.3232 0.918 -0.394 -0.042 182 120 71
-2379.0432 3266.4551 400.4391 0.608 0.105 -0.787 62 19 2
-2379.9802 3278.8772 398.1396 0.617 0.096 -0.781 60 21 0
-2365.3752 3270.1033 393.9831 0.745 0.227 -0.627 59 22 4
-2339.4390 3245.6902 388.5131 0.889 -0.409 -0.206 54 20 14
-2341.6172 3293.2466 379.1252 0.695 -0.135 -0.707 11 4 0
-2346.2622 5559.3965 -109.3291 -0.407 -0.633 -0.658 131 102 83
-2309.7656 5493.7686 -110.2587 0.219 -0.118 -0.969 121 93 72
-2319.1963 5536.3921 -115.5723 0.231 -0.134 -0.964 123 92 72
-2277.3281 5518.1621 -128.9856 -0.264 -0.299 -0.917 145 118 99
-2267.8323 5515.7241 -132.3950 -0.430 -0.383 -0.817 151 125 108
-2185.6880 5437.4194 -149.5064 0.595 -0.803 0.022 151 125 110
-2014.6273 5246.2808 -179.0652 0.959 0.196 -0.205 188 151 142
-3363.3953 2048.1362 1064.1401 0.816 -0.286 -0.502 36 36 28
-3647.2241 2680.1702 1043.8055 0.995 -0.012 0.100 81 39 17
-3402.2646 3014.2888 869.9463 -0.394 -0.429 -0.813 97 76 71
-3322.3958 2965.4097 847.6024 -0.525 -0.646 -0.554 70 67 58
-3274.4080 2933.5054 834.7295 -0.535 -0.712 -0.455 46 43 34
-3224.9182 2899.9902 821.5868 -0.497 -0.826 -0.266 30 27 18
