ply
format ascii 1.0
element vertex 793
property float x
property float y
property float z
property float nx
property float ny
property float nz
property uchar diffuse_red
property uchar diffuse_green
property uchar diffuse_blue
end_header
-3418.1782 5992.6323 1362.3314 0.858 -0.443 0.261 73 45 21
-3353.4624 5943.9893 1322.3915 0.030 -0.493 0.870 74 46 23
-3237.4263 5942.3584 1227.3472 -0.042 -0.835 0.549 34 23 14
-3215.1865 5943.3604 1208.7710 -0.091 -0.876 0.474 51 33 23
-3228.4319 6005.4326 1202.6771 0.142 -0.843 0.519 66 49 37
-3197.6699 5972.0928 1186.4896 0.191 -0.800 0.569 61 42 31
-3247.5525 6098.6562 1192.8899 0.763 -0.559 0.326 47 29 17
-3240.3721 6106.4229 1184.8546 0.758 -0.563 0.329 41 24 13
-3195.8110 6089.2344 1152.8893 -0.183 -0.981 0.061 32 22 13
-3147.7368 6085.6748 1114.3018 0.331 -0.806 -0.491 49 38 31
-3133.4653 6080.6519 1103.9324 0.307 -0.947 -0.091 50 38 31
-3092.2278 6026.9326 1084.7034 0.608 -0.333 -0.721 65 51 39
-3090.3074 6043.9653 1078.4598 0.608 -0.333 -0.721 62 48 37
-3095.7927 6074.5430 1074.6024 0.597 -0.343 -0.725 67 50 40
-3103.3213 6301.9878 1018.5292 -0.177 -0.472 -0.864 74 59 52
-3100.4163 6318.5781 1011.5965 -0.171 -0.471 -0.865 74 59 52
-2965.9590 6328.3687 898.2661 0.148 -0.899 -0.413 68 58 52
-2957.1731 6333.8257 889.5416 0.148 -0.899 -0.413 73 63 57
-2944.2329 6354.0278 873.3618 0.036 -0.907 -0.420 16 7 1
-2916.3511 6321.2617 859.3873 0.654 -0.752 0.074 15 6 1
-2908.0518 6327.6353 850.8127 0.654 -0.752 0.074 16 7 1
-2242.8291 5372.9067 564.7557 0.611 -0.780 0.135 16 9 1
-2312.6467 5546.0166 574.8182 0.659 -0.712 0.242 16 9 1
-2304.9846 5550.5391 567.2747 0.659 -0.712 0.242 18 11 3
-2305.0898 5572.1772 561.4372 -0.654 -0.688 0.314 18 11 3
-2343.1021 5744.3667 545.5777 -0.325 -0.902 0.284 23 13 4
-2359.4536 5942.8701 504.6887 -0.235 -0.968 -0.084 35 22 13
-2375.6492 6028.2314 494.6469 0.048 -0.650 -0.758 36 22 13
-2362.5259 6021.8970 485.5813 0.037 -0.656 -0.754 36 22 13
-2347.0449 6009.9556 476.1107 0.027 -0.640 -0.768 37 23 14
-2308.3909 5991.8154 449.2671 0.052 -0.589 -0.807 21 7 0
-2242.2239 5858.6470 431.2740 0.437 -0.770 -0.465 31 18 10
-2340.0776 6141.9678 434.2355 0.153 -0.916 -0.372 31 18 10
-2362.4617 6866.4780 254.3029 0.771 -0.636 -0.044 39 24 17
-2295.9380 6718.5239 240.0641 0.765 -0.633 0.116 39 24 17
-2275.1323 6692.5435 230.0552 0.791 -0.611 -0.002 21 6 0
-2203.2671 6617.0151 191.5924 0.872 -0.455 -0.182 26 9 9
-1806.2236 5575.4097 150.0156 0.844 -0.353 -0.403 33 13 15
-1807.3467 5604.0000 143.1124 0.919 -0.223 -0.326 47 25 29
-1810.3992 5743.3291 107.4797 -0.560 -0.537 -0.631 242 227 231
-1805.6326 5756.4736 99.9583 -0.662 -0.442 -0.605 242 227 231
-1754.9335 5717.3892 68.9363 0.672 -0.718 -0.184 126 113 116
-1747.7693 5723.5083 61.3653 0.671 -0.722 -0.168 134 122 125
-1748.1052 5751.8384 53.8857 0.767 -0.361 -0.530 153 142 144
-1740.1963 5811.5698 31.0242 0.684 -0.430 -0.589 216 204 209
-1741.3820 5843.3491 23.2995 -0.484 -0.629 -0.608 238 222 229
-1732.1041 5843.6812 15.5736 -0.484 -0.629 -0.608 236 210 220
-1725.4873 5852.0933 7.8253 -0.463 -0.647 -0.606 247 214 226
-1722.8735 5872.8228 -0.0010 -0.493 -0.594 -0.635 248 212 225
-1721.5039 6332.0859 -126.8630 -0.529 -0.803 -0.274 249 76 85
-1536.3842 5934.0098 -170.2220 -0.271 -0.479 -0.835 253 79 91
-1560.4020 6082.2461 -191.0402 -0.372 -0.551 -0.747 254 90 103
-1478.2284 6305.8716 -319.8871 0.007 -0.714 -0.700 255 114 126
-1469.3091 6308.7134 -328.0054 0.016 -0.706 -0.708 255 114 125
-1457.8943 6301.9297 -335.5418 -0.034 -0.640 -0.768 255 113 125
-1489.0730 6498.6890 -363.7514 -0.201 -0.941 0.271 255 114 125
-1480.6359 6504.5161 -372.2900 -0.393 -0.917 0.066 255 113 125
-1464.8816 6481.4644 -378.9439 -0.190 -0.940 0.282 255 111 124
-225.0493 3913.0208 -696.0741 0.256 -0.883 0.393 255 131 127
-4447.1099 5112.7925 2433.4067 -0.312 -0.859 -0.406 125 96 74
-4014.5969 5105.3975 2079.9556 0.853 -0.155 0.498 103 71 50
-3882.2935 5056.3579 1984.7578 0.455 -0.835 -0.310 152 116 93
-4272.9590 5647.9160 2142.4524 0.901 -0.386 -0.199 144 108 76
-4924.5576 6503.9082 2441.5708 0.219 -0.752 -0.622 146 105 73
-4889.2285 6495.7642 2414.7827 0.464 -0.607 -0.645 143 102 70
-4823.1436 6502.7222 2358.5439 -0.391 -0.778 0.491 136 92 63
-4021.1047 5547.2490 1963.2535 -0.124 -0.965 -0.230 130 86 57
-4453.6611 6205.5688 2136.9380 -0.526 -0.722 0.449 121 86 56
-4021.2239 5786.7310 1897.2003 -0.617 -0.767 0.177 102 70 45
-3890.9983 5826.2705 1779.2426 0.601 -0.333 0.727 177 127 98
-3872.0549 5816.7979 1766.2892 0.780 -0.283 0.559 197 149 119
-3778.3347 5838.1289 1683.3658 0.909 -0.390 0.149 98 57 39
-3756.6367 5858.9121 1659.7910 -0.500 -0.831 0.243 94 55 36
-3721.3994 5825.1299 1640.1599 -0.504 -0.833 0.228 95 58 36
-3631.2170 5745.1758 1588.1221 0.156 -0.957 -0.246 96 61 39
-3625.2410 5753.6265 1580.8759 0.160 -0.957 -0.241 97 62 40
-3731.8503 5946.3970 1615.2526 0.805 -0.292 0.517 99 64 42
-3674.4221 5950.7031 1566.8616 0.184 -0.855 0.484 145 96 66
-3661.7183 5949.6650 1556.7065 0.546 -0.813 -0.201 144 97 67
-3658.4312 5962.8701 1550.3573 0.541 -0.818 -0.194 132 87 58
-3660.4094 5984.1411 1546.1075 0.001 -0.976 0.218 134 87 58
-3653.5657 5992.0654 1538.2937 0.379 -0.911 -0.164 133 87 58
-3644.8931 5997.2163 1529.7427 0.379 -0.911 -0.164 114 71 45
-3666.5596 6067.6309 1528.1006 0.699 -0.707 -0.103 82 46 20
-3667.8828 6088.4453 1523.4386 0.256 -0.965 0.057 80 46 19
-3568.6450 6027.9282 1458.5890 0.510 -0.845 0.160 102 68 43
-3603.3691 6101.4922 1466.8092 0.511 -0.821 0.256 105 71 46
-3563.1902 6076.1309 1440.7904 0.178 -0.713 0.678 110 78 53
-3409.1340 5962.0796 1345.6716 0.138 -0.790 0.597 60 32 8
-3406.7937 5977.2729 1339.5514 0.132 -0.801 0.584 60 32 8
-3347.5330 5918.4219 1307.0996 -0.123 -0.946 -0.300 73 45 23
-3339.5083 5924.1958 1298.9091 -0.118 -0.946 -0.301 73 45 23
-3249.5049 5813.3389 1255.5543 -0.080 -0.796 -0.600 50 32 17
-3261.4788 5947.4990 1228.3375 -0.009 -0.868 0.496 33 23 14
-3258.1511 5961.2783 1221.7961 -0.050 -0.832 0.552 34 23 14
-3258.4260 5981.2539 1216.5043 -0.384 -0.912 -0.140 41 24 15
-3219.7666 5993.7051 1181.2898 0.142 -0.843 0.519 45 25 14
-3206.0098 5989.7246 1171.0823 0.142 -0.843 0.519 38 18 7
-3211.3059 6018.7749 1167.4108 0.282 -0.944 0.170 35 15 4
-3227.1667 6066.4092 1167.2896 0.876 -0.474 -0.089 32 15 4
-3218.5166 6071.4888 1158.7766 0.193 -0.981 0.033 29 16 6
-3207.9714 6073.2520 1149.6222 0.193 -0.981 0.033 28 17 7
-3205.6304 6089.4453 1143.2249 -0.066 -0.970 0.235 27 17 7
-3192.1636 6086.0679 1133.0892 -0.066 -0.970 0.235 28 17 8
-3145.5171 6084.9824 1095.0492 0.194 -0.873 -0.448 34 23 14
-3108.9661 6039.8823 1077.4646 0.623 -0.467 -0.628 39 25 13
-3116.3608 6136.1284 1056.9569 0.947 -0.262 -0.183 36 20 7
-3137.7529 6260.6040 1040.1561 0.970 -0.229 -0.080 81 67 58
-2986.3115 6326.4243 897.5011 0.136 -0.898 -0.418 83 74 72
-2979.6489 6336.0669 889.3614 -0.031 -0.841 -0.540 75 67 64
-2967.8455 6335.5918 879.7911 -0.031 -0.907 -0.419 79 71 68
-2963.4490 6349.7778 872.2590 -0.093 -0.915 -0.393 48 40 37
-2931.4124 6331.9204 850.8600 0.602 -0.797 0.039 14 6 3
-2623.4819 6581.2671 528.8879 -0.358 -0.916 0.179 36 22 13
-2337.9473 6774.8081 240.7382 0.786 -0.544 -0.294 39 24 17
-2294.5466 6688.9170 228.7915 0.770 -0.634 0.069 39 24 17
-2273.8845 6663.3135 218.8811 0.824 -0.567 -0.001 21 6 0
-2245.8931 6617.6406 208.4903 0.929 -0.368 0.050 21 6 0
-1802.8149 5519.0903 147.7610 0.850 -0.182 -0.495 27 8 10
-1797.6238 5580.2769 126.5929 0.857 -0.204 -0.473 55 32 38
-1828.6816 5772.2593 99.0896 -0.560 -0.537 -0.631 243 225 231
-1762.1699 5715.0498 60.2247 0.664 -0.721 -0.200 233 216 222
-1755.6807 5723.1313 52.6586 0.664 -0.721 -0.200 236 220 225
-1761.3335 5767.0171 45.1824 0.560 -0.290 -0.776 250 236 241
-1657.8950 5761.9521 -38.4373 0.737 -0.287 0.612 249 232 232
-1645.9503 5753.2974 -45.8643 0.730 -0.344 0.591 255 238 240
-1614.1715 5682.1084 -52.3199 0.672 -0.272 0.689 255 235 241
-1788.7050 6559.2769 -151.1631 0.693 -0.719 0.050 255 70 79
-1547.0911 5942.8936 -179.4907 -0.347 -0.533 -0.772 254 79 89
-1564.2124 6066.6235 -199.5957 -0.301 -0.530 -0.793 255 89 101
-1430.0574 6386.8213 -398.3083 -0.219 -0.918 0.330 253 103 115
-1330.1799 6252.9434 -443.4196 0.934 -0.025 0.355 255 105 113
-228.8925 3904.3091 -699.8425 0.319 -0.834 0.450 255 133 126
-4464.7969 5121.2773 2429.0176 -0.312 -0.859 -0.406 125 95 74
-4447.4639 5115.7749 2416.3223 -0.405 -0.847 -0.345 123 96 72
-3999.0859 5103.2695 2051.7278 0.853 -0.158 0.497 115 80 58
-3919.2451 5076.1719 1993.7367 0.219 -0.955 -0.200 153 117 95
-4056.2915 5836.7466 1894.2863 0.598 -0.444 0.667 75 43 18
-3869.6282 5782.6450 1756.1287 0.531 -0.407 0.743 186 136 108
-3856.2515 5780.8408 1745.6503 0.738 -0.333 0.586 185 137 105
-3650.9797 5742.7529 1587.7542 0.135 -0.974 -0.183 96 61 39
-3656.3376 5767.7905 1585.1752 0.105 -0.942 -0.319 96 61 39
-3672.5422 5932.9185 1552.4607 0.840 -0.276 0.467 148 99 69
-3672.2903 5950.6084 1547.3240 0.833 -0.287 0.473 151 104 76
-3676.0547 5974.4585 1543.7678 0.296 -0.912 0.283 150 105 76
-3666.8274 5978.7314 1535.0021 0.291 -0.917 0.271 150 103 75
-3667.5569 5998.1567 1530.1877 0.599 -0.337 0.726 150 104 74
-3655.5420 5998.2280 1520.3046 0.599 -0.337 0.726 148 106 80
-3648.3640 6061.4722 1496.7876 0.604 -0.249 0.757 63 29 4
-3572.5188 6018.4058 1446.5269 0.508 -0.823 0.254 84 50 25
-3569.3142 6032.1587 1440.0636 0.383 -0.268 0.884 92 58 33
-3435.8813 5989.6104 1342.3838 -0.075 -0.635 0.769 61 33 11
-3420.4626 5983.6333 1331.3920 -0.034 -0.623 0.781 62 34 12
-3398.6545 5967.1812 1318.0742 0.150 -0.679 0.719 69 41 19
-3339.7766 5890.0000 1291.2491 0.046 -0.909 -0.414 73 45 23
-3307.2056 5874.1846 1268.9185 0.064 -0.908 -0.414 72 46 24
-3286.4507 6012.4624 1213.3457 -0.516 -0.826 -0.227 42 24 15
-3269.2476 6002.8672 1201.8975 -0.394 -0.914 -0.099 51 33 23
-3236.3342 5985.9575 1179.5907 -0.406 -0.905 -0.126 31 11 2
-3226.1836 5988.2202 1170.6274 -0.387 -0.914 -0.124 35 15 5
-3231.3564 6016.9131 1166.8779 0.279 -0.950 0.141 43 23 12
-3223.4663 6023.1592 1158.6603 0.292 -0.943 0.161 46 26 15
-3201.9795 6086.2891 1123.4285 -0.198 -0.979 0.051 53 39 27
-3188.3198 6082.5483 1113.2577 -0.210 -0.977 0.036 71 57 45
-3141.6880 6060.9043 1081.0085 0.206 -0.863 -0.460 77 62 50
-3123.2495 6048.3438 1069.3724 0.594 -0.502 -0.628 75 59 46
-3116.2695 6118.3555 1044.1320 0.619 -0.298 -0.727 32 16 3
-3132.5193 6211.3809 1031.5476 0.981 -0.183 -0.069 77 60 50
-3141.4146 6249.1958 1028.3119 0.970 -0.229 -0.080 75 61 52
-3151.8284 6290.0649 1025.4713 0.841 -0.428 -0.332 74 60 51
-3003.6394 6341.1597 889.5822 -0.105 -0.754 -0.648 76 67 65
-2994.5601 6346.1025 880.7513 -0.106 -0.759 -0.642 67 59 56
-2985.3491 6350.7939 871.8828 -0.092 -0.916 -0.391 73 65 62
-2975.9133 6355.0459 862.9518 -0.093 -0.915 -0.393 40 32 29
-2935.7283 6321.0884 839.4264 0.601 -0.799 0.026 14 6 3
-2930.5195 6333.6406 831.6525 0.633 -0.772 0.055 14 6 3
-2717.1309 6774.7104 533.5634 -0.520 -0.854 0.010 36 22 13
-2680.8853 6718.0229 519.6064 -0.387 -0.920 0.055 36 22 13
-2682.2725 6748.3564 512.2918 -0.406 -0.912 0.064 49 35 26
-2670.9077 6776.5249 495.1127 -0.172 -0.967 0.187 37 23 14
-1733.9285 5285.0645 141.5674 0.923 -0.383 0.038 27 9 10
-1835.0875 5794.0479 82.7690 -0.563 -0.540 -0.626 246 225 232
-1769.1820 5712.0654 51.5127 0.657 -0.720 -0.223 236 214 222
-1762.5482 5719.6982 43.9399 0.662 -0.720 -0.209 232 211 218
-1600.0986 5669.7695 -75.5033 0.730 -0.308 0.610 139 98 105
-1581.6726 6065.5586 -200.9262 0.594 -0.316 -0.739 255 83 92
-1560.7516 6026.0366 -207.0867 0.606 -0.270 -0.748 255 89 101
-1333.8840 6195.1582 -440.4555 0.901 -0.053 0.431 254 99 107
-371.4048 4181.4502 -669.3963 0.908 -0.092 0.408 215 112 92
-373.6849 4342.5796 -712.4274 0.911 -0.040 0.410 247 71 80
-234.9469 3919.0947 -708.3044 -0.298 -0.711 -0.637 255 134 128
-4467.3750 5126.6333 2413.0515 -0.405 -0.847 -0.345 124 97 73
-4139.4751 5867.3696 1935.9669 -0.190 -0.629 0.754 104 72 47
-4116.0171 5852.9165 1920.7969 -0.145 -0.649 0.746 100 68 45
-4060.7051 5795.9946 1891.4485 -0.141 -0.653 0.744 106 74 49
-3847.1948 5721.1445 1737.4333 0.682 -0.375 0.628 166 121 94
-3863.9929 5761.0479 1739.9884 0.535 -0.407 0.740 191 140 112
-3852.6533 5762.0312 1730.4144 0.738 -0.333 0.586 179 130 98
-3780.6875 5745.1230 1676.1631 0.500 -0.417 0.759 97 51 26
-3800.5320 5790.1118 1679.7860 0.734 -0.677 0.050 97 54 32
-3810.1206 5855.1938 1669.3517 0.691 -0.402 0.600 98 57 39
-3726.8018 5804.4058 1615.3163 -0.248 -0.875 0.415 96 59 37
-3677.8953 5767.8354 1585.4984 0.079 -0.997 0.026 97 62 40
-3673.7742 5831.2158 1564.3019 -0.052 -0.961 0.273 100 65 43
-3665.0461 5835.8608 1555.8401 -0.011 -0.964 0.265 103 67 44
-3690.4365 5908.9604 1556.1075 0.879 -0.224 0.421 143 99 71
-3681.2317 5913.1099 1547.3938 0.834 -0.283 0.473 142 95 65
-3664.0334 5905.2847 1535.4929 0.722 -0.663 -0.196 141 92 60
-3659.2473 5916.0415 1528.5447 0.709 -0.674 -0.207 139 92 62
-3671.5691 5952.6387 1528.3590 -0.044 -0.925 0.377 145 100 71
-3682.2458 5986.9556 1527.4655 0.319 -0.441 0.839 150 103 73
-3623.4084 5970.6016 1483.8224 0.563 -0.281 0.778 97 62 36
-3629.3447 6016.6313 1475.7494 0.568 -0.275 0.775 57 23 1
-3419.8193 5966.7725 1317.9756 -0.034 -0.623 0.781 76 48 26
-3396.0903 5947.2061 1304.0209 0.073 -0.599 0.797 71 43 21
-3375.0308 5931.8354 1291.0752 -0.010 -0.645 0.764 75 47 25
-3191.9272 5724.0776 1199.3540 -0.208 -0.627 0.751 36 24 16
-3301.0769 6020.8208 1205.4242 -0.383 -0.919 -0.089 37 20 11
-3239.7993 5995.0996 1162.4136 -0.387 -0.914 -0.124 102 82 71
-3238.8323 6013.1865 1156.5360 0.279 -0.950 0.141 109 89 78
-3234.1094 6024.8877 1149.3744 0.281 -0.947 0.156 116 96 85
-3185.7590 6081.2920 1093.8752 -0.210 -0.977 0.036 142 123 106
-3187.7236 6105.2153 1088.7605 0.188 -0.869 -0.457 142 123 107
-3171.2383 6096.4155 1077.7180 0.189 -0.860 -0.474 142 123 107
-3163.2742 6102.7588 1069.4052 0.189 -0.860 -0.474 140 123 109
-3127.2202 6120.6963 1034.8016 0.599 -0.487 -0.635 41 25 12
-3133.0139 6173.1860 1024.7958 0.981 -0.179 -0.074 50 33 23
-3169.5076 6348.1538 1005.5294 0.967 -0.210 -0.146 54 39 32
-3165.0759 6361.9370 998.0211 0.966 -0.215 -0.141 48 33 26
-3163.1963 6380.5693 991.2419 0.965 -0.221 -0.140 46 31 24
-3056.1028 6401.4028 897.5790 0.588 -0.792 -0.162 50 40 36
-3018.3503 6350.6890 880.8826 -0.105 -0.754 -0.648 55 46 44
-2997.8350 6356.0332 862.5597 -0.092 -0.916 -0.391 53 45 42
-2988.4072 6360.3267 853.6229 -0.093 -0.915 -0.393 23 15 12
-2942.6665 6315.5220 828.7156 0.601 -0.799 0.026 14 6 3
-2947.2798 6347.6147 823.4760 0.619 -0.774 0.137 14 6 3
-2490.7175 6133.1509 509.4309 -0.296 -0.932 -0.209 27 18 11
-2714.5557 6745.6050 520.7807 -0.285 -0.952 0.112 37 23 14
-2657.6311 6694.9097 488.3597 0.281 -0.789 -0.547 48 34 25
-2676.1631 6765.3159 483.7614 0.392 -0.919 -0.034 42 28 19
-2337.4626 6751.6665 209.8976 -0.109 -0.707 -0.699 38 25 17
-2302.7014 6718.8594 190.6197 -0.031 -0.668 -0.744 21 6 0
-1744.0278 5292.1128 133.6551 0.830 -0.502 0.243 24 6 7
-1812.7072 5503.2739 130.6030 0.867 -0.197 -0.457 28 8 12
-1813.3861 5529.9160 123.6698 0.856 -0.185 -0.483 24 4 8
-1813.2823 5554.6230 116.6391 0.858 -0.187 -0.479 127 104 110
-1811.9539 5576.1431 109.5001 0.854 -0.207 -0.476 250 227 233
-1833.6809 5713.9614 88.5700 0.911 -0.201 -0.360 240 218 223
-1856.5177 5804.7261 81.7779 0.532 -0.442 -0.722 247 223 231
-1856.4624 5831.4268 74.2263 -0.581 -0.568 -0.583 248 222 231
-1782.2329 5726.5518 42.8484 0.669 -0.711 -0.217 238 208 218
-1772.6349 5725.6333 35.2371 0.696 -0.687 -0.208 230 200 210
-1778.9819 5826.2437 12.1571 0.671 -0.365 -0.645 227 210 218
-1614.9153 5635.2769 -68.6762 0.651 -0.296 0.699 250 240 242
-1610.4769 5649.4556 -76.3011 0.722 -0.308 0.619 234 214 217
-1593.8610 5653.6436 -91.1019 0.730 -0.308 0.610 83 33 38
-1556.9369 5889.7441 -187.7495 -0.081 -0.888 -0.454 248 70 82
-1538.7754 5859.3545 -194.0969 -0.127 -0.861 -0.492 255 78 88
-1568.8436 6025.5181 -216.1565 0.823 -0.175 -0.541 255 90 100
-1623.9048 6282.1133 -243.1469 0.689 -0.447 -0.571 254 103 116
-1267.5328 6115.8164 -488.5867 0.026 -0.803 0.595 243 113 108
-1180.6874 5783.4556 -466.3567 0.235 -0.607 0.759 242 119 112
-385.7253 4302.2085 -701.7331 0.822 -0.150 0.549 224 99 90
-233.2137 3905.8450 -715.3502 -0.377 -0.641 -0.668 254 146 132
-128.7874 3587.5120 -711.4784 0.870 -0.375 -0.320 244 101 121
-4099.9844 5818.1670 1899.5177 -0.220 -0.653 0.725 106 74 51
-4048.6172 5766.5283 1872.0968 -0.212 -0.652 0.728 101 69 44
-4012.7346 5735.1621 1851.6074 -0.150 -0.654 0.742 87 55 30
-3807.1340 5819.5591 1659.3108 0.945 -0.297 0.140 98 59 42
-3790.3936 5830.0181 1642.6361 0.070 -0.943 0.325 103 62 44
-3771.5325 5820.2065 1629.9734 -0.533 -0.805 0.260 127 86 68
-3755.1619 5813.8950 1618.3574 -0.248 -0.875 0.415 137 97 79
-3734.3057 5801.0435 1604.9227 -0.240 -0.873 0.425 129 92 70
-3714.6213 5789.7861 1591.9957 -0.244 -0.874 0.420 112 76 54
-3689.3997 5892.6890 1542.1617 0.884 -0.220 0.413 160 116 88
-3677.0388 5892.0908 1532.2092 0.722 -0.663 -0.196 155 108 77
-3670.9829 5900.8867 1524.7557 0.722 -0.663 -0.196 149 100 68
-3677.8391 5929.0718 1522.3779 0.703 -0.686 -0.186 139 93 60
-3678.3679 5966.0146 1512.3350 0.319 -0.442 0.838 136 89 59
-3601.5220 5940.1851 1456.7310 0.560 -0.280 0.779 95 61 36
-3620.3071 5987.3696 1458.7338 0.568 -0.275 0.775 62 26 2
-3450.4338 5981.5098 1321.2880 -0.072 -0.577 0.814 77 49 27
-3371.7251 5873.3691 1287.5000 0.067 -0.819 0.570 77 49 27
-3393.1892 5926.7856 1289.9293 0.068 -0.600 0.797 57 29 7
-3372.4976 5912.0039 1277.1768 0.064 -0.602 0.796 89 61 39
-3309.5103 6018.6768 1195.3478 -0.383 -0.919 -0.091 46 29 20
-3265.9050 6003.5850 1163.9196 -0.381 -0.919 -0.104 159 139 128
-3256.8052 6007.7256 1155.2935 0.279 -0.950 0.141 154 134 123
-3246.3025 6009.4619 1146.2007 0.279 -0.950 0.141 154 134 123
-3244.8232 6026.7173 1140.0961 0.285 -0.948 0.141 155 135 124
-3205.2451 6119.0518 1081.5027 0.139 -0.990 -0.013 172 146 125
-3194.5720 6120.6665 1072.3047 0.139 -0.990 -0.013 172 146 126
-3182.1147 6119.0854 1062.5519 0.199 -0.979 -0.033 170 151 136
-3145.5144 6074.2852 1045.2843 0.593 -0.497 -0.633 155 137 125
-3142.6526 6110.3457 1032.7150 0.636 -0.482 -0.603 60 43 33
-3134.7644 6158.6494 1012.5580 0.982 -0.181 -0.060 42 25 15
-3150.5688 6382.5928 961.9961 0.284 -0.956 0.074 24 10 2
-3135.6902 6376.8486 951.4412 0.222 -0.972 0.074 22 10 6
-3124.5691 6378.1499 941.9653 0.222 -0.970 0.098 21 10 6
-3030.8606 6355.8701 871.5461 -0.175 -0.690 -0.702 20 11 8
-3008.8579 6358.3628 852.8214 -0.167 -0.697 -0.697 19 11 8
-2949.9939 6310.7495 818.1201 0.519 -0.835 -0.183 17 9 6
-2473.0830 6072.8340 495.0488 0.729 -0.543 -0.417 30 21 14
-2497.4399 6176.1812 485.6882 0.305 -0.789 -0.533 46 33 25
-2609.8147 6482.7031 490.7899 -0.120 -0.954 0.276 59 45 36
-2596.6270 6478.2788 481.2451 -0.120 -0.954 0.276 63 49 40
-2591.2754 6491.8818 473.0054 -0.156 -0.954 0.257 53 39 30
-2691.7051 6805.5767 466.2914 -0.037 -0.971 0.238 37 23 14
-1747.7787 5281.9155 125.3865 0.830 -0.502 0.243 29 9 10
-1815.8069 5590.2031 93.6725 0.852 -0.210 -0.480 235 212 218
-1813.2129 5634.0845 79.1048 0.852 -0.210 -0.480 233 209 215
-1829.2451 5784.5190 49.5745 0.375 -0.358 -0.855 242 206 218
-1817.3589 5777.4277 41.8520 0.375 -0.365 -0.852 239 203 215
-1779.3184 5694.9395 34.0922 0.645 -0.745 0.170 234 199 211
-1863.1781 6196.4014 -39.4360 0.908 -0.353 -0.226 252 240 247
-1611.9600 5629.6406 -84.4390 0.722 -0.308 0.619 255 245 246
-1590.7449 5647.3872 -106.8442 0.729 -0.311 0.610 153 70 74
-1592.5927 5920.0054 -182.6377 -0.683 -0.653 -0.328 251 75 85
-1580.1313 5909.4199 -189.8404 -0.334 -0.853 -0.401 244 68 79
-1561.6731 5878.5161 -196.1923 -0.090 -0.889 -0.449 240 64 75
-1548.1154 5863.8018 -203.1219 -0.104 -0.863 -0.495 254 78 88
-124.4438 3471.9473 -690.6907 0.127 -0.932 0.340 241 95 116
-4601.3960 5079.5718 2502.9678 -0.454 -0.816 0.358 225 219 205
-4006.1611 5065.4414 2020.1797 0.904 -0.203 0.376 165 133 110
-4675.7769 5911.7334 2325.7896 -0.383 -0.895 0.229 159 123 101
-4602.9839 5904.3501 2268.3657 0.195 -0.626 -0.755 156 120 89
-3902.4089 5346.5693 1854.9155 -0.441 -0.890 0.114 140 96 67
-3887.8555 5342.8193 1844.0851 -0.443 -0.889 0.113 141 97 68
-4177.4844 5890.3228 1924.3708 -0.208 -0.642 0.738 104 72 47
-4095.5891 5798.9307 1883.5303 -0.220 -0.653 0.725 91 59 34
-4044.2710 5747.4399 1856.2855 -0.212 -0.652 0.728 83 51 26
-4005.8486 5712.7373 1834.7863 -0.187 -0.660 0.727 78 47 19
-4048.2991 5785.4658 1848.7039 0.600 -0.444 0.665 82 50 25
-4027.9263 5774.7236 1835.1140 0.743 -0.330 0.583 90 58 35
-3839.7383 5651.1299 1716.5491 0.750 -0.450 0.485 112 80 57
-3836.5740 5663.0806 1710.5428 0.727 -0.397 0.560 158 123 97
-3814.3540 5798.6880 1653.5836 0.946 -0.294 0.139 95 53 34
-3809.9998 5809.5552 1646.9143 0.946 -0.294 0.139 96 55 37
-3808.6353 5824.7183 1641.4614 0.708 -0.410 0.575 96 55 37
-3797.3665 5825.8179 1631.9302 0.070 -0.943 0.325 104 61 42
-3780.5525 5818.9634 1620.1388 -0.227 -0.883 0.412 141 98 79
-3763.5793 5811.8149 1608.3016 -0.235 -0.886 0.400 163 124 105
-3743.9751 5800.8081 1595.4158 -0.235 -0.886 0.400 163 126 104
-3681.7573 5884.4126 1520.6171 0.914 -0.217 0.343 163 116 86
-3669.3018 5883.6382 1510.6514 0.753 -0.631 -0.186 162 113 82
-3672.8406 5906.7500 1506.9352 0.702 -0.678 -0.218 154 107 77
-3605.8237 5931.6655 1444.9974 0.594 -0.258 0.762 72 38 11
-3593.4365 5930.9014 1435.0846 0.594 -0.258 0.762 71 35 11
-3596.0657 5953.2139 1430.8533 0.567 -0.279 0.775 64 28 4
-3376.2195 5865.1572 1276.2316 0.067 -0.819 0.570 80 52 30
-3391.9722 5909.1875 1276.5219 -0.001 -0.591 0.807 80 52 30
-3316.7668 5824.4893 1239.2382 0.037 -0.666 0.745 101 73 51
-3302.4390 6009.9517 1174.4744 -0.209 -0.958 0.195 65 47 37
-3286.5149 6002.5879 1163.5566 -0.195 -0.961 0.197 128 108 97
-3274.9495 6002.5532 1154.1073 -0.197 -0.960 0.198 154 134 123
-3259.4741 6015.5015 1137.7472 0.833 -0.527 -0.165 154 134 123
-3260.0745 6036.3149 1132.2850 0.827 -0.536 -0.169 154 134 123
-3247.5242 6034.5942 1122.5127 0.832 -0.518 -0.197 155 134 122
-3228.2192 6021.1602 1110.5659 0.242 -0.963 0.122 164 136 113
-3213.7996 6137.4932 1065.4991 0.456 -0.395 0.798 170 141 118
-3178.8018 6095.9380 1048.7606 0.275 -0.961 0.040 158 139 122
-3152.0522 6068.7729 1034.6525 0.603 -0.493 -0.627 161 143 131
-3152.3069 6089.7153 1028.8708 0.627 -0.475 -0.618 159 142 132
-3192.4326 6397.7314 973.5909 0.370 -0.910 0.189 24 9 2
-3191.5405 6418.3008 966.9780 0.299 -0.936 0.184 24 9 2
-3138.6973 6386.0093 932.9946 0.255 -0.955 0.154 21 10 6
-3029.7175 6334.5571 858.5787 0.007 -0.998 -0.058 20 11 8
-3018.4224 6335.1792 849.1627 0.007 -0.998 -0.058 19 11 8
-3007.1399 6335.8008 839.7572 0.007 -0.998 -0.058 19 11 8
-2995.4019 6335.5054 830.2415 -0.003 -0.994 -0.111 19 11 8
-2958.0151 6307.3647 807.7123 0.471 -0.772 -0.427 17 9 6
-2947.4587 6309.2109 798.5505 0.445 -0.546 -0.709 17 9 6
-2897.5566 6300.9990 760.0855 0.325 -0.645 0.692 11 8 3
-2707.1567 6140.0107 650.4070 0.014 -0.569 0.822 23 18 12
-2480.8994 6046.3745 492.1375 0.032 -0.897 -0.440 30 21 14
-2484.4199 6077.9668 485.9809 0.737 -0.536 -0.412 30 21 14
-2620.2144 6458.7549 488.1324 -0.326 -0.636 -0.699 51 38 29
-2613.7192 6495.3740 472.3463 -0.156 -0.954 0.257 63 49 40
-2600.3672 6490.6113 462.7884 -0.156 -0.954 0.257 53 39 30
-2673.2922 6685.1392 466.7937 0.290 -0.777 -0.559 49 35 26
-2700.8193 6803.2837 455.5163 -0.037 -0.971 0.238 37 23 14
-1857.0493 5580.9346 115.0280 0.002 -0.473 -0.881 65 42 48
-1847.0469 5603.7705 100.3156 0.056 -0.462 -0.885 228 205 211
-1801.0037 5629.0659 55.4231 -0.036 -0.581 -0.813 251 211 225
-1737.7144 5578.6030 18.0933 0.751 -0.439 0.494 227 185 199
-1730.2245 5583.0767 10.6880 0.751 -0.439 0.494 221 180 194
-1762.4319 5730.0083 -4.9952 0.649 -0.755 -0.088 209 176 189
-1613.5555 5610.3398 -92.5307 0.833 -0.300 0.466 255 248 247
-1593.5194 5631.4907 -114.9674 0.834 -0.301 0.463 120 54 54
-1612.8864 5750.1255 -133.0592 0.914 -0.355 0.194 213 88 96
-1636.2739 6231.9790 -251.7493 0.711 -0.462 -0.530 255 95 108
-1285.7811 5900.5820 -443.6245 0.957 0.019 0.290 255 100 108
-1290.0204 6142.1157 -509.2402 0.946 -0.012 0.324 243 113 108
-122.6966 3394.7805 -678.1839 0.039 -0.788 0.615 236 88 110
-4618.3525 5086.8726 2498.1262 -0.454 -0.816 0.358 226 220 206
-4426.7183 4939.7285 2384.0317 0.819 -0.509 -0.265 212 206 192
-4493.5103 5110.3931 2389.3618 -0.558 -0.789 0.257 126 98 76
-4524.2373 5689.6519 2247.3674 0.939 -0.268 0.217 159 123 99
-4601.8701 5874.3389 2257.5078 0.159 -0.619 -0.769 159 123 97
-4309.3340 5676.3276 2075.6633 -0.075 -0.994 -0.082 164 123 91
-4312.4639 5695.6592 2072.6438 0.335 -0.866 -0.372 164 123 91
-4310.3877 5708.6484 2067.2009 0.469 -0.722 -0.509 159 118 86
-4290.0093 5699.0225 2053.3313 0.338 -0.827 0.450 153 112 80
-4286.9180 5710.7905 2047.4114 0.407 -0.665 0.626 153 112 80
-3924.5493 5362.6333 1851.8344 -0.319 -0.943 0.098 147 103 74
-3913.9087 5363.9253 1842.7697 -0.316 -0.944 0.097 147 103 74
-3890.2117 5348.5615 1827.8442 -0.337 -0.941 0.013 146 103 74
-3873.9568 5342.6006 1816.2855 -0.287 -0.736 -0.613 143 103 72
-3894.9370 5384.3232 1821.3883 0.427 -0.876 -0.222 140 104 72
-4018.7754 5749.1279 1817.3156 0.595 -0.450 0.666 82 50 25
-3995.4377 5750.6357 1797.8167 0.265 -0.413 0.872 67 35 12
-3831.2004 5626.1772 1699.5581 0.719 -0.466 0.515 98 66 43
-3823.4861 5664.3564 1682.2433 0.770 -0.409 0.490 193 144 117
-3805.4417 5772.1567 1636.4071 0.721 -0.565 0.400 98 55 36
-3803.1692 5785.8750 1630.5935 0.625 -0.455 0.635 92 51 33
-3774.4568 5796.1367 1604.1793 0.641 -0.433 0.634 140 97 78
-3761.9932 5795.4092 1594.2081 0.665 -0.435 0.607 160 120 100
-3751.9875 5798.1846 1585.2343 0.665 -0.435 0.607 156 119 98
-3670.9197 5818.6406 1513.1117 0.924 -0.228 0.308 101 62 37
-3673.6213 5875.3906 1498.9484 0.909 -0.223 0.353 141 92 63
-3684.5505 5927.3574 1492.8856 0.590 -0.344 0.730 111 66 38
-3596.2080 5883.9414 1433.2454 0.547 -0.315 0.775 97 61 35
-3582.0615 5880.3882 1422.7147 0.564 -0.320 0.761 70 34 8
-3571.2097 5881.8267 1413.4351 0.781 -0.280 0.559 80 44 18
-3581.5442 5915.7637 1412.0876 0.569 -0.295 0.767 79 42 16
-3459.4829 5945.9111 1303.6831 0.445 -0.491 0.749 103 75 53
-3249.3364 5736.0366 1192.5623 0.107 -0.497 0.861 40 23 8
-3283.6753 6000.9775 1144.1873 -0.194 -0.822 0.536 147 127 116
-3270.2917 5997.8379 1134.1603 -0.082 -0.928 0.362 150 130 119
-3261.0837 6001.7729 1125.5034 -0.007 -0.941 0.339 154 134 123
-3238.5559 5982.9102 1112.5424 0.883 -0.445 -0.148 154 134 123
-3236.1477 5998.4473 1106.0933 0.872 -0.436 -0.223 155 135 122
-3227.8694 6003.9487 1097.7440 0.867 -0.456 -0.200 164 136 111
-3188.6187 6096.1792 1039.0763 0.449 -0.395 0.802 163 142 125
-3168.1685 6080.3135 1026.9480 0.484 -0.443 0.755 157 139 126
-3142.7427 6117.1084 995.5644 0.972 -0.211 -0.106 117 103 90
-3175.5764 6239.6987 987.0229 0.964 -0.225 -0.144 33 19 10
-3161.9255 6236.1045 976.9087 0.954 -0.202 -0.221 29 15 6
-3173.6445 6279.0234 974.1010 0.961 -0.212 -0.180 29 14 7
-3190.7168 6332.0825 972.7411 -0.391 -0.920 0.033 29 14 7
-3025.3518 6329.5742 838.3836 0.782 -0.462 -0.418 19 11 8
-3014.8870 6377.1851 816.1011 0.776 -0.470 -0.420 17 9 6
-2956.6904 6308.2271 788.4541 0.442 -0.595 -0.671 17 9 6
-2858.8728 6272.2686 718.9227 0.456 -0.552 0.698 23 20 15
-2847.6116 6272.3755 709.6928 0.347 -0.502 0.792 23 20 15
-2833.4614 6266.5518 699.8141 0.347 -0.502 0.792 23 19 14
-2711.8540 6130.3691 639.7604 -0.018 -0.583 0.812 25 18 12
-2674.5115 6097.9175 618.6175 0.001 -0.571 0.821 25 18 12
-2538.5459 6036.8052 525.1802 0.358 -0.660 -0.661 28 19 12
-2706.4158 6428.1187 549.4286 0.060 -0.714 -0.698 28 19 12
-2501.8311 6072.9067 484.7751 0.183 -0.882 -0.435 31 20 14
-2496.1057 6083.8325 476.9467 0.759 -0.581 -0.295 31 20 14
-2512.0750 6143.5513 472.7650 0.170 -0.768 -0.617 31 21 13
-2634.2407 6468.7183 478.7598 -0.333 -0.610 -0.719 51 38 29
-2624.0652 6496.9297 462.3098 -0.159 -0.950 0.271 63 49 40
-2608.6414 6487.4609 452.4419 -0.151 -0.954 0.260 53 39 30
-2682.7974 6684.1411 456.2828 0.263 -0.796 -0.545 49 35 26
-2699.7114 6750.0771 451.0794 0.398 -0.916 -0.054 42 28 19
-2706.3706 6792.7197 444.2182 -0.126 -0.962 0.243 37 23 14
-2050.6702 6027.7788 129.2543 0.810 -0.549 -0.207 51 32 29
-1835.1350 5625.0566 69.3606 0.064 -0.438 -0.897 200 175 179
-1815.6641 5622.1050 54.3069 -0.224 -0.602 -0.766 252 208 223
-1803.6722 5614.2422 46.7793 -0.103 -0.607 -0.788 248 203 218
-1760.4100 5647.4614 1.8573 0.755 -0.180 -0.630 217 173 188
-1871.1766 6168.4004 -57.9321 0.927 -0.326 -0.188 251 250 253
-1890.9938 6257.6606 -67.4924 0.769 -0.521 -0.370 245 247 248
-1684.9121 6107.0142 -192.3780 0.380 -0.620 0.686 253 96 94
-1561.7529 5886.5186 -229.3782 -0.081 -0.861 -0.501 254 83 92
-1684.8104 6368.1299 -267.7831 0.749 -0.381 -0.542 255 95 108
-1630.1934 6215.3008 -268.3125 0.641 -0.472 -0.605 255 104 117
-1283.4978 5968.3682 -480.2862 0.927 0.002 0.374 242 81 89
-1288.6565 6102.3540 -514.7220 0.946 -0.012 0.324 243 113 108
-252.0080 3902.6868 -727.0060 -0.208 -0.942 0.263 255 145 136
-243.8717 3872.2844 -724.8824 0.153 -0.903 0.402 255 150 135
-223.1292 4579.7778 -945.9111 0.670 -0.623 0.405 235 104 118
-4426.3237 4929.5200 2370.6187 0.820 -0.506 -0.268 188 182 168
-4685.0088 5288.5669 2477.2200 0.527 -0.476 -0.704 118 95 75
-4445.4106 5074.9595 2343.8818 -0.551 -0.808 0.211 116 94 72
-4553.4429 5819.5088 2215.4270 0.783 -0.609 -0.130 165 130 101
-3453.5227 4755.0806 1627.6975 0.794 -0.603 -0.080 151 107 78
-3876.4221 5333.7158 1804.3948 -0.278 -0.739 -0.613 147 106 76
-4063.6401 5746.4692 1837.0656 -0.544 -0.713 0.442 89 58 30
-4063.5352 5778.8896 1827.5486 0.015 -0.573 0.819 75 44 16
-3818.2744 5643.8101 1666.7463 0.761 -0.411 0.502 165 119 93
-3806.7354 5693.4194 1642.9006 0.728 -0.684 -0.042 151 102 75
-3782.2163 5675.7944 1628.0236 0.618 -0.762 0.195 153 104 78
-3830.7917 5760.2432 1643.0876 0.741 -0.570 -0.354 149 101 76
-3807.2622 5760.8481 1623.7148 0.721 -0.565 0.400 102 59 38
-3800.6511 5768.3906 1616.1271 0.682 -0.429 0.592 92 51 31
-3768.5068 5773.6235 1588.3798 0.652 -0.433 0.623 108 65 44
-3757.5752 5775.0322 1579.0513 0.668 -0.436 0.602 111 68 48
-3749.4270 5780.4146 1570.8378 0.690 -0.443 0.573 106 68 46
-3676.7175 5778.1406 1512.1787 0.912 -0.228 0.341 161 127 103
-3678.8445 5904.0278 1477.2927 0.590 -0.344 0.730 99 53 29
-3587.1306 5855.3237 1416.6356 0.558 -0.322 0.765 126 89 62
-3574.3376 5853.7627 1406.6525 0.558 -0.322 0.765 86 50 24
-3562.6987 5853.9277 1397.1088 0.804 -0.279 0.525 85 49 23
-3431.8850 5904.9927 1275.5284 -0.077 -0.581 0.810 131 103 81
-3416.0139 5898.1777 1264.5625 -0.070 -0.580 0.812 126 98 76
-3274.2178 5761.3711 1188.6748 0.123 -0.570 0.813 39 22 7
-3359.9326 6054.2686 1173.4004 -0.217 -0.812 0.542 37 20 10
-3327.8210 6020.0171 1157.1658 -0.006 -0.963 -0.270 52 35 25
-3303.2808 5998.2559 1143.4749 -0.110 -0.957 -0.268 114 97 84
-3292.5098 5999.5835 1134.3011 -0.110 -0.957 -0.268 141 124 112
-3284.1719 6005.0186 1125.9175 0.922 -0.360 -0.144 148 129 118
-3275.8323 6010.4614 1117.5303 0.920 -0.386 -0.068 154 135 123
-3288.8154 6052.3081 1115.9491 0.913 -0.407 0.003 153 136 123
-3224.5681 5962.1494 1089.7603 0.054 -0.849 0.526 154 135 122
-3221.9241 6097.0542 1048.3585 0.013 -0.941 0.338 162 130 104
-3170.7791 6067.8320 1015.1324 0.449 -0.395 0.802 157 139 125
-3160.5586 6070.0474 1006.1494 0.959 -0.206 0.193 114 98 85
-3144.1519 6102.2539 983.3950 0.958 -0.207 0.200 120 105 92
-3142.0718 6119.2007 976.7679 0.980 -0.185 -0.075 61 45 32
-3184.1621 6237.4136 976.7188 0.966 -0.227 -0.125 38 24 14
-3178.0598 6269.0093 962.5488 0.955 -0.225 -0.192 31 16 8
-3207.6973 6344.9688 964.6316 -0.510 -0.853 0.112 31 16 9
-3212.1238 6396.9844 953.1116 -0.462 -0.826 0.322 25 10 3
-3198.8481 6394.4751 943.0103 -0.364 -0.870 0.332 25 9 2
-3218.9338 6454.0752 942.0595 -0.408 -0.896 0.175 24 9 2
-3181.0630 6405.7075 925.2328 0.852 -0.513 0.104 22 10 5
-3154.6418 6378.4463 911.6074 0.870 -0.482 0.107 21 10 6
-3034.6758 6373.7842 815.0883 0.781 -0.473 -0.408 20 11 6
-3023.8604 6375.4429 805.7820 0.789 -0.454 -0.413 19 10 5
-2884.8201 6282.3369 719.4301 0.442 -0.628 -0.640 30 23 16
-2842.0676 6241.6543 696.3850 0.401 -0.590 0.700 30 23 16
-2512.0146 6075.3784 475.4795 0.183 -0.882 -0.435 32 21 12
-2511.1765 6097.1919 468.4500 0.767 -0.578 -0.279 32 21 12
-2624.6572 6476.2656 450.7593 -0.179 -0.904 0.387 62 48 39
-2605.8965 6459.1421 440.4345 -0.064 -0.956 0.287 53 39 30
-2701.7573 6731.6709 439.3633 0.131 -0.984 0.118 42 28 19
-2708.4797 6774.2544 432.4600 -0.136 -0.982 0.131 37 23 14
-1829.5415 5299.6641 144.3385 0.291 -0.928 -0.233 41 22 16
-1834.4783 5335.5337 137.9316 0.655 -0.753 0.066 41 22 16
-1824.1349 5649.1489 38.2604 -0.073 -0.597 -0.799 246 197 213
-1769.5972 5651.0161 -6.7777 0.571 -0.283 -0.771 211 169 183
-1778.5031 5729.9097 -22.4624 0.825 -0.245 -0.510 245 216 228
-1776.7953 5751.9448 -30.2659 0.825 -0.245 -0.510 255 239 248
-1910.3052 6258.9346 -68.8270 0.567 -0.745 -0.350 248 246 249
-1613.7197 5590.3101 -116.2917 0.836 -0.407 0.368 252 244 242
-1635.8702 5686.8677 -126.3092 0.880 -0.376 0.289 210 195 192
-1629.6252 5695.6196 -133.9502 0.880 -0.376 0.289 86 50 44
-1669.7152 6092.7734 -216.7768 -0.492 -0.780 -0.388 245 78 87
-1624.9214 6039.3779 -237.7892 -0.646 -0.685 -0.336 252 80 90
-1620.3127 6087.6934 -255.6044 -0.217 -0.802 -0.557 255 90 103
-1282.0170 5929.9893 -485.7285 0.923 -0.001 0.385 245 85 93
-1121.0199 6044.5093 -650.3935 0.996 -0.018 0.089 228 125 109
-4429.2451 4922.7612 2358.9541 0.825 -0.501 -0.262 148 144 132
-4442.7324 4948.9648 2362.2578 0.763 -0.441 -0.472 217 213 201
-4680.5649 5286.5894 2457.0134 0.526 -0.477 -0.704 139 111 96
-4121.0127 5126.0659 2048.1528 0.798 -0.325 0.508 164 129 101
-4317.5000 5676.7324 2046.7228 0.323 -0.919 -0.228 169 128 98
-3932.6401 5363.5962 1824.9790 -0.479 -0.840 -0.254 153 112 80
-4100.6592 5781.8882 1839.1838 -0.434 -0.818 0.377 96 62 34
-3843.6487 5552.9751 1696.9106 0.833 -0.473 0.287 119 90 71
-3832.5859 5585.6802 1678.3021 0.836 -0.427 0.344 137 109 88
-3822.8606 5588.4722 1669.5583 0.829 -0.447 0.336 122 94 73
-3832.5305 5633.8057 1664.1394 0.762 -0.411 0.500 55 27 6
-3823.5007 5637.6533 1655.6530 0.760 -0.411 0.504 88 58 33
-3803.0645 5741.1426 1608.6421 0.670 -0.421 0.611 116 69 41
-3796.8540 5749.1846 1601.2223 0.679 -0.417 0.604 98 53 24
-3733.6191 5710.1084 1561.1586 0.642 -0.417 0.643 83 38 9
-3756.9910 5760.2119 1565.5052 0.650 -0.427 0.629 76 32 3
-3746.7183 5762.5137 1556.4594 0.650 -0.427 0.629 78 36 9
-3697.8884 5726.4131 1527.2605 0.679 -0.387 0.624 150 113 88
-3653.0229 5798.3242 1469.6071 0.516 -0.307 0.800 92 44 32
-3637.1882 5792.3354 1458.4609 0.523 -0.307 0.796 101 52 41
-3633.1860 5821.3496 1446.6885 0.484 -0.278 0.830 93 47 31
-3584.8997 5819.4814 1407.8905 0.573 -0.317 0.756 112 72 47
-3574.1960 5821.0146 1398.7189 0.568 -0.320 0.758 138 99 71
-3559.1895 5816.0068 1387.9600 0.574 -0.312 0.757 120 83 54
-3552.5154 5823.6216 1380.2877 0.763 -0.245 0.598 88 51 25
-3411.0125 5783.6636 1276.7061 0.791 -0.515 0.329 57 21 1
-3429.2627 5885.4131 1261.7292 -0.077 -0.581 0.810 120 94 71
-3406.9038 5868.2061 1248.5577 -0.069 -0.576 0.815 126 100 78
-3388.0325 6065.2178 1175.3875 0.075 -0.778 0.624 29 21 10
-3346.6621 6015.8174 1156.1685 -0.182 -0.756 0.629 36 26 14
-3274.7732 6031.5591 1092.9722 0.080 -0.993 -0.084 143 131 119
-3271.1880 6065.1099 1080.2087 0.089 -0.992 -0.085 150 129 114
-3242.9888 6096.6274 1047.9851 0.013 -0.941 0.338 161 137 123
-3187.4597 6059.9990 1013.4822 0.426 -0.409 0.807 151 133 119
-3173.0598 6054.8301 1003.2649 0.426 -0.409 0.807 147 129 115
-3126.7949 6053.8354 965.8577 0.526 -0.355 0.773 112 94 80
-3146.0256 6171.4531 947.0251 0.953 -0.227 -0.200 50 32 22
-3182.6458 6259.3555 951.0788 0.955 -0.225 -0.192 50 33 23
-3233.3418 6373.6309 958.8658 -0.465 -0.814 0.349 51 33 23
-3203.7444 6341.1479 944.2773 -0.472 -0.811 0.346 42 24 16
-3190.6750 6338.8843 934.2919 -0.433 -0.808 0.399 36 18 11
-3174.4763 6330.7832 923.4687 -0.438 -0.812 0.386 29 11 4
-3158.6477 6323.2827 912.7711 0.834 -0.531 0.151 25 7 0
-3146.9988 6323.4912 903.2178 0.888 -0.458 0.043 24 9 2
-3113.6855 6327.0308 875.0344 -0.244 -0.947 0.210 23 10 3
-3006.4673 6233.3008 815.1633 0.006 -0.746 0.666 28 16 8
-3001.7590 6246.2900 807.5165 0.220 -0.422 -0.879 28 16 8
-3004.7390 6274.2104 801.7543 0.297 -0.367 -0.882 28 16 8
-3002.7678 6292.7007 794.7239 0.297 -0.367 -0.882 28 16 8
-2986.6323 6328.7666 770.9962 0.418 -0.716 -0.559 37 25 17
-2901.2031 6295.8691 711.0347 0.457 -0.619 -0.639 44 29 17
-2815.1707 6213.2383 665.1711 0.203 -0.528 0.824 43 24 16
-2799.2561 6203.5518 655.0447 0.203 -0.528 0.824 42 24 15
-2745.1519 6137.9502 630.2020 -0.161 -0.702 0.693 42 24 15
-2523.8154 6081.3989 466.4359 0.767 -0.578 -0.279 45 27 18
-2518.2180 6092.6074 458.5868 0.767 -0.578 -0.279 45 27 18
-2526.2566 6134.2964 452.9078 0.754 -0.587 -0.295 45 27 18
-2667.4277 6474.4951 468.1440 0.289 -0.798 0.529 49 32 22
-2655.3071 6472.6851 458.7985 0.289 -0.798 0.529 49 32 22
-2614.4077 6456.6387 430.1789 -0.064 -0.956 0.287 46 29 19
-1803.7662 5235.7183 127.7845 0.805 -0.514 0.294 63 35 30
-1745.8265 5409.4517 29.6083 0.051 -0.691 -0.721 237 184 200
-1783.2626 5747.2554 -38.9812 0.472 -0.303 -0.828 255 251 253
-1699.7644 6100.5020 -210.6437 -0.357 -0.682 -0.638 179 87 81
-1698.0339 6157.7734 -228.8542 -0.667 -0.653 -0.359 226 82 92
-1634.2863 6074.5659 -256.3901 -0.640 -0.682 -0.354 251 86 103
-4611.2822 5074.7607 2446.1367 -0.561 -0.799 0.217 224 221 206
-4436.6045 4920.5840 2349.5808 0.696 -0.654 -0.296 145 141 129
-4448.6904 4945.2949 2352.1077 0.766 -0.439 -0.470 190 186 174
-3948.1604 4729.2354 2008.6655 0.448 -0.855 0.262 123 92 72
-3468.0776 4752.3013 1611.1333 0.696 -0.686 0.210 159 118 86
-4446.9951 6152.9404 1993.5193 -0.518 -0.765 0.382 144 105 70
-4448.2881 6171.9062 1988.9620 -0.657 -0.690 0.302 135 98 66
-4198.3418 5896.6387 1866.9675 -0.643 -0.681 0.350 102 68 40
-4063.0862 5735.4751 1804.5616 -0.494 -0.701 0.514 72 38 11
-4095.6780 5794.6318 1813.5881 -0.124 -0.549 0.827 68 34 6
-3854.0933 5569.8521 1683.4646 0.853 -0.455 0.254 129 101 80
-3843.9580 5587.9839 1669.8531 0.765 -0.486 0.423 125 97 76
-3831.4463 5587.0171 1659.9565 0.769 -0.488 0.413 118 90 69
-3817.1470 5615.6953 1639.8364 0.647 -0.347 0.680 116 88 64
-3744.1079 5644.8770 1571.7629 0.605 -0.371 0.704 127 78 50
-3794.6284 5732.2725 1587.0278 0.679 -0.417 0.604 125 80 49
-3736.4395 5683.6685 1554.0479 0.646 -0.459 0.609 92 45 15
-3613.5859 5777.7725 1426.2301 0.491 -0.277 0.826 93 47 32
-3594.9106 5802.3320 1403.7670 0.414 -0.233 0.880 91 48 27
-3589.2900 5811.4829 1396.4860 0.408 -0.271 0.872 106 66 40
-3553.4055 5792.6064 1372.8654 0.411 -0.272 0.870 131 92 63
-3436.3428 5772.5630 1283.5237 0.713 -0.326 0.621 107 69 46
-3421.9800 5768.0234 1273.1775 0.076 -0.724 0.685 85 48 22
-3413.3826 5772.4658 1264.8667 0.791 -0.515 0.329 80 43 17
-3418.8740 5835.3267 1250.7422 0.418 -0.516 0.748 110 82 60
-3424.2869 5862.1929 1247.2006 -0.076 -0.579 0.812 115 89 66
-3295.1746 5746.7544 1176.2698 -0.074 -0.582 0.810 50 26 5
-3295.1230 5990.8936 1104.0139 0.839 -0.543 -0.030 138 126 114
-3296.9355 6033.0825 1093.0099 0.064 -0.981 -0.184 138 126 114
-3291.0754 6042.8320 1085.3572 0.062 -0.980 -0.190 138 125 114
-3284.9976 6072.1245 1071.7463 0.090 -0.993 -0.076 129 109 98
-3278.7134 6101.3574 1057.9850 0.186 -0.974 0.133 130 108 97
-3258.3689 6106.4478 1039.9224 0.328 -0.443 0.834 104 82 71
-3206.6243 6056.5410 1012.5724 -0.430 -0.885 0.181 102 82 71
-3182.7542 6034.8037 999.5757 -0.411 -0.888 0.206 95 77 63
-3151.4312 5999.7524 984.4516 0.429 -0.394 0.813 59 41 28
-3153.0657 6022.7207 978.9882 0.455 -0.381 0.805 35 17 4
-3119.1765 6063.8843 939.2321 0.985 -0.149 -0.082 71 53 39
-3126.6433 6097.9404 935.2354 0.984 -0.145 -0.100 61 43 33
-3124.9622 6115.6284 928.6353 0.984 -0.145 -0.105 61 43 33
-3166.1047 6211.3159 933.8155 0.982 -0.179 -0.057 60 42 32
-3220.9778 6332.7227 942.5624 -0.091 -0.842 0.531 61 43 33
-3197.7993 6311.9697 929.8373 -0.159 -0.851 0.501 46 28 18
-3163.7600 6292.6611 907.8461 -0.159 -0.851 0.501 32 14 4
-3148.5686 6286.2456 897.3805 0.906 -0.399 0.143 27 9 1
-3110.3013 6346.2334 848.4933 0.525 -0.730 0.437 39 26 18
-3105.0166 6358.4619 840.5753 0.466 -0.725 0.507 38 25 17
-3016.7312 6256.4219 798.9077 0.220 -0.422 -0.879 40 25 18
-3022.2952 6311.6128 787.1109 0.181 -0.438 -0.881 40 25 18
-2926.1780 6235.8623 731.2935 0.067 -0.617 0.784 52 36 24
-2918.9731 6244.0571 723.0059 0.059 -0.651 0.756 52 36 23
-2867.8901 6209.8843 691.5405 0.591 -0.601 -0.539 51 33 21
-2844.9370 6186.3628 679.8177 0.331 -0.682 -0.653 51 33 21
-2832.5354 6206.4893 663.7717 0.188 -0.752 -0.631 51 33 21
-2826.1448 6216.2378 655.6872 -0.455 -0.890 -0.011 44 24 15
-2759.5942 6148.4146 621.5873 -0.681 -0.710 0.180 43 23 14
-2527.2825 6116.2153 442.0474 0.764 -0.588 -0.267 45 27 17
-2673.6748 6466.8354 457.4772 0.601 -0.596 -0.533 49 32 22
-1762.4031 5065.4849 130.3544 0.750 -0.537 -0.386 64 35 29
-1759.2711 5079.1021 123.7776 0.754 -0.571 -0.325 64 35 29
-1802.8431 5236.4131 112.7073 0.694 -0.471 0.545 77 48 42
-1741.4952 5234.1143 63.4601 0.923 -0.382 -0.048 250 214 215
-1769.9860 5455.1104 21.2786 0.258 -0.550 -0.795 221 169 185
-1778.9468 5529.8555 6.4624 -0.073 -0.480 -0.874 200 158 172
-1623.4296 5599.8574 -140.8092 0.719 -0.693 -0.055 255 250 252
-1638.5039 5674.1821 -150.5256 0.896 -0.378 0.234 190 165 171
-1627.7036 5783.0215 -191.5088 0.956 -0.063 0.287 82 23 15
-1673.6193 6113.5273 -251.9011 -0.645 -0.675 -0.359 235 90 101
-1631.2427 6100.3350 -282.4866 -0.547 -0.675 -0.496 253 94 109
-1613.0571 6235.6553 -337.3130 -0.450 -0.553 -0.701 253 95 109
-1600.7601 6226.6357 -344.6528 -0.436 -0.549 -0.713 255 94 109
-1095.7618 6018.2090 -693.9891 0.993 0.077 -0.091 229 132 115
-411.6145 4172.7388 -704.9037 0.632 -0.764 -0.131 211 108 93
-265.8325 3901.0911 -743.1961 -0.038 -0.891 0.453 255 151 136
-4646.4321 5100.6025 2450.4470 -0.561 -0.799 0.217 221 218 203
-4908.4287 5476.3701 2551.3408 -0.584 -0.737 0.341 213 202 187
-4507.2974 5071.2046 2346.1218 -0.582 -0.743 0.331 137 115 101
-4491.3574 5079.9961 2330.5435 -0.613 -0.770 0.178 117 93 77
-4236.3013 4947.6919 2162.6833 -0.074 -0.862 0.502 121 93 72
-4115.0391 4992.5713 2050.7334 0.374 -0.828 0.418 163 131 108
-2758.3342 3568.0452 1372.8003 0.458 -0.308 -0.834 164 129 101
-4143.2329 5498.4980 1922.7681 -0.451 -0.699 -0.555 166 127 96
-3929.6636 5380.1250 1784.4752 -0.301 -0.735 -0.608 158 118 83
-4011.9143 5655.1973 1769.2961 -0.118 -0.565 0.816 104 70 42
-3994.7942 5664.5386 1752.5947 -0.066 -0.531 0.845 72 38 11
-3845.4785 5529.6772 1671.4462 0.830 -0.460 0.314 101 72 54
-3852.2288 5554.4165 1669.5549 0.859 -0.447 0.252 99 71 50
-3827.1494 5536.5415 1654.5005 0.780 -0.544 0.309 88 60 39
-3840.8174 5570.7222 1655.4167 0.636 -0.435 0.638 75 47 26
-3826.2820 5566.9873 1644.7157 0.606 -0.438 0.664 72 44 25
-3788.4258 5579.3301 1610.2642 0.782 -0.242 0.575 137 105 82
-3768.0166 5599.5591 1587.6420 0.565 -0.412 0.715 120 70 53
-3735.9751 5620.0459 1555.4880 0.606 -0.372 0.704 119 70 42
-3734.8247 5667.7412 1540.3287 0.646 -0.459 0.609 165 118 88
-3716.9087 5659.0083 1528.3704 0.821 -0.343 0.457 169 122 92
-3587.3916 5741.8804 1398.3804 0.483 -0.285 0.828 95 47 31
-3605.0488 5785.5049 1399.7227 0.407 -0.270 0.872 94 47 31
-3586.1521 5774.7466 1387.5710 0.407 -0.270 0.872 96 52 30
-3575.3076 5775.9697 1378.3916 0.408 -0.271 0.872 103 61 36
-3557.4485 5766.6265 1366.6617 0.411 -0.272 0.870 104 65 36
-3421.9021 5753.0947 1260.5212 0.085 -0.714 0.695 137 100 74
-3405.9058 5745.9282 1249.6562 0.098 -0.716 0.691 105 68 42
-3435.1609 5809.6465 1254.4330 0.914 -0.309 0.264 92 55 30
-3266.5378 5721.5933 1143.6313 0.041 -0.664 0.746 32 20 8
-3376.8108 6014.1953 1146.0018 -0.176 -0.725 0.666 29 21 11
-3300.3408 5983.4424 1093.0162 0.839 -0.543 -0.030 82 68 57
-3296.1252 5995.7725 1085.9125 0.844 -0.535 -0.032 77 63 52
-3306.5444 6032.9263 1083.3013 0.856 -0.432 0.283 78 64 53
-3283.5896 6033.3003 1064.5312 0.063 -0.997 -0.040 68 51 39
-3256.0830 6085.5815 1026.5813 0.358 -0.432 0.828 40 20 9
-3181.2297 6015.3154 986.6939 -0.405 -0.895 0.185 60 42 28
-3167.1367 6010.5957 976.6463 -0.419 -0.900 0.116 64 46 32
-3134.8745 5973.7754 961.4035 0.452 -0.422 0.786 97 79 65
-3122.9673 6012.8618 940.0682 0.987 -0.143 -0.074 48 30 16
-3117.3142 6084.3706 914.1472 0.981 -0.157 -0.118 73 55 45
-3149.1331 6183.7842 910.3624 0.982 -0.178 -0.060 73 55 45
-3141.6306 6191.2163 902.0478 0.983 -0.182 -0.037 65 47 37
-3173.0771 6270.0718 904.0914 -0.127 -0.857 0.500 60 42 32
-3177.4683 6299.6899 898.8276 -0.164 -0.944 0.286 53 35 25
-3156.4634 6304.2876 880.3831 0.848 -0.523 0.083 47 31 24
-3151.0171 6315.9702 872.4720 0.857 -0.507 0.091 46 33 25
-3145.4202 6327.4277 864.5057 0.846 -0.524 0.097 46 33 25
-3136.2378 6332.2236 855.6117 -0.225 -0.942 0.250 45 32 24
-3117.9636 6342.0039 837.8410 0.473 -0.721 0.507 52 39 31
-3069.9993 6317.5234 806.1553 0.091 -0.711 0.697 53 38 31
-2963.2727 6222.8799 747.6302 0.461 -0.819 0.341 62 47 40
-2897.5176 6227.4204 692.8283 0.425 -0.785 -0.451 58 42 29
-2865.2598 6253.3267 658.8824 0.444 -0.763 -0.470 58 40 28
-2854.9446 6255.2959 649.9106 -0.685 -0.709 0.167 45 25 16
-2776.0273 6162.8755 613.3268 -0.677 -0.714 0.180 43 23 14
-2765.1633 6163.2803 604.3756 -0.723 -0.673 0.156 49 29 20
-2719.1489 6113.6978 581.7606 -0.410 -0.898 0.163 49 29 20
-2686.5742 6474.0132 447.8261 0.615 -0.579 -0.535 49 32 22
-1746.9208 5205.7852 62.2717 0.921 -0.386 -0.054 238 196 198
-1789.6613 5488.0322 12.8380 0.247 -0.572 -0.782 206 157 171
-1747.0210 5444.0190 -8.6952 0.690 -0.125 -0.713 243 218 229
-1650.8604 6137.8804 -293.7873 -0.178 -0.611 -0.771 241 92 103
-1643.7318 6146.2793 -302.0864 -0.178 -0.611 -0.771 252 92 105
-1652.5465 6208.5591 -313.4953 -0.157 -0.619 -0.770 254 89 103
-1640.2672 6199.8774 -320.8872 -0.166 -0.630 -0.759 254 90 104
-1630.0896 6265.0391 -348.5930 -0.492 -0.645 -0.585 253 96 107
-1617.2584 6322.7427 -376.2313 -0.614 -0.773 -0.157 254 95 109
-1526.7368 7545.4062 -814.4443 0.677 -0.641 0.361 229 131 118
-302.0826 3905.9700 -724.4915 0.035 -0.850 0.526 255 26 71
-267.6321 3923.1165 -757.6074 -0.113 -0.872 0.477 252 155 131
-4641.1475 5085.1694 2434.1533 -0.550 -0.813 0.194 222 219 204
-4606.0215 5061.9521 2412.6179 -0.561 -0.799 0.217 221 217 205
-4528.4604 5083.1406 2343.2817 -0.597 -0.736 0.318 151 128 114
-4550.6890 5131.9922 2346.6392 -0.578 -0.780 0.242 120 95 80
-4015.4910 4783.8828 2016.8198 -0.399 -0.907 0.135 111 80 60
-4010.1853 4790.2891 2010.5864 -0.363 -0.925 0.114 124 93 75
-4069.4272 5380.8823 1881.1074 0.145 -0.648 -0.748 170 131 100
-3986.4788 5410.2090 1804.9507 -0.283 -0.737 -0.614 168 127 95
-3971.2498 5405.8594 1793.8953 -0.254 -0.711 -0.655 164 123 91
-3954.9941 5400.1626 1782.4115 -0.296 -0.738 -0.606 162 122 87
-3945.8062 5403.3926 1773.9814 -0.296 -0.738 -0.606 162 122 87
-3920.5764 5401.0850 1754.1930 0.630 -0.735 -0.252 158 118 83
-4084.4707 5641.7920 1814.8729 0.532 -0.847 -0.005 153 113 78
-4163.0825 5758.8647 1843.4913 0.894 -0.445 0.041 151 112 77
-4014.5840 5629.9297 1761.7040 -0.113 -0.630 0.768 115 81 53
-4005.5037 5633.8545 1753.1522 -0.118 -0.575 0.810 109 75 47
-3985.2966 5623.1812 1739.9569 -0.061 -0.541 0.839 94 60 32
-3857.9595 5517.8818 1668.2422 0.863 -0.441 0.248 75 44 24
-3846.8472 5518.7041 1658.9738 0.830 -0.460 0.314 59 30 12
-3846.0002 5533.2192 1653.9220 0.863 -0.441 0.248 67 39 18
-3832.0681 5546.0005 1638.7687 0.621 -0.453 0.640 50 22 2
-3754.1785 5567.2812 1569.1377 0.549 -0.418 0.724 109 59 42
-3745.1824 5570.9346 1560.7362 0.793 -0.222 0.567 112 56 40
-3737.9697 5577.0562 1553.0402 0.793 -0.222 0.567 126 70 51
-3760.2375 5656.8467 1547.1272 0.685 -0.420 0.595 186 139 109
-3744.7842 5651.6670 1536.1392 0.680 -0.423 0.599 197 150 120
-3734.5303 5653.7407 1527.1914 0.643 -0.458 0.614 197 148 118
-3660.6536 5681.7031 1458.8092 0.715 -0.295 0.634 133 97 71
-3659.1050 5696.2969 1453.1642 0.879 -0.219 0.424 143 107 81
-3664.5737 5721.1294 1450.1376 0.909 -0.236 0.343 87 51 26
-3661.0769 5733.0576 1443.7124 0.814 -0.389 0.432 83 43 17
-3635.9153 5713.4399 1429.1841 -0.064 -0.789 0.611 106 61 38
-3635.2764 5729.5522 1423.8209 -0.075 -0.759 0.647 100 53 31
-3609.9370 5709.4932 1409.2810 -0.107 -0.853 0.511 94 46 24
-3573.3899 5706.8887 1380.3943 0.775 -0.233 0.587 97 50 28
-3563.6184 5726.7612 1366.4867 0.787 -0.213 0.578 102 59 34
