ply
format ascii 1.0
element vertex 786
property float x
property float y
property float z
property float nx
property float ny
property float nz
property uchar diffuse_red
property uchar diffuse_green
property uchar diffuse_blue
end_header
-3192.1404 2568.1438 1222.0997 0.182 -0.962 0.204 120 62 33
-3192.8779 2576.8010 1219.6149 0.277 -0.865 0.418 120 64 36
-3162.6162 2558.4233 1205.8938 -0.095 -0.829 -0.551 123 67 40
-3153.9893 2558.8638 1200.0317 -0.144 -0.840 -0.524 124 67 39
-3170.0686 2654.5811 1177.8038 0.706 -0.601 -0.375 134 67 41
-3177.5105 2669.6262 1177.5632 0.388 -0.843 0.373 132 62 39
-2992.0608 2598.3030 1079.2946 -0.016 -0.978 0.209 59 49 35
-2972.9033 2596.7100 1067.1600 -0.377 -0.865 0.331 56 52 35
-2946.6094 2580.0881 1055.4624 -0.375 -0.868 0.324 50 43 32
-2909.8513 2561.5332 1037.5018 -0.169 -0.976 0.140 84 73 69
-2741.0984 2904.2830 808.0817 0.712 -0.224 -0.666 182 95 44
-2748.3428 2922.0588 806.7726 0.686 -0.232 -0.690 179 96 48
-2747.0505 2930.1824 803.1272 0.675 -0.221 -0.704 177 98 49
-2394.3647 2729.5740 638.5527 -0.359 -0.765 0.535 140 55 5
-2377.1409 2717.6108 631.2595 -0.390 -0.771 0.503 149 68 19
-2358.3430 2703.6113 623.6235 -0.388 -0.769 0.507 167 90 41
-2296.4280 2983.5164 486.5100 0.622 -0.513 -0.592 62 36 19
-2291.7144 2997.8821 478.4561 0.585 -0.568 -0.579 51 34 15
-2244.8826 2994.9941 448.4466 0.676 -0.687 0.265 116 55 46
-2275.2180 3081.5073 438.8167 0.089 -0.733 -0.674 185 99 62
-2155.2700 3453.3545 231.7113 0.456 -0.634 -0.624 212 181 179
-4363.1187 2642.8677 1960.5371 -0.536 -0.591 -0.603 136 136 126
-4318.4595 2621.6970 1938.3420 -0.515 -0.569 -0.641 135 136 126
-4077.5635 2479.2668 1828.3721 -0.548 -0.520 -0.655 132 135 126
-4090.9810 2503.2932 1828.9386 -0.449 -0.338 -0.827 131 136 129
-4311.4800 2972.1179 1812.6949 -0.527 -0.839 -0.131 132 132 126
-4236.1626 3043.0601 1738.4275 0.705 -0.700 -0.112 120 180 209
-4194.9683 3057.5342 1706.2102 0.409 -0.602 -0.686 119 175 211
-4039.1892 2963.4072 1635.7948 0.403 -0.904 0.145 117 176 213
-4027.7537 2963.4517 1628.2239 0.407 -0.899 0.163 115 174 211
-4032.3945 2976.1455 1626.9056 0.397 -0.836 0.380 113 172 211
-4094.6431 3043.6729 1644.7108 -0.368 -0.917 -0.150 112 173 213
-3945.0466 2934.0115 1583.7460 0.093 -0.968 0.234 114 174 215
-3887.9790 2897.4734 1558.6603 -0.122 -0.693 0.711 114 174 214
-3834.3420 2863.4468 1534.9740 -0.122 -0.690 0.713 114 175 215
-3698.9783 2772.1509 1477.0696 -0.158 -0.701 0.695 115 177 212
-3654.0640 2744.4392 1456.9655 -0.166 -0.717 0.677 118 177 208
-3627.1531 2731.1082 1443.7893 -0.438 -0.857 0.273 125 175 199
-3584.0132 2704.5159 1424.4708 -0.451 -0.848 0.279 139 170 187
-3562.6169 2695.4370 1413.4697 -0.219 -0.861 0.459 122 134 143
-3533.0530 2679.6221 1399.3986 -0.236 -0.867 0.440 64 60 61
-3511.2466 2670.0422 1388.2994 -0.218 -0.882 0.418 57 39 35
-3491.5715 2662.1353 1378.0308 -0.233 -0.889 0.394 74 48 38
-3411.1506 2661.1016 1325.2518 -0.324 -0.697 -0.640 58 33 15
-3404.5012 2663.7417 1319.9465 -0.325 -0.700 -0.636 67 59 47
-3416.9226 2682.4795 1321.6815 -0.410 -0.895 0.174 106 105 95
-3389.7363 2667.7646 1308.8015 -0.417 -0.891 0.178 130 128 120
-3360.1296 2650.8887 1295.0686 -0.402 -0.896 0.186 120 119 113
-3335.9631 2638.5283 1283.3705 -0.402 -0.899 0.173 92 88 79
-3305.8916 2621.0325 1269.5446 -0.408 -0.897 0.172 75 77 68
-3232.9194 2566.6650 1240.1088 -0.423 -0.876 -0.230 59 59 52
-3221.4075 2564.7646 1233.1588 0.026 -0.939 0.343 65 47 32
-3204.8188 2558.4600 1224.3762 0.151 -0.901 0.407 95 53 30
-3198.9089 2561.3262 1219.4813 0.235 -0.879 0.415 107 50 21
-3193.8259 2564.9060 1214.8864 0.628 -0.777 0.043 108 49 20
-3188.9099 2568.6326 1210.3512 0.628 -0.777 0.043 108 52 24
-3184.4983 2572.8005 1205.9967 0.644 -0.764 -0.046 124 68 40
-3179.9180 2576.8254 1201.5801 0.521 -0.800 -0.297 123 67 37
-3153.7842 2577.9958 1183.9087 -0.346 -0.938 -0.019 130 69 40
-3136.3589 2570.6450 1174.9343 -0.340 -0.940 -0.022 131 68 38
-3097.2209 2559.9382 1152.7732 0.418 -0.896 0.149 140 76 47
-3044.5693 2625.8611 1095.2151 -0.474 -0.880 0.002 75 48 32
-2986.3835 2604.4285 1064.1733 -0.434 -0.845 0.311 60 49 29
-2925.5620 2555.3091 1040.9530 -0.381 -0.902 0.205 55 44 30
-2891.1458 2538.8757 1023.8893 -0.297 -0.954 0.035 85 73 69
-2834.6052 2699.9453 930.8983 0.576 -0.222 -0.786 63 7 0
-2924.0457 2854.8687 936.4830 -0.114 -0.808 0.578 153 89 61
-2795.5952 2818.8716 864.0461 -0.101 -0.576 -0.811 33 39 22
-2755.2727 2914.2168 804.4719 -0.017 -0.949 0.316 181 95 44
-2739.0564 2905.3613 796.8161 0.779 -0.260 -0.571 179 96 46
-2408.4937 2731.6165 638.4172 -0.288 -0.878 0.381 144 58 9
-2396.5293 2726.1812 632.3895 -0.360 -0.763 0.537 140 55 6
-2380.0879 2715.1995 625.3194 -0.409 -0.782 0.470 141 61 10
-2359.4849 2699.0071 617.2993 -0.373 -0.769 0.519 154 79 27
-2341.9922 2686.5330 610.0499 -0.119 -0.746 0.655 174 101 48
-2302.1602 2994.8000 477.2564 0.591 -0.565 -0.575 73 52 35
-2297.0808 2998.2041 472.7246 0.585 -0.568 -0.579 101 83 61
-2286.4460 2993.8352 467.2069 0.651 -0.756 0.067 102 81 57
-2283.1306 2999.6919 462.9935 0.639 -0.769 0.013 91 62 40
-2276.8667 3001.4126 458.2605 0.605 -0.792 0.082 90 48 30
-2273.2358 3006.8440 453.9855 0.649 -0.760 0.030 90 33 21
-2271.0474 3014.3345 449.9522 0.802 -0.548 -0.237 105 37 29
-2267.9939 3020.6228 445.7628 0.802 -0.548 -0.237 131 52 46
-2279.5283 3069.3413 436.5564 0.851 -0.412 0.325 184 90 54
-2173.1187 3474.2676 226.3873 0.552 -0.737 -0.390 211 181 181
-2219.8386 5007.7993 -272.4267 -0.242 -0.197 -0.950 216 180 180
-4211.3081 2555.3098 1879.7924 -0.554 -0.538 -0.635 126 128 117
-4137.2983 2514.4966 1845.1621 -0.518 -0.417 -0.747 125 128 119
-4822.1265 3063.7686 2105.9868 0.333 -0.328 -0.884 138 141 134
-4795.6147 3054.9832 2091.5547 0.100 -0.366 -0.925 142 145 138
-4963.0464 3364.4631 2094.4673 -0.216 -0.752 0.622 117 115 104
-4369.8232 2991.9080 1832.6675 -0.137 -0.719 0.682 132 130 117
-4089.3091 2916.6921 1673.8036 0.547 -0.293 -0.784 124 181 212
-4172.5356 3081.2996 1671.5095 -0.447 -0.853 0.271 117 178 215
-4078.6794 3016.5933 1632.0909 -0.424 -0.848 0.317 117 178 215
-3937.9668 2923.3042 1571.7006 -0.491 -0.851 0.189 118 179 218
-3869.7805 2877.9519 1542.4877 -0.511 -0.848 0.138 120 179 219
-3576.8301 2669.2302 1421.7986 -0.331 -0.782 0.529 123 182 219
-3626.4543 2717.3955 1437.7932 -0.204 -0.883 0.423 125 182 218
-3569.5598 2679.8049 1413.3307 0.152 -0.984 0.096 132 180 210
-3560.3645 2680.6040 1406.9890 0.152 -0.984 0.096 144 176 196
-3551.1870 2681.4014 1400.6597 0.152 -0.984 0.096 133 147 159
-3542.0271 2682.1970 1394.3427 0.152 -0.984 0.096 67 66 70
-3541.5818 2690.0942 1391.3057 0.273 -0.962 0.026 53 42 37
-3421.7605 2673.4661 1318.0629 -0.325 -0.700 -0.636 56 51 46
-3427.7747 2686.8066 1317.3950 -0.413 -0.893 0.178 123 128 126
-3400.1494 2671.7644 1304.4021 -0.417 -0.891 0.178 163 177 179
-3369.6982 2654.2192 1290.4150 -0.402 -0.896 0.186 150 174 180
-3304.0232 2606.6021 1263.6449 -0.561 -0.810 -0.168 142 166 172
-3276.5579 2591.2727 1250.8572 -0.545 -0.807 -0.227 121 152 162
-3245.2476 2572.5469 1236.7137 -0.434 -0.869 -0.238 103 128 141
-3224.2039 2562.4983 1226.3265 0.018 -0.938 0.345 99 104 110
-3205.9746 2554.7927 1216.9814 0.156 -0.901 0.404 82 63 56
-2933.8674 2558.2449 1036.3350 -0.383 -0.904 0.188 59 41 26
-2898.5315 2541.0007 1019.0220 -0.297 -0.954 0.035 85 71 65
-2887.3198 2538.4043 1012.5301 -0.236 -0.968 0.084 87 73 64
-2879.5615 2539.0630 1007.1850 -0.194 -0.948 -0.254 89 76 66
-2867.4597 2535.5574 1000.4219 0.031 -0.999 0.030 71 56 47
-2844.1770 2695.7126 929.4343 0.493 -0.291 -0.820 62 4 0
-2845.1763 2705.3760 926.7366 0.489 -0.348 -0.800 70 17 3
-2964.7046 2873.1311 947.2889 0.003 -0.813 0.583 170 97 62
-2946.3342 2863.2192 938.6174 0.120 -0.792 0.599 151 89 54
-2799.8550 2845.2012 848.2772 0.023 -0.882 -0.471 38 35 14
-2398.8235 2722.9595 626.2709 -0.360 -0.763 0.537 140 55 8
-2334.4285 2671.2400 601.7698 -0.382 -0.759 0.527 168 98 47
-2259.0234 2732.0205 530.9290 0.293 -0.503 0.813 184 111 59
-2200.8271 2759.1960 483.1100 0.088 -0.961 -0.263 184 113 62
-2280.1111 3009.3088 448.5139 0.551 -0.612 0.568 131 68 50
-2276.6719 3015.0295 444.2585 0.823 -0.546 0.155 146 69 56
-2274.0266 3021.8933 440.1297 0.798 -0.602 0.010 167 78 67
-2271.5129 3028.9688 436.0143 0.799 -0.602 0.010 181 87 73
-2200.4636 3260.6035 308.6960 0.724 -0.658 -0.206 16 16 16
-2194.0649 4909.0869 -268.1587 -0.015 -0.156 -0.988 207 171 171
-2388.2493 5409.1401 -313.8032 -0.228 -0.193 -0.954 232 196 196
-4478.1318 2709.2090 1990.9897 -0.570 -0.725 -0.386 112 110 99
-4235.7969 2598.5801 1870.1257 -0.489 -0.388 -0.781 124 127 118
-4892.2607 3087.6902 2131.3616 0.211 -0.484 -0.849 127 130 121
-4883.2451 3090.8901 2124.3093 0.179 -0.419 -0.890 133 136 128
-4834.0698 3066.9275 2100.3120 0.333 -0.328 -0.884 139 142 134
-4809.6113 3059.5645 2086.7852 0.519 -0.479 -0.708 143 146 139
-4206.0669 2884.8362 1750.5565 0.642 -0.196 -0.741 142 131 118
-4195.0918 3093.7244 1670.3596 -0.425 -0.850 0.310 124 179 215
-3607.0930 2688.8105 1424.7766 -0.346 -0.782 0.519 131 185 225
-3628.0068 2713.8811 1429.7845 -0.198 -0.885 0.422 134 187 225
-3538.1379 2682.5349 1381.5811 0.166 -0.984 0.057 54 48 46
-3425.3601 2663.4631 1314.0103 0.282 -0.949 -0.138 61 30 19
-3467.5178 2707.0713 1326.5256 -0.410 -0.892 0.190 44 31 33
-3437.9675 2690.5630 1312.8418 -0.410 -0.892 0.190 126 129 134
-3411.3608 2676.4233 1300.2681 -0.417 -0.889 0.188 161 184 193
-3379.2913 2657.5581 1285.7495 -0.402 -0.896 0.186 132 173 191
-3327.1436 2621.5200 1264.0140 -0.550 -0.819 -0.162 126 174 196
-3300.0210 2606.5579 1251.3882 -0.562 -0.794 -0.232 125 180 212
-3258.6094 2579.2903 1233.6558 -0.481 -0.824 -0.298 136 184 227
-3229.5781 2562.4456 1220.4312 -0.269 -0.963 -0.017 152 185 220
-3215.9006 2574.6143 1207.1774 0.122 -0.119 -0.985 94 94 93
-3133.0369 2566.2339 1155.5620 -0.388 -0.843 0.372 121 63 40
-2992.8367 2600.5688 1051.2842 -0.405 -0.860 0.310 69 41 19
-2967.1729 2584.6587 1039.9497 -0.403 -0.868 0.290 62 39 23
-2927.3564 2563.3789 1021.1753 -0.247 -0.936 0.250 67 49 42
-2894.6677 2540.5022 1007.6505 -0.257 -0.957 0.133 72 55 45
-2886.0015 2540.3091 1002.0137 -0.009 -0.998 0.059 89 72 59
-2872.2437 2535.2412 994.7283 0.031 -0.999 0.030 72 54 42
-2853.5020 2699.8489 924.8883 -0.056 -0.882 -0.468 61 18 2
-2851.7917 2706.7483 921.3523 0.076 -0.872 -0.483 95 56 32
-2846.6763 2718.8716 913.7501 0.372 -0.386 -0.844 125 88 61
-2738.1538 2658.2471 863.4964 -0.588 -0.788 0.184 59 25 11
-2655.1230 2596.4993 830.4143 0.101 -0.651 0.753 43 32 26
-2809.8240 2859.4363 840.3884 -0.222 -0.687 0.692 75 36 11
-2453.5674 2765.0542 638.8627 -0.437 -0.748 0.499 160 76 32
-2429.4214 2745.0066 629.9727 -0.435 -0.749 0.500 146 62 18
-2408.7239 2729.0137 621.9361 -0.430 -0.721 0.544 134 52 6
-2361.2798 2689.2529 604.5972 -0.421 -0.746 0.516 126 55 12
-2336.9568 2668.4167 595.8660 -0.382 -0.759 0.527 146 77 34
-2299.2705 2648.7917 577.9158 0.419 -0.619 0.664 174 104 63
-2264.7344 2761.4321 515.8336 -0.444 -0.495 -0.747 178 104 56
-2332.5823 3022.6819 469.2282 0.200 -0.741 0.641 105 43 11
-2262.5803 2977.4255 438.9610 -0.350 -0.756 0.553 163 83 53
-2262.5332 2987.8245 435.2971 0.761 -0.508 -0.403 172 86 58
-2266.3098 3003.6858 432.2420 0.751 -0.508 -0.421 178 85 59
-2270.3040 3019.9397 429.1931 0.803 -0.583 -0.123 183 86 57
-2204.3254 3258.2935 302.4981 0.724 -0.658 -0.206 13 13 13
-2190.4595 3484.8301 214.2332 0.682 -0.253 -0.686 211 181 182
-2213.5229 4916.5210 -270.7305 0.022 -0.151 -0.988 219 185 184
-4560.5190 2758.3796 2016.5505 -0.563 -0.738 -0.373 110 110 100
-4471.9468 2709.0667 1975.6844 -0.555 -0.584 -0.593 110 110 100
-4852.4497 3177.5322 2061.0928 0.533 -0.675 0.511 151 152 147
-5099.9214 3430.9387 2134.6533 -0.009 -1.000 0.011 135 131 120
-3634.8455 2706.3169 1426.6937 -0.412 -0.807 0.423 131 184 226
-3666.4983 2740.0220 1435.6482 -0.381 -0.852 0.360 136 186 226
-3568.4832 2669.5374 1396.0159 0.388 -0.869 -0.306 142 184 217
-3561.7847 2672.3335 1390.6329 0.352 -0.892 -0.284 152 181 203
-3437.5427 2660.6650 1313.1079 0.336 -0.929 -0.155 62 31 11
-3449.8035 2679.1204 1314.6796 0.598 -0.686 -0.415 59 31 19
-3477.7295 2710.7849 1321.9023 -0.410 -0.892 0.190 47 30 32
-3448.0669 2694.2275 1308.2314 -0.410 -0.892 0.190 127 129 135
-3418.8127 2677.8984 1294.7487 -0.410 -0.892 0.190 160 185 194
-3388.9089 2660.9058 1281.0721 -0.402 -0.896 0.186 130 175 193
-3347.1714 2633.7664 1263.1855 -0.479 -0.859 -0.182 127 183 209
-3332.1729 2629.1753 1254.9448 -0.532 -0.835 -0.141 125 184 224
-3280.3762 2593.1738 1233.5630 -0.493 -0.824 -0.281 132 181 228
-3085.3137 2567.0486 1114.5892 0.643 -0.659 0.390 115 62 32
-3004.7173 2606.7407 1047.6952 -0.373 -0.829 0.418 74 39 20
-2974.8069 2586.9006 1035.0146 -0.373 -0.829 0.418 66 37 22
-2840.0425 2539.6421 963.0795 0.314 -0.807 -0.500 85 75 72
-2859.3936 2700.4817 919.2892 -0.045 -0.883 -0.467 84 50 28
-2851.9724 2718.8857 907.9483 0.326 -0.454 -0.829 113 79 54
-2837.5093 2712.7312 900.6085 0.211 -0.808 0.550 112 75 58
-2827.6343 2711.2498 894.6412 0.211 -0.808 0.550 91 49 39
-2656.3696 2584.1890 826.7611 -0.455 -0.770 0.448 40 31 20
-2599.7109 2532.9011 807.5552 -0.469 -0.750 0.466 33 34 23
-2877.8833 2834.8228 884.2421 0.134 -0.531 0.837 33 28 31
-2799.4673 2842.2939 830.0999 -0.196 -0.671 0.715 113 60 26
-2746.3257 2811.6958 805.9362 -0.259 -0.849 0.461 163 84 57
-2407.5908 2721.6313 615.0350 -0.433 -0.740 0.515 131 52 9
-2386.9656 2705.6238 607.1083 -0.437 -0.722 0.536 121 50 9
-2361.9780 2684.1606 598.2320 -0.436 -0.739 0.513 118 51 12
-2300.5583 2726.4104 543.0381 0.911 -0.355 0.210 179 100 53
-2299.9238 2744.2297 536.3613 0.977 -0.165 -0.137 176 100 57
-2289.1335 2739.7227 530.8558 0.918 -0.338 0.207 173 98 55
-2245.3345 2711.0657 512.1479 0.649 -0.469 0.600 175 101 58
-2234.3635 2706.0796 506.6919 0.251 -0.565 0.786 177 103 60
-2191.5417 2733.8411 468.8062 -0.386 -0.318 -0.866 153 81 40
-2335.4014 3019.4155 462.9954 0.237 -0.757 0.609 133 51 8
-2317.5950 3005.2698 456.2664 0.102 -0.781 0.616 147 63 18
-2234.1470 3284.7332 303.2665 0.759 -0.595 0.266 6 6 6
-2212.5886 3262.8955 296.7749 0.874 -0.481 -0.073 11 11 11
-5113.3604 3434.9089 2128.5940 -0.001 -0.998 0.056 122 120 108
-5103.7139 3438.3008 2121.0701 0.008 -0.999 0.048 128 123 111
-3574.0156 2669.3054 1389.6586 0.388 -0.869 -0.306 141 183 216
-3567.6777 2672.3936 1384.4116 0.326 -0.902 -0.282 151 181 206
-3564.2615 2677.8398 1380.2476 0.617 -0.550 -0.563 146 166 179
-3444.9673 2662.0959 1307.5842 0.325 -0.935 -0.144 63 30 14
-3436.3284 2663.1021 1301.5641 0.332 -0.932 -0.143 59 30 22
-3459.6870 2690.8547 1307.0769 0.423 -0.607 -0.673 48 29 35
-3456.8611 2696.7839 1303.1293 -0.395 -0.897 0.197 126 127 137
-3428.8306 2681.5256 1290.1392 -0.410 -0.892 0.190 160 184 196
-3398.6780 2664.3687 1276.4280 -0.402 -0.897 0.184 132 175 195
-3417.4304 2688.4668 1280.2115 0.076 -0.383 -0.921 135 191 217
-3302.5969 2607.3958 1233.5511 -0.488 -0.815 -0.312 125 179 230
-2909.4565 2397.1331 1050.0353 -0.250 -0.689 0.680 100 56 34
-3088.3335 2564.9875 1108.0333 0.442 -0.803 0.400 105 57 31
-3065.4902 2560.4692 1094.6504 0.281 -0.956 -0.080 104 59 28
-3059.1399 2562.7463 1089.6818 0.281 -0.956 -0.080 101 56 26
-3032.4202 2562.5481 1072.2310 -0.457 -0.888 -0.058 101 51 25
-2997.2363 2594.8152 1037.7609 -0.365 -0.890 0.273 73 39 20
-2978.4272 2585.3757 1028.7617 -0.373 -0.829 0.418 65 38 22
-2846.7654 2541.2153 958.0273 0.146 -0.911 -0.386 91 80 77
-2857.6877 2710.6562 905.3315 0.103 -0.804 0.585 101 69 47
-2851.2395 2712.7317 900.3700 0.220 -0.782 0.582 89 58 36
-2831.9146 2710.2458 888.5762 0.205 -0.827 0.523 55 30 16
-2770.5168 2681.2573 858.5565 -0.588 -0.785 0.195 37 34 16
-2601.2688 2537.5903 798.3279 -0.496 -0.731 0.469 35 28 28
-3105.1860 3078.4722 937.6870 -0.585 -0.730 0.355 37 25 31
-2921.3745 2902.7478 879.2335 -0.597 -0.723 0.346 44 22 20
-2408.6289 2716.9116 608.6595 -0.433 -0.732 0.525 131 51 11
-2387.1565 2699.8984 600.5895 -0.426 -0.719 0.549 121 50 11
-2362.8650 2679.3186 591.9310 -0.450 -0.738 0.503 118 52 14
-2338.2971 2658.2517 583.2632 -0.408 -0.767 0.495 123 59 23
-2318.7280 2643.1731 575.7579 0.223 -0.675 0.703 149 86 51
-2295.3101 2632.1038 564.3126 0.233 -0.701 0.674 168 104 66
-2287.9739 2631.9094 559.5706 0.256 -0.663 0.703 168 104 68
-2277.3057 2645.3989 547.8098 0.438 -0.175 -0.882 175 102 60
-2183.3572 2725.9236 457.7580 0.020 -0.731 -0.682 122 56 19
-2171.8853 2719.9321 452.3521 0.004 -0.775 -0.632 114 56 30
-2235.4224 2874.5232 439.4035 0.324 -0.824 0.466 154 69 25
-2308.4321 3006.3506 440.7081 0.491 -0.707 0.509 170 81 36
-2218.6621 3264.0479 290.8072 0.713 -0.677 -0.185 11 11 11
-2212.3015 3265.9573 285.9618 0.694 -0.692 -0.199 18 18 18
-2213.3245 3389.4778 242.9969 -0.604 -0.784 0.143 37 36 42
-2204.7126 3503.1648 197.1881 0.224 -0.671 -0.707 211 182 184
-2175.2209 4754.5981 -264.2403 0.263 0.028 -0.964 210 176 175
-4748.4360 2871.2593 2076.5017 -0.547 -0.766 -0.339 107 107 97
-4733.1748 2922.2263 2048.4084 -0.383 -0.577 -0.721 127 129 118
-4880.1787 3074.0356 2090.6941 0.820 -0.234 -0.522 130 135 128
-4887.8623 3088.4312 2090.6094 0.716 -0.339 -0.611 137 142 135
-4917.7090 3136.5679 2093.0442 0.546 -0.757 0.359 144 146 137
-4864.2402 3109.5706 2067.6394 0.543 -0.718 0.436 148 149 143
-4271.1543 2989.2998 1722.1953 0.521 -0.052 -0.852 140 189 224
-3581.5935 2670.7139 1384.0565 0.369 -0.884 -0.286 144 185 220
-3573.3789 2672.2981 1378.1174 0.326 -0.902 -0.282 152 183 208
-3447.5935 2659.5376 1300.3253 0.306 -0.747 -0.590 63 31 13
-3446.4241 2666.7603 1296.9941 0.292 -0.744 -0.601 60 31 22
-3449.8821 2686.1230 1292.3792 -0.182 -0.835 -0.519 119 118 129
-3439.5332 2685.7146 1285.7510 -0.209 -0.832 -0.513 163 187 200
-3406.5557 2666.2263 1271.0905 -0.404 -0.896 0.187 136 179 199
-3425.7791 2690.6941 1274.9803 0.087 -0.374 -0.924 141 196 220
-3089.1057 2560.9214 1100.7305 0.442 -0.803 0.400 94 53 32
-3077.2305 2558.2700 1093.9000 0.484 -0.775 0.405 100 57 33
-3070.2019 2559.9458 1088.7047 0.484 -0.775 0.405 98 59 32
-3058.9355 2557.7871 1082.0978 0.204 -0.977 -0.064 94 55 31
-3053.7258 2561.0789 1077.5187 0.055 -0.998 -0.024 94 55 30
-3038.0754 2562.9001 1066.6288 0.229 -0.966 -0.118 94 53 31
-3005.7512 2597.8372 1033.0625 -0.441 -0.869 0.224 74 40 21
-2957.5562 2569.0334 1011.7512 -0.498 -0.839 0.222 63 44 30
-2884.1523 2516.0471 982.5314 0.502 -0.783 0.367 74 57 45
-2853.7444 2567.3027 944.4224 0.328 -0.741 -0.586 144 129 124
-2850.2485 2572.0479 940.4488 0.270 -0.808 -0.524 157 142 139
-2862.3567 2701.4094 902.4208 0.031 -0.810 0.585 65 38 20
-2853.9597 2710.1250 893.8290 -0.029 -0.948 -0.317 60 36 17
-2834.1658 2707.1606 881.9271 -0.018 -0.808 -0.589 44 33 18
-2949.0000 2834.1235 911.9842 -0.528 -0.753 0.393 40 37 24
-2887.2598 2779.3889 891.0192 -0.529 -0.759 0.379 38 40 25
-3202.3647 3114.8247 978.0956 -0.291 -0.907 0.304 39 42 25
-3047.8066 3021.4014 910.1256 -0.599 -0.725 0.340 49 22 15
-2791.0969 2839.8850 806.5917 0.456 -0.552 0.698 163 80 42
-2415.0254 2718.6963 603.5070 -0.444 -0.709 0.548 131 51 11
-2389.2432 2696.4978 594.5184 -0.426 -0.719 0.549 123 52 13
-2366.1172 2677.3762 586.1752 -0.450 -0.738 0.503 118 52 14
-2342.1372 2657.0723 577.6931 -0.412 -0.766 0.493 118 54 18
-2323.2151 2642.8213 570.3712 -0.438 -0.814 0.383 139 76 41
-2304.4973 2628.7129 563.1322 0.235 -0.714 0.660 162 98 62
-2296.0627 2627.1804 558.1563 0.231 -0.698 0.677 167 103 67
-2289.3098 2627.7000 553.5521 0.237 -0.682 0.692 169 105 69
-2281.8530 2681.2507 529.6489 0.726 -0.548 0.415 172 102 62
-2247.9001 2758.1228 480.1202 -0.365 -0.312 -0.877 116 52 17
-2242.5049 2760.4841 475.7503 -0.289 -0.260 -0.921 116 52 18
-2204.8394 2748.3354 455.4142 0.304 -0.660 -0.686 113 50 17
-2335.9390 3037.3997 438.5338 -0.067 -0.263 -0.963 179 87 40
-2416.5837 3307.3738 395.4128 0.290 -0.767 0.573 64 19 12
-2178.1836 3449.2688 188.9777 0.701 -0.501 -0.508 208 182 183
-4803.8120 2902.5161 2089.6077 -0.550 -0.743 -0.382 96 98 87
-4764.1367 2937.9907 2051.0188 -0.339 -0.499 -0.797 128 130 119
-4669.4336 3008.0610 1964.1263 0.458 -0.100 -0.883 131 134 130
-4671.6270 3018.6125 1961.7904 0.458 -0.100 -0.883 107 110 108
-4732.9648 3070.0867 1983.4731 0.869 -0.491 0.063 100 106 100
-4759.1665 3097.4683 1990.8092 0.335 -0.479 0.811 94 98 90
-4278.4214 2989.7102 1715.2540 0.133 -0.479 -0.868 141 188 223
-3585.1992 2668.9353 1376.9858 0.367 -0.882 -0.295 146 188 221
-3576.2725 2669.9465 1370.7933 0.362 -0.860 -0.359 155 186 211
-3575.6472 2677.6299 1367.6405 0.434 -0.662 -0.611 163 181 195
-3573.2019 2683.8665 1363.8157 0.446 -0.640 -0.625 103 110 118
-3472.5354 2716.9275 1286.2467 -0.290 -0.823 -0.489 147 191 209
-3445.4731 2702.4792 1273.7291 0.165 -0.348 -0.923 140 196 219
-3088.7017 2555.8176 1093.0551 0.397 -0.790 0.468 69 37 19
-3070.3516 2555.3245 1081.2440 0.470 -0.695 0.544 87 51 31
-3061.6907 2563.5042 1072.6648 0.421 -0.621 0.661 84 49 28
-3050.2068 2561.1179 1066.0153 0.104 -0.984 0.142 87 53 32
-3046.0339 2565.3435 1061.7800 0.251 -0.966 -0.067 90 57 39
-3043.6538 2571.2085 1058.1304 0.665 -0.741 0.095 88 54 35
-3036.3684 2572.6045 1052.8727 0.677 -0.730 0.089 81 47 27
-3021.0098 2566.5874 1044.9888 0.178 -0.961 0.212 83 47 25
-2999.8936 2555.2224 1035.2542 0.272 -0.947 -0.171 83 47 24
-2855.0266 2571.7095 934.7316 0.296 -0.804 -0.516 132 118 114
-2874.9922 2708.8733 898.7811 0.043 -0.795 0.605 56 36 23
-2869.0393 2720.1221 890.8745 0.549 -0.717 -0.429 52 36 23
-2417.1348 2715.2939 597.3945 -0.444 -0.709 0.548 135 55 13
-2392.3145 2694.3030 588.6783 -0.428 -0.721 0.545 122 51 11
-2381.1387 2689.7471 583.0051 -0.436 -0.716 0.544 116 48 11
-2352.5383 2663.8967 573.5555 -0.463 -0.719 0.519 115 50 15
-2328.4292 2643.3586 565.1421 -0.442 -0.810 0.386 119 55 19
-2307.1111 2626.0977 557.3815 0.212 -0.727 0.653 139 75 39
-2297.1379 2622.6733 552.0897 0.218 -0.718 0.661 159 94 56
-2275.8916 2676.7559 518.8932 0.534 -0.548 0.644 135 71 34
-2247.4907 2686.1226 496.9948 0.460 -0.579 0.673 112 53 21
-2274.9492 2777.8093 482.1828 -0.303 -0.293 -0.907 105 48 17
-2283.6921 2798.8459 480.3800 -0.366 -0.314 -0.876 106 49 18
-2272.2615 2793.3760 474.8669 -0.250 -0.224 -0.942 105 47 19
-2228.8928 2774.0854 453.4268 0.696 -0.224 -0.682 108 51 23
-2179.8765 2717.9421 441.4606 0.564 -0.537 -0.628 107 53 28
-2220.4033 2801.1997 438.1962 0.737 -0.499 -0.457 114 51 20
-2405.2375 3329.5303 370.2263 0.329 -0.762 -0.558 41 19 9
-2184.2427 3463.1055 178.1514 0.914 -0.384 -0.134 211 182 184
-4654.5596 2966.1855 1957.4088 0.052 -0.963 0.263 127 136 125
-4656.1768 2994.1113 1948.4341 0.382 -0.107 -0.918 87 93 84
-4673.3896 3014.9534 1952.1716 0.436 -0.113 -0.893 93 96 90
-4715.9785 3071.7583 1959.5387 0.266 -0.479 0.836 125 126 118
-4581.5762 3041.6992 1882.7035 0.834 -0.474 -0.283 133 129 115
-4647.6348 3107.0425 1902.3064 0.764 -0.644 -0.034 139 132 116
-4642.0747 3112.4016 1896.7567 0.751 -0.660 -0.039 139 132 116
-3588.7332 2667.1042 1369.8977 0.403 -0.856 -0.324 146 187 221
-3475.9399 2681.7749 1291.0872 0.411 -0.501 -0.761 60 34 20
-3505.2075 2739.5012 1289.4379 0.254 -0.264 -0.931 146 189 210
-3088.9302 2551.2947 1085.6158 0.397 -0.790 0.468 134 108 95
-3069.4968 2549.8179 1073.4756 0.470 -0.695 0.544 69 37 23
-3064.5940 2553.3740 1069.0018 0.451 -0.630 0.633 65 33 19
-3023.3960 2563.9604 1038.3384 0.115 -0.965 0.234 84 47 26
-3022.4639 2571.1406 1035.1520 0.217 -0.935 0.280 84 46 24
-3012.2874 2569.8335 1028.9863 0.254 -0.945 0.206 84 48 26
-2990.9316 2566.2104 1016.3635 0.397 -0.880 0.262 85 48 29
-2986.7534 2570.3901 1012.1382 0.332 -0.913 0.238 85 48 32
-2960.6057 2554.1143 1000.9351 -0.192 -0.964 0.182 79 48 34
-2940.4028 2543.2769 991.6548 -0.494 -0.869 0.028 73 52 38
-2899.9429 2529.2549 970.3105 -0.008 -0.982 0.191 77 59 47
-2874.7217 2703.2583 891.3745 0.043 -0.795 0.605 44 31 24
-2419.3557 2712.0388 591.3204 -0.465 -0.727 0.505 131 52 10
-2409.6113 2709.3191 585.9438 -0.436 -0.716 0.544 119 48 7
-2383.3726 2686.5540 577.0119 -0.436 -0.716 0.544 116 49 10
-2355.9075 2662.1350 567.8743 -0.450 -0.715 0.535 114 48 13
-2332.7429 2642.7939 559.7171 -0.440 -0.811 0.384 113 49 13
-2307.4751 2620.7373 551.1638 0.175 -0.718 0.674 123 57 21
-2297.1655 2616.8970 545.8211 0.218 -0.718 0.661 134 69 31
-2295.8857 2677.8044 523.1124 0.778 -0.529 0.340 119 58 29
-2414.7534 3335.3508 364.4627 0.241 -0.755 -0.610 41 19 9
-2394.9653 3318.0327 357.7805 -0.508 -0.837 -0.202 32 16 6
-2380.8025 3308.8799 351.8334 -0.506 -0.840 -0.198 21 10 1
-2234.5010 3263.7654 272.6466 0.486 -0.316 -0.815 9 9 9
-2122.6794 4550.1792 -262.2656 0.005 -0.121 -0.993 212 178 177
-4654.8975 2979.4656 1940.8896 0.396 -0.098 -0.913 65 71 67
-4656.6138 2989.5876 1938.3514 0.402 -0.098 -0.911 83 87 82
-4688.2266 3047.5581 1937.9911 0.276 -0.475 0.835 107 111 106
-4600.7964 3059.4824 1876.7888 0.979 -0.156 -0.130 133 129 117
-3592.9622 2665.8330 1363.0702 0.375 -0.876 -0.302 145 188 223
-3565.0979 2692.5532 1335.2886 -0.210 -0.974 -0.080 64 39 26
-3484.6211 2675.9863 1288.8993 0.309 -0.419 -0.854 63 32 17
-3506.1306 2735.3938 1281.4452 0.152 -0.222 -0.963 147 190 209
-3817.3521 3032.9995 1376.5135 -0.456 -0.639 -0.620 139 191 237
-3737.7200 3002.0146 1335.8802 -0.213 -0.594 -0.776 99 128 152
-3731.5371 3015.1213 1327.1239 -0.363 -0.808 -0.465 15 26 30
-3132.8408 2577.6414 1095.4849 -0.413 -0.909 0.051 179 169 157
-3028.3689 2555.7046 1035.4193 0.521 -0.697 0.493 82 46 28
-3022.1506 2558.0237 1030.5354 0.489 -0.719 0.494 84 46 28
-3204.3755 3118.1455 946.8640 0.456 -0.715 -0.530 46 11 9
-2409.7410 2703.5547 579.4501 -0.447 -0.719 0.531 116 45 6
-2383.3772 2680.6738 570.5555 -0.410 -0.807 0.425 114 49 11
-2359.3159 2660.4272 562.2083 -0.452 -0.718 0.529 114 49 14
-2310.9963 2681.6782 523.0900 -0.275 -0.943 -0.188 97 41 15
-2402.3394 3320.7490 351.7679 -0.541 -0.813 -0.213 32 16 6
-2326.2830 3231.8972 334.3569 -0.318 -0.798 -0.512 14 7 0
-2247.8098 3276.1089 267.3247 0.600 -0.574 -0.558 9 9 9
-2192.8289 3459.0239 165.4955 0.601 -0.495 -0.628 206 176 178
-2198.1387 4724.1680 -287.8854 -0.043 -0.201 -0.979 218 184 183
-4884.2803 2958.2830 2085.6145 -0.205 -0.283 -0.937 99 99 89
-4840.6870 2938.8694 2064.3474 -0.278 -0.300 -0.912 106 106 96
-4777.4756 2906.5586 2035.0204 0.939 0.150 -0.308 111 111 99
-4007.8120 2495.0134 1684.5125 0.125 -0.627 -0.769 86 94 89
-4596.7129 3015.2390 1878.1539 0.614 -0.677 0.405 85 100 102
-4658.3862 3113.8450 1882.4139 0.775 -0.601 -0.196 140 132 115
-3592.8049 2661.0688 1354.6685 0.386 -0.876 -0.289 139 188 225
-3575.6685 2696.4016 1330.7104 -0.268 -0.912 -0.312 65 40 26
-3500.4629 2684.3169 1286.2498 0.217 -0.332 -0.918 64 32 17
-3493.8445 2695.3340 1277.9512 0.153 -0.117 -0.981 42 21 21
-3502.7820 2719.3721 1275.0293 0.143 -0.121 -0.982 165 188 187
-3508.5430 2732.5449 1273.9890 0.148 -0.139 -0.979 146 188 196
-3788.8562 2985.2139 1364.3298 -0.243 -0.791 -0.561 129 185 216
-3777.9817 2985.1628 1357.2850 -0.194 -0.809 -0.554 128 177 219
-3833.5652 3041.3274 1372.9977 -0.060 -0.879 -0.473 135 179 219
-3764.6384 3010.4683 1339.4310 -0.310 -0.721 -0.620 140 170 191
-3089.0852 2542.0234 1070.7076 0.382 -0.808 0.448 190 172 162
-3027.2996 2549.9622 1027.6942 0.500 -0.711 0.494 94 66 49
-3020.1392 2551.4077 1022.5185 0.500 -0.711 0.494 87 58 41
-2925.0012 2543.1731 963.7134 -0.354 -0.682 -0.640 84 61 48
-2885.5857 2537.9141 940.0211 0.339 -0.935 0.106 76 55 44
-2834.0664 2593.4011 886.4136 0.110 -0.990 0.090 54 42 39
-2816.4707 2584.2202 878.3179 0.048 -0.980 0.194 64 53 53
-2831.2668 2674.2568 855.2410 0.999 -0.038 0.015 35 19 15
-2624.4536 2479.8789 791.4781 0.995 0.068 -0.073 38 21 5
-2873.0198 2840.8320 821.8863 -0.334 -0.791 -0.513 158 79 29
-2405.3418 2692.3579 572.0195 -0.472 -0.730 0.495 110 43 7
-2367.5432 2664.5654 557.5583 -0.493 -0.789 0.366 110 50 16
-2345.2341 2646.3650 549.6755 -0.486 -0.820 0.303 109 50 17
-2317.9114 2657.3547 527.9389 0.330 -0.149 -0.932 108 55 27
-2324.6077 2674.5999 526.0275 0.049 -0.217 -0.975 102 49 23
-2321.1877 2679.3645 522.0764 -0.065 -0.793 -0.605 96 44 19
-2212.1445 2818.8308 400.6173 0.019 -0.713 -0.701 181 92 45
-2193.5837 3451.0957 159.0207 0.604 -0.494 -0.626 200 173 174
-2186.9978 3452.9265 154.0783 0.670 -0.695 -0.260 208 182 183
-5094.6870 3071.1792 2168.6294 -0.061 -0.921 0.384 97 93 84
-4963.6943 3096.0486 2074.6306 -0.577 -0.736 -0.354 98 114 115
-4867.4165 3041.1577 2032.2494 -0.576 -0.736 -0.356 74 92 93
-4685.8813 3017.9905 1923.0178 0.546 -0.541 -0.640 29 64 87
-4615.4326 2996.3877 1885.2317 0.368 -0.878 0.306 29 73 101
-4583.5391 3019.1777 1856.2372 0.228 -0.211 -0.951 64 90 100
-4618.0850 3070.9153 1859.7490 0.272 -0.072 -0.960 134 132 121
-4632.3433 3090.2563 1861.9330 0.145 -0.126 -0.981 139 132 115
-4303.7827 2970.6550 1692.5842 0.571 0.017 -0.821 158 179 210
-3567.7883 2693.5205 1316.5983 -0.120 -0.985 -0.127 71 38 22
-3505.2739 2683.5369 1279.7148 0.487 -0.452 -0.747 67 32 14
-3496.2437 2700.8105 1267.5557 0.422 -0.371 -0.827 62 60 49
-3510.5308 2720.9990 1269.4492 0.128 -0.188 -0.974 170 191 180
-3523.1550 2739.8936 1270.7369 0.148 -0.139 -0.979 151 193 188
-3814.6863 3001.6218 1364.2048 -0.272 -0.855 -0.442 138 191 210
-3795.4131 3012.8757 1347.6025 -0.185 -0.723 -0.666 163 195 222
-3787.5640 3015.4143 1341.5874 -0.196 -0.757 -0.623 153 180 200
-3777.7991 3016.3125 1334.9291 -0.199 -0.758 -0.621 149 169 184
-3780.1067 3036.7712 1328.9578 0.315 -0.948 0.049 10 16 21
-3035.3792 2544.5950 1025.7992 0.389 -0.899 0.202 189 174 159
-3032.0774 2549.5466 1021.8514 0.307 -0.943 0.129 183 165 149
-3025.8350 2551.8306 1016.9708 0.304 -0.940 0.153 153 134 119
-3016.8188 2551.5762 1011.2186 0.251 -0.962 0.109 118 102 89
-3009.2395 2552.6172 1005.9250 0.267 -0.956 0.123 84 68 54
-2907.9148 2562.2915 936.7061 -0.216 -0.913 -0.346 95 53 32
-2895.1851 2558.2249 929.9379 -0.110 -0.912 -0.396 103 59 36
-2839.6370 2585.6445 883.9186 0.101 -0.969 0.224 51 37 32
-2811.0808 2565.7124 872.6810 -0.001 -0.945 0.328 49 38 33
-2800.7310 2563.6318 866.7307 -0.001 -0.945 0.328 51 38 36
-2786.9287 2558.0991 859.8021 -0.038 -0.965 0.259 46 38 40
-2775.0916 2554.4683 853.4536 -0.018 -0.997 0.079 39 36 39
-2763.4465 2550.9885 847.1743 -0.006 -1.000 0.023 36 36 38
-2922.7717 2887.7397 827.5510 0.966 -0.221 -0.133 173 82 38
-2668.5203 2635.7175 754.7089 0.449 -0.557 0.699 171 84 36
-2415.4968 2698.6992 567.6882 -0.458 -0.807 0.373 110 46 12
-2375.5254 2668.3889 552.8381 -0.477 -0.793 0.380 104 48 17
-2345.2827 2658.3425 536.8990 -0.060 -0.275 -0.959 98 42 10
-2376.4612 2723.6199 533.2858 -0.049 -0.094 -0.994 98 47 20
-2342.7246 2700.1191 519.9924 0.274 -0.930 0.246 94 45 22
-2184.9043 2755.8945 397.3213 0.272 -0.958 0.087 173 94 62
-2249.1318 2872.5850 396.3681 0.344 -0.318 -0.883 179 99 58
-2205.9478 3462.5173 153.0505 0.557 -0.276 -0.783 203 181 183
-2167.9878 4548.9287 -268.0923 -0.041 -0.126 -0.991 213 178 176
-5044.6396 3034.2837 2137.1360 -0.056 -0.985 0.161 91 88 80
-4806.5854 2925.0388 2023.1879 0.932 0.146 -0.332 109 110 101
-4772.2148 2920.1106 2002.7566 0.935 0.074 -0.347 125 132 122
-4787.2202 2938.7068 2005.6423 0.943 0.077 -0.325 123 125 115
-4976.0112 3099.3215 2068.8645 -0.563 -0.748 -0.352 59 82 88
-4871.6367 3048.2327 2020.0750 -0.577 -0.732 -0.362 34 57 61
-4655.2505 2947.6792 1916.9583 0.009 -0.944 0.330 18 67 83
-4731.4170 3026.2334 1937.4176 0.381 -0.074 -0.921 16 67 88
-4696.6509 3020.5269 1917.0157 0.346 -0.630 -0.696 17 69 91
-4693.4351 3027.3606 1912.4274 0.346 -0.630 -0.696 17 69 92
-4619.2446 2994.1873 1876.5948 0.363 -0.876 0.318 18 69 97
-4602.5996 2991.6130 1866.7688 0.375 -0.893 0.248 19 69 95
-4599.9082 3034.8308 1849.1693 0.238 -0.207 -0.949 56 74 79
-4601.6177 3045.1340 1846.4946 0.238 -0.207 -0.949 114 123 118
-4645.7793 3085.5117 1860.2535 0.143 -0.114 -0.983 134 134 120
-3608.2981 2705.0767 1328.5424 -0.082 -0.876 -0.475 66 52 41
-3578.4902 2697.4771 1312.0436 -0.138 -0.981 -0.137 71 40 22
-3510.4077 2683.0232 1273.2939 0.402 -0.839 0.366 65 33 14
-3527.9448 2739.0269 1264.0916 0.209 -0.290 -0.934 160 196 191
-3802.7224 2977.1970 1354.4938 0.003 -0.488 -0.873 147 192 197
-3858.6501 3033.1812 1370.1393 0.441 -0.893 -0.087 158 203 220
-3839.8804 3026.6426 1360.3934 0.239 -0.968 -0.072 164 199 231
-3808.8816 3028.1343 1339.7881 -0.161 -0.792 -0.589 161 185 203
-3794.8975 3034.7295 1328.3195 0.288 -0.955 0.066 42 53 63
-3787.2917 3037.4966 1322.3828 0.285 -0.955 0.084 7 13 19
-3772.0405 3033.6970 1313.9087 -0.078 -0.990 0.114 49 52 55
-3119.7083 2559.7932 1065.7076 0.002 -0.955 -0.298 181 167 156
-3064.9407 2526.9558 1042.3195 0.648 -0.612 0.454 181 167 154
-3056.9609 2527.6987 1036.8834 0.671 -0.598 0.438 183 169 158
-3045.6880 2525.4773 1030.4044 0.446 -0.725 0.525 185 173 161
-3040.2427 2544.2605 1019.9886 0.389 -0.903 0.184 189 175 163
-3056.3213 2566.7729 1022.1318 0.627 -0.577 0.524 191 177 165
-2995.6680 2559.3154 985.6221 0.643 -0.714 0.278 111 95 81
-2987.9158 2568.1804 977.3530 -0.297 -0.214 -0.930 73 52 39
-2988.6204 2576.8840 974.6152 -0.296 -0.203 -0.934 67 45 31
-3089.9182 2679.4651 1002.5195 -0.407 -0.274 -0.871 72 49 35
-3084.4475 2682.7278 997.7824 -0.409 -0.281 -0.868 74 52 36
-2906.3452 2555.9146 929.0732 -0.367 -0.878 -0.308 93 46 24
-2889.5310 2547.9541 921.1145 -0.236 -0.910 -0.340 103 52 27
-2788.7439 2563.0198 850.3714 -0.134 -0.859 -0.494 36 30 32
-2780.5356 2562.9976 845.0683 -0.137 -0.866 -0.482 31 30 34
-2799.0916 2606.1621 841.2362 -0.202 -0.627 0.753 34 17 12
-2616.9702 2486.1711 767.4232 0.247 -0.761 0.600 123 56 26
-3185.9226 3090.4487 913.8333 -0.400 -0.731 0.553 148 62 36
-2859.5317 2806.1907 806.9459 -0.349 -0.646 0.679 176 80 37
-2748.5530 3012.1396 659.5655 -0.175 -0.218 -0.960 162 82 40
-2717.7249 2985.8357 649.2699 -0.191 -0.163 -0.968 159 80 41
-2230.2144 2772.2727 412.1883 0.467 -0.696 -0.545 107 56 23
-2236.6018 2838.8982 391.8738 0.089 -0.882 -0.463 168 90 54
-2262.7170 2884.3926 392.0781 0.311 -0.323 -0.894 184 112 72
-2686.0986 3534.5332 427.4667 0.381 -0.914 -0.138 56 12 3
-2228.6726 3256.9407 233.3466 0.744 -0.643 -0.182 13 14 16
-4951.9082 3096.8718 2041.6605 -0.564 -0.768 -0.302 34 60 67
-4865.4204 3048.3440 2003.7061 -0.564 -0.768 -0.302 31 60 70
-4717.7866 3039.2234 1911.7253 0.706 -0.504 -0.497 12 73 90
-4651.1045 3002.3782 1882.2522 0.244 -0.691 0.680 13 67 88
-4619.4604 3007.4460 1859.9460 0.310 -0.801 0.513 23 60 81
-4594.4160 2999.0063 1846.8851 0.365 -0.316 -0.876 27 56 72
-4612.6123 3047.9316 1840.5891 0.196 -0.226 -0.954 116 122 116
-3637.2075 2682.4551 1345.4694 -0.019 -0.919 0.395 132 185 226
-3619.8396 2709.6462 1324.2224 -0.076 -0.878 -0.473 68 52 41
-3817.3999 2984.1970 1350.5339 0.003 -0.488 -0.873 133 177 183
-3862.7454 3031.2561 1362.4596 0.439 -0.896 -0.068 109 152 171
-3846.9512 3027.2290 1353.7450 0.479 -0.878 -0.000 115 149 181
-3835.4683 3026.7861 1346.4923 0.321 -0.937 -0.138 137 167 197
-3828.4084 3030.0530 1340.7279 0.321 -0.937 -0.138 141 168 191
-3821.3518 3033.3186 1334.9659 0.321 -0.937 -0.138 169 192 210
-3814.5154 3036.7671 1329.2787 0.238 -0.965 -0.110 113 130 144
-3801.8950 3035.2869 1321.6743 0.246 -0.968 0.049 21 32 42
-3793.2446 3037.1660 1315.3944 0.246 -0.968 0.049 7 13 18
-3783.6440 3038.2197 1308.8055 0.058 -0.998 -0.018 69 71 72
-3115.5535 2673.1892 1011.9916 -0.263 -0.161 -0.951 171 153 139
-3119.8774 2685.5342 1010.2302 -0.303 -0.174 -0.937 127 104 92
-3122.4526 2696.3074 1007.9194 -0.373 -0.241 -0.896 81 55 42
-3159.7593 2748.0164 1012.9382 -0.381 -0.272 -0.884 67 44 30
-2922.2878 2566.1553 926.6595 -0.299 -0.912 0.283 83 42 20
-2902.7490 2555.6555 917.9141 -0.235 -0.972 -0.030 91 48 23
-2881.1218 2543.0850 908.5839 -0.242 -0.880 -0.409 95 55 31
-2872.4375 2542.7957 903.0820 -0.232 -0.881 -0.412 96 57 34
-2849.7778 2537.0679 890.5608 -0.383 -0.846 -0.371 98 56 33
-2844.1738 2539.6731 885.9807 -0.366 -0.856 -0.365 73 38 15
-2854.1484 2557.3433 885.9041 -0.180 -0.957 -0.228 39 18 6
-2627.1555 2491.6633 763.5354 -0.427 -0.808 0.406 141 59 31
-2626.3062 2514.8442 754.4358 0.956 0.104 -0.273 169 70 44
-2499.9731 2751.4741 585.5580 0.196 -0.796 -0.573 141 65 29
-2451.5396 2730.1350 562.1503 0.708 -0.611 -0.353 110 47 18
-2414.8000 2695.0913 551.3502 0.319 -0.852 0.414 101 48 17
-2236.9287 2774.8008 407.0734 0.529 -0.642 -0.555 107 56 20
-1910.3533 5063.8130 -648.2166 -0.595 -0.366 -0.716 208 148 147
-5119.6460 3194.0312 2101.2622 -0.557 -0.785 -0.272 19 51 65
-5027.3491 3142.1523 2061.0063 -0.557 -0.782 -0.279 21 52 65
-4951.5142 3100.9370 2027.4076 -0.553 -0.688 -0.470 27 60 76
-4811.1934 3070.8181 1948.1268 -0.263 -0.963 0.053 1 77 88
-4783.2695 3060.9438 1933.7891 -0.268 -0.962 0.052 7 81 91
-4749.8110 3047.2036 1917.3174 -0.215 -0.962 0.167 4 79 88
-4736.5605 3047.2234 1908.7689 -0.210 -0.956 0.204 8 74 85
-4615.2827 2999.6936 1848.2196 0.372 -0.304 -0.877 16 42 59
-4613.7373 3025.6348 1837.6039 0.083 -0.262 -0.962 3 16 21
-4619.5552 3038.7737 1836.4819 0.082 -0.262 -0.961 48 57 55
-4627.5801 3053.5149 1836.1882 0.196 -0.226 -0.954 125 127 118
-4326.1709 2893.1106 1701.3845 0.295 -0.392 -0.871 145 135 124
-4298.7124 2961.0471 1658.4927 0.427 -0.904 -0.024 141 182 220
-3651.0156 2688.7498 1341.9684 -0.018 -0.922 0.386 134 187 228
-3624.6533 2717.0591 1314.4777 -0.183 -0.951 -0.251 71 42 25
-3602.5913 2707.5269 1303.7915 -0.191 -0.977 -0.097 71 38 21
-3865.8328 3028.4941 1354.4514 0.427 -0.901 -0.076 45 84 105
-3847.9758 3022.7444 1345.0732 0.479 -0.878 0.020 31 60 93
-3840.7817 3025.9023 1339.2650 0.348 -0.930 -0.120 57 83 115
-3835.3525 3030.5432 1334.0443 0.425 -0.905 -0.023 140 167 190
-3828.4424 3033.9363 1328.3319 0.425 -0.905 -0.023 167 191 209
-3819.2036 3035.3516 1321.8518 0.305 -0.949 -0.085 89 106 120
-3806.4419 3033.7571 1314.2170 0.246 -0.968 0.049 16 27 35
-3798.4543 3036.2017 1308.1619 0.253 -0.967 0.037 12 16 21
-3788.3953 3046.1384 1297.9930 0.056 -0.982 -0.180 171 169 164
-3777.4971 3046.0681 1290.9941 0.044 -0.987 -0.153 174 167 160
-3757.4587 3038.0916 1281.0358 -0.054 -0.982 -0.182 177 166 156
-3055.0317 2564.0532 1004.0436 0.906 -0.359 0.222 184 170 157
-3043.8638 2561.9004 997.6432 0.674 -0.715 0.186 180 166 153
-3062.8159 2587.1555 1000.4943 0.431 -0.749 0.503 184 170 157
-3157.7415 2707.0732 1017.2138 -0.298 -0.168 -0.940 202 183 169
-3164.5161 2721.7668 1016.1318 -0.300 -0.173 -0.938 182 158 146
-3174.9880 2739.9534 1016.1380 -0.300 -0.173 -0.938 100 74 61
-3201.0977 2772.7629 1020.8013 -0.306 -0.185 -0.934 61 35 22
-3136.0940 2729.2832 995.0240 -0.463 -0.771 0.437 65 39 26
-2923.6682 2562.5828 919.9133 -0.264 -0.907 0.329 76 42 24
-2907.9785 2555.7495 912.3337 -0.063 -0.986 0.153 79 44 24
-2889.8733 2546.5593 904.0713 -0.249 -0.969 -0.009 80 47 28
-2876.6721 2541.9766 897.2613 -0.292 -0.953 0.083 81 49 32
-2875.3508 2548.7188 893.9094 -0.113 -0.863 0.493 89 53 35
-2867.0090 2548.7427 888.5234 -0.224 -0.822 0.524 83 47 27
-2842.3982 2541.0808 875.5008 -0.263 -0.816 0.515 29 9 1
-2760.5305 2581.8789 807.6008 0.219 -0.686 0.693 89 42 21
-2744.3699 2573.7458 800.1998 -0.062 -0.798 0.599 115 56 26
-2492.8242 2746.1802 574.1127 0.684 -0.626 -0.375 137 61 25
-2478.6636 2747.5237 564.4868 0.820 -0.285 -0.495 123 51 14
-2470.9099 2756.4827 556.1666 0.487 -0.852 -0.192 101 48 18
-2686.8706 3507.0237 417.0530 0.210 -0.971 -0.115 46 9 3
-2229.3640 3241.5615 220.5888 -0.141 -0.594 -0.792 13 14 16
-5007.6362 2996.4927 2089.9634 0.329 -0.285 -0.901 70 66 57
-5014.2764 3009.6936 2089.3145 -0.042 -0.420 -0.907 69 66 62
-4723.3042 3033.2595 1893.3303 -0.363 -0.918 0.160 2 66 81
-4664.7793 3011.1052 1863.9362 -0.451 -0.890 0.065 14 52 70
-4622.4351 2999.8113 1840.9036 0.199 -0.281 -0.939 2 24 37
-4626.9497 3011.9224 1839.2935 0.019 -0.334 -0.942 1 15 22
-4639.8628 3048.0781 1834.1237 0.193 -0.223 -0.955 58 62 54
-4335.9634 2895.3655 1695.5328 0.342 -0.378 -0.860 143 135 121
-4321.9155 2946.5530 1667.4143 0.767 -0.059 -0.639 156 170 192
-4304.1025 2960.0994 1650.9042 0.260 -0.761 -0.594 141 180 218
-3644.2061 2711.5066 1319.0200 0.449 -0.439 -0.778 71 71 72
-3636.3340 2721.7241 1310.1467 -0.096 -0.983 -0.155 72 43 25
-3611.7039 2710.1565 1298.6127 -0.050 -0.992 -0.112 72 39 20
-3864.1719 3021.7781 1344.8789 0.253 -0.958 -0.131 15 44 67
-3850.1331 3019.2212 1336.8000 0.443 -0.896 -0.040 19 40 77
-3843.4324 3022.7854 1331.1605 0.443 -0.896 -0.040 41 62 97
-3839.5842 3028.7480 1326.4622 0.425 -0.905 -0.023 153 175 202
-3835.8247 3034.7971 1321.7885 0.529 -0.839 0.126 155 178 196
-3823.4451 3033.5615 1314.2844 0.319 -0.944 -0.081 54 72 86
-3809.3147 3030.8103 1306.2191 0.172 -0.982 -0.072 17 29 39
-3798.6550 3058.7974 1288.9285 0.202 -0.821 -0.534 167 161 153
-3065.3188 2584.6216 993.8855 0.832 -0.467 0.301 185 171 158
-3044.7283 2573.8940 984.6373 0.428 -0.709 0.560 185 171 158
-3212.1577 2752.0886 1025.9299 -0.330 -0.173 -0.928 183 164 150
-3198.5896 2748.1243 1018.6785 -0.349 -0.210 -0.913 186 163 150
-3219.1890 2775.7339 1021.6395 -0.315 -0.186 -0.931 110 84 71
-3189.7075 2765.5894 1006.4538 -0.371 -0.929 -0.004 85 62 48
-2928.5164 2562.2964 914.1944 -0.263 -0.913 0.313 108 77 65
-2912.4585 2555.1323 906.5339 -0.063 -0.986 0.153 95 64 52
-2897.9790 2549.4070 899.3525 -0.119 -0.986 0.112 81 51 42
-2880.8508 2549.1030 888.4464 -0.079 -0.797 0.599 67 35 24
-2867.7913 2544.6138 881.7177 -0.224 -0.822 0.524 67 32 22
-2853.5859 2538.9788 874.6792 -0.242 -0.814 0.529 63 32 20
-2837.0693 2531.0645 867.0032 -0.234 -0.818 0.526 38 19 13
-2831.7344 2533.8938 862.5162 -0.035 -0.787 0.616 21 10 10
-2796.9080 2580.5149 822.7315 -0.093 -0.877 -0.471 57 29 19
-2785.8499 2577.6628 816.6804 -0.033 -0.920 -0.391 80 47 31
-2770.6060 2586.9517 803.4105 0.257 -0.643 0.721 110 61 35
-2755.6238 2580.0454 796.3460 -0.047 -0.782 0.622 129 70 37
-2769.8333 3027.6533 638.6353 0.691 -0.460 0.558 158 80 42
-2624.3237 2886.1267 597.7766 0.479 -0.790 -0.382 141 65 29
-2619.5742 2890.0134 593.2721 0.500 -0.788 -0.359 139 63 27
-2492.3264 2748.7502 564.0639 0.635 -0.277 -0.721 133 57 21
-2493.6333 2777.6968 554.1143 0.354 -0.782 -0.513 101 48 18
-2239.5098 3249.0454 214.9192 -0.269 -0.543 -0.795 13 14 16
-2305.1694 3629.4614 115.3565 0.255 -0.814 0.522 207 172 182
-4860.0103 2897.6892 2019.8546 0.412 -0.880 -0.235 67 61 49
-5029.7866 3023.9224 2081.5735 -0.041 -0.414 -0.909 55 60 59
-4775.0127 2894.9331 1966.3080 0.960 0.124 -0.251 34 56 65
-4332.1274 2703.4771 1753.6564 -0.559 -0.806 -0.192 14 65 85
-4242.8555 2667.5613 1709.7899 0.449 -0.880 -0.155 9 65 85
-4639.1792 3006.5608 1837.2578 0.198 -0.284 -0.938 2 22 29
-4645.0825 3019.6431 1836.1465 0.044 -0.307 -0.951 6 20 22
-4639.7388 3024.9526 1830.7257 0.368 -0.295 -0.882 8 17 15
-4646.6113 3038.7878 1829.9547 0.372 -0.275 -0.887 27 29 23
-4647.1919 3048.2759 1826.7722 0.372 -0.275 -0.887 82 82 71
-4346.6655 2898.2610 1690.0060 0.342 -0.378 -0.860 144 137 119
-3647.7500 2709.6365 1311.8885 0.754 -0.495 -0.433 69 72 74
-3652.3748 2721.5879 1310.3800 0.734 -0.463 -0.497 63 48 38
-3646.3394 2725.0281 1305.2156 -0.068 -0.988 -0.138 71 42 25
-3619.3618 2711.6052 1292.9219 0.521 -0.845 0.119 72 39 20
-3470.0444 2639.2925 1224.1364 0.399 -0.764 0.508 71 32 21
-3854.3865 3017.4597 1329.2344 0.443 -0.896 -0.040 68 82 123
-3850.3618 3023.2627 1324.4757 0.507 -0.855 0.112 68 84 120
-3841.1006 3024.6763 1317.9991 0.452 -0.892 -0.027 164 183 210
-3838.6460 3031.8105 1313.7496 0.529 -0.839 0.126 146 167 186
-3827.7932 3031.8665 1306.7598 0.297 -0.952 -0.080 40 57 71
-3815.0732 3030.3176 1299.1722 0.172 -0.982 -0.072 12 23 33
-3811.1526 3064.0593 1284.0117 0.248 -0.769 -0.589 168 162 155
-3805.3528 3068.4158 1278.6549 0.188 -0.783 -0.593 172 162 153
-3294.4490 2813.8262 1045.9830 -0.370 -0.198 -0.908 187 173 157
-3210.8574 2745.7761 1017.8049 -0.392 -0.250 -0.885 183 165 151
-3244.0630 2802.2117 1017.9806 -0.200 -0.160 -0.967 88 65 51
-3198.0974 2768.2109 1001.2049 -0.324 -0.945 -0.053 124 102 88
-2933.0798 2561.7417 908.3932 -0.257 -0.914 0.313 150 123 116
-2916.9373 2554.5154 900.7354 -0.063 -0.986 0.153 142 116 110
-2904.7212 2550.9509 894.2266 -0.112 -0.988 0.107 134 108 102
-2884.1316 2547.3679 882.3479 -0.089 -0.800 0.593 101 74 67
-2868.2517 2540.1907 874.8403 -0.248 -0.833 0.494 87 59 51
-2847.5437 2528.3210 865.9906 -0.255 -0.827 0.501 70 45 38
-2832.2112 2521.5354 858.6877 -0.245 -0.826 0.508 32 16 14
-2818.6233 2516.3750 851.8962 -0.003 -0.769 0.639 13 4 5
-2781.0151 2584.1343 802.3572 0.553 -0.531 0.643 112 66 35
-2769.4731 2580.7366 796.2189 -0.033 -0.809 0.587 121 69 38
-2755.0994 2574.4448 789.3466 -0.047 -0.782 0.622 135 80 42
-2626.4580 2891.9551 587.7705 0.374 -0.878 0.298 140 64 28
-2728.8296 3488.4951 429.9818 0.520 -0.783 0.342 191 137 111
-2250.3154 3280.9885 200.4661 0.001 -0.493 -0.870 15 16 18
-2301.5925 3600.6895 113.6003 0.498 -0.805 -0.322 217 186 194
-2297.3562 3620.2649 103.5450 0.283 -0.868 0.409 208 171 180
-4855.6030 2890.3726 2007.8375 0.524 -0.770 -0.365 59 54 47
-4896.1143 2933.6194 2017.5131 0.645 -0.701 -0.304 45 52 54
-4967.2969 3005.9446 2035.8940 0.378 -0.344 -0.859 25 53 64
-4968.1821 3024.4739 2029.4825 0.537 -0.538 -0.650 28 56 67
-4943.8452 3026.6411 2013.0686 -0.442 -0.887 0.133 28 55 67
-4484.6348 2784.5596 1809.9357 -0.008 -0.887 0.461 15 62 89
-4864.3228 3101.3467 1933.9656 -0.421 -0.890 0.176 7 45 72
-4706.1377 3020.8291 1862.9099 -0.385 -0.917 0.099 0 29 44
-4642.4868 3021.9866 1821.6801 0.825 -0.121 -0.552 18 22 18
-4648.8833 3035.4685 1820.7018 0.821 -0.138 -0.555 48 49 40
-4650.6655 3045.7798 1817.9604 0.820 -0.138 -0.556 105 103 91
-4496.7188 2982.5093 1743.1254 0.817 -0.436 0.378 138 130 117
-4357.3901 2901.1626 1684.4674 0.342 -0.378 -0.860 143 136 118
-4392.1543 3032.9048 1657.1290 0.364 -0.817 -0.448 126 179 221
-4376.2822 3030.2717 1647.9481 0.761 -0.635 -0.132 126 181 220
-3653.8940 2726.3560 1299.4329 -0.068 -0.988 -0.138 71 43 26
-3624.8240 2711.2834 1286.4785 0.473 -0.874 0.113 71 39 20
-3508.5303 2666.1255 1228.9536 -0.395 -0.692 -0.604 70 31 20
-3510.8652 2684.3601 1223.5823 -0.402 -0.632 -0.663 71 37 32
-3863.2024 3019.5083 1323.1674 0.149 -0.983 -0.103 114 129 167
-3853.3518 3020.4421 1316.5026 0.507 -0.855 0.112 124 140 173
-3848.4976 3025.5493 1311.4678 0.495 -0.863 0.098 173 190 216
-3841.5391 3028.8933 1305.7487 0.495 -0.863 0.098 137 154 172
-3828.1875 3026.8403 1297.9648 0.193 -0.977 -0.095 26 40 53
-3820.8315 3029.8254 1292.1261 0.172 -0.982 -0.072 9 19 27
-3816.4587 3053.8472 1280.2760 0.522 -0.624 -0.582 166 162 159
-3814.4839 3070.7852 1272.6309 0.188 -0.783 -0.593 172 162 152
-3398.9385 2904.1384 1069.0717 -0.370 -0.192 -0.909 187 173 157
-3298.8582 2821.3572 1036.1083 -0.391 -0.250 -0.886 191 173 159
-3281.1631 2831.3005 1021.0223 -0.184 -0.168 -0.969 148 124 110
-3217.6973 2781.2190 999.2093 -0.339 -0.937 -0.078 149 126 112
-3027.5515 2629.3364 934.5488 -0.403 -0.762 0.506 149 128 114
-2920.2002 2552.7520 894.5916 -0.112 -0.988 0.107 144 121 116
-2909.8113 2550.9243 888.6215 -0.112 -0.988 0.107 142 120 113
-2883.5818 2541.9912 875.1754 -0.089 -0.800 0.593 148 126 119
-2868.5457 2535.6230 867.9372 -0.251 -0.833 0.493 134 113 106
-2848.4202 2524.3257 859.2938 -0.262 -0.823 0.504 124 104 97
-2832.4697 2516.9531 851.8478 -0.248 -0.826 0.506 103 90 86
-2817.4448 2510.4109 844.6824 0.003 -0.770 0.638 83 73 71
-2765.5498 2571.7429 788.3228 0.673 -0.486 0.558 112 60 28
-2720.8281 2567.3276 761.3235 0.473 -0.730 0.493 146 80 45
-2639.0967 2891.1687 586.9713 0.013 -0.575 0.818 142 66 30
-2729.9380 3481.9768 422.6721 0.390 -0.903 -0.179 210 163 135
-2718.5110 3490.1851 412.2570 0.313 -0.877 -0.365 220 181 164
-2699.1191 3523.4192 387.3114 0.364 -0.879 -0.307 51 20 12
-2343.0454 3204.9805 279.0381 0.377 -0.855 0.356 8 6 1
-2308.9868 3603.4580 107.1290 0.437 -0.888 0.143 222 190 199
-2517.8787 5153.4531 -342.7758 0.249 -0.309 -0.918 216 181 179
-4148.7285 2436.4038 1715.6100 -0.122 -0.516 -0.848 43 51 55
-5104.7549 3089.8877 2079.7700 0.768 -0.626 0.131 19 51 65
-4429.2085 2735.0774 1781.9581 -0.044 -0.753 -0.657 14 61 84
-4366.2070 2725.7966 1745.1709 -0.506 -0.617 -0.602 25 48 68
-4262.3442 2664.1421 1702.0728 0.510 -0.717 0.475 25 48 65
-4405.2134 2912.9587 1699.2687 0.835 -0.507 -0.214 139 130 119
-4328.6294 2893.2500 1657.7411 0.882 -0.188 -0.433 144 138 131
-4349.9072 2987.8679 1635.5325 0.709 -0.646 -0.281 126 179 220
-4353.1323 2999.1953 1633.3075 0.716 -0.642 -0.276 123 177 219
-4372.0815 3022.1592 1636.7355 0.772 -0.628 -0.096 120 175 214
-3660.6926 2727.0732 1293.3861 -0.086 -0.988 -0.131 68 42 27
