ply
format ascii 1.0
element vertex 797
property float x
property float y
property float z
property float nx
property float ny
property float nz
property uchar diffuse_red
property uchar diffuse_green
property uchar diffuse_blue
end_header
-1894.1252 6221.9282 709.9776 0.975 0.110 -0.193 66 55 49
-1944.1406 6408.3159 723.1012 0.917 0.184 -0.355 62 51 45
-1748.4094 6028.5366 641.0416 0.638 0.218 -0.739 56 49 43
-1672.0381 6105.3784 589.2634 -0.049 -0.639 -0.768 65 62 57
-1670.3574 6128.1421 586.2736 -0.050 -0.671 -0.740 64 61 56
-1759.5026 6563.8857 600.5730 0.404 -0.858 0.316 66 64 59
-1756.6393 6584.7969 597.0485 -0.449 -0.886 -0.116 63 58 51
-1729.7511 6550.1118 584.2402 -0.180 -0.963 0.202 42 24 17
-4307.3774 3162.3752 2388.4587 0.787 -0.574 -0.227 208 205 200
-4952.9131 4247.0176 2670.9414 0.962 0.038 -0.270 219 211 208
-4765.9307 4319.6226 2554.5754 -0.580 -0.684 -0.443 90 85 82
-4640.8862 4259.2490 2486.4844 0.175 -0.557 -0.812 103 95 92
-3808.7102 3633.8313 2053.3069 -0.412 -0.130 -0.902 52 47 34
-4495.7002 5081.4404 2327.7332 0.634 -0.123 -0.763 117 104 94
-3576.6204 4814.8853 1811.4359 0.636 -0.141 -0.759 124 93 72
-3829.3481 5640.7539 1886.1936 0.947 -0.258 -0.192 68 37 16
-3841.1191 5678.5508 1889.7351 0.989 0.110 -0.099 97 66 45
-3843.1470 5702.5757 1888.7811 0.988 0.085 -0.132 108 77 56
-3820.2168 5754.5103 1870.6677 0.364 -0.844 0.394 107 77 53
-3784.5979 5766.5400 1848.6616 0.858 -0.470 -0.208 64 36 12
-3774.0586 5772.4297 1841.9421 0.703 -0.639 -0.313 98 71 47
-3776.2852 5797.2471 1841.0339 0.600 -0.750 -0.279 67 42 16
-3709.9919 5762.7515 1805.1572 0.112 -0.830 -0.547 103 82 55
-3699.5708 5768.5312 1798.5170 0.112 -0.830 -0.547 119 95 69
-3675.9219 5754.2549 1785.8947 0.654 -0.317 -0.687 123 99 73
-3592.1707 6156.1162 1700.7866 0.284 -0.649 -0.706 97 70 43
-3451.0239 5966.5996 1634.7667 0.808 -0.449 0.381 96 70 45
-3442.1033 6087.8232 1618.6978 0.724 -0.493 -0.483 91 67 41
-3247.5613 5999.4780 1512.2640 0.926 0.378 -0.018 73 61 44
-3213.7473 6030.1035 1489.6578 0.482 -0.625 0.614 47 34 17
-3200.5652 6168.8296 1469.5215 0.215 -0.685 -0.696 19 19 11
-3229.7024 6417.2720 1464.4554 0.195 0.204 -0.959 57 43 30
-3252.6118 6486.2930 1471.7539 0.100 -0.563 -0.820 58 46 30
-3255.1755 6516.3320 1470.5776 -0.199 -0.664 -0.721 58 46 30
-3188.5764 6436.7163 1438.5508 0.539 -0.688 0.486 42 33 23
-3218.8948 6521.1294 1448.8285 0.189 -0.909 0.371 37 30 20
-3179.4385 6468.6968 1430.3246 0.179 -0.885 0.430 32 26 14
-2998.6699 6208.0615 1347.3723 0.911 -0.310 0.273 33 26 16
-2964.2397 6163.0308 1331.1610 0.861 -0.398 0.316 31 27 18
-3044.4531 6348.8120 1361.7067 0.603 -0.721 0.342 34 30 21
-3025.1887 6459.2871 1340.5190 0.531 0.200 -0.824 20 17 10
-2707.9839 6230.1821 1174.5729 0.341 -0.868 -0.362 22 17 14
-2651.2209 6128.4180 1150.3046 0.323 -0.906 0.275 22 17 14
-2716.3782 6323.9292 1171.1332 -0.043 -0.996 0.084 28 20 18
-2710.6860 6336.3706 1166.6770 -0.019 -0.996 0.093 35 27 25
-2677.9409 6287.5117 1151.7977 0.063 -0.930 0.363 33 28 25
-2598.3408 6180.8276 1114.5483 -0.362 -0.929 0.077 30 26 23
-2224.1472 6245.0840 888.9119 0.594 -0.800 -0.083 21 18 13
-2215.7576 6248.7295 883.6561 0.611 -0.790 -0.050 22 18 15
-2216.4229 6277.0220 881.5203 0.628 -0.773 -0.090 26 22 19
-2112.6548 6201.6426 827.2724 0.691 -0.297 0.659 39 31 25
-1942.5886 5795.5527 763.6003 -0.296 -0.918 -0.264 75 48 29
-1923.3892 5765.3701 755.0134 -0.292 -0.925 -0.245 84 54 32
-1904.7158 5736.3696 746.6299 -0.289 -0.924 -0.250 94 60 37
-1902.5282 5754.8325 743.6954 -0.336 -0.900 -0.276 102 65 43
-1922.3783 5837.5566 747.9722 0.443 -0.791 0.423 107 67 45
-1931.4200 5889.3379 748.6610 0.690 0.072 -0.720 112 71 49
-1926.9974 5927.6665 742.6388 0.520 0.202 -0.830 128 92 69
-1897.0901 5864.8936 730.6699 0.925 0.216 -0.313 136 99 75
-1909.2314 5926.6738 732.2872 0.924 0.220 -0.314 132 94 75
-1915.0668 5970.0791 731.8397 0.878 0.207 -0.431 96 71 58
-1924.8721 6025.7285 732.6317 0.883 0.215 -0.416 65 53 44
-1916.4496 6026.8057 727.5860 0.954 0.070 -0.291 64 51 43
-1917.4860 6056.4907 725.5439 0.905 -0.029 -0.424 65 52 43
-1938.1602 6146.1621 729.6844 0.837 -0.128 -0.532 65 52 43
-1850.7927 6287.8198 665.6907 0.487 -0.857 0.168 56 49 43
-1776.9484 6130.0820 636.3834 0.486 0.164 -0.858 58 49 44
-1586.9059 5654.9463 567.1387 0.060 0.058 -0.997 48 40 37
-1607.9406 5752.9771 570.7446 0.064 0.049 -0.997 46 38 35
-1635.4915 5874.2417 576.1047 -0.026 0.002 -1.000 47 39 36
-1754.6342 6342.0068 604.3429 0.064 -0.996 -0.069 51 46 42
-1640.3965 5973.8149 570.0941 0.960 -0.096 -0.262 51 48 43
-1644.9282 6017.6348 568.8436 0.991 -0.004 -0.133 51 48 43
-1675.1748 6210.3052 569.4105 0.974 0.187 -0.128 34 31 26
-1717.9646 6392.2979 578.3022 0.456 -0.862 -0.220 24 23 18
-1761.6731 6579.2690 587.2891 -0.441 -0.892 -0.099 22 16 11
-1729.6294 6526.0591 573.2107 -0.375 -0.925 -0.058 37 13 10
-5066.5508 3554.1570 2784.4507 0.828 -0.133 -0.545 204 201 194
-4309.4189 3159.2534 2376.8655 0.855 -0.406 -0.322 207 204 199
-4951.8564 4239.5908 2655.0310 0.969 0.004 -0.249 218 210 207
-3066.5054 3123.5676 1652.1421 0.865 -0.441 0.240 214 183 172
-3876.6841 5654.7412 1896.8024 -0.243 -0.847 -0.473 96 65 44
-3870.3274 5666.7319 1891.9904 -0.239 -0.847 -0.474 74 43 22
-3904.2847 5778.7397 1901.7075 -0.141 -0.648 -0.748 97 66 45
-3891.3125 5781.5659 1893.8531 -0.113 -0.655 -0.747 114 84 60
-3877.2917 5782.8228 1885.5272 -0.152 -0.699 -0.699 132 102 78
-3853.4868 5769.8369 1872.7642 -0.144 -0.715 -0.684 146 116 92
-3822.9805 5746.9292 1856.9771 0.364 -0.844 0.394 150 120 96
-3815.7507 5757.7471 1851.7603 0.560 -0.707 0.432 162 132 108
-3784.1621 5754.2041 1833.5808 1.000 0.017 0.026 119 91 67
-3774.4351 5761.2549 1827.2435 1.000 -0.000 0.008 119 92 67
-3785.3137 5798.8228 1830.2035 0.447 -0.873 0.193 78 53 27
-3721.1384 5767.6562 1795.4468 0.112 -0.830 -0.547 121 97 71
-3695.5750 5772.1069 1780.0703 0.664 -0.268 -0.698 100 76 50
-3692.7012 5789.2676 1776.8289 0.675 -0.249 -0.695 112 88 62
-3791.9077 6096.7778 1807.0084 0.769 -0.207 0.604 112 86 59
-3605.9417 6165.5859 1691.8412 0.281 -0.662 -0.695 97 70 43
-3214.9910 5927.9077 1484.4481 0.913 0.408 -0.019 72 60 42
-3242.1777 6021.8823 1491.8374 0.512 -0.619 0.596 72 61 41
-3212.0300 5990.4551 1477.0341 0.502 -0.633 0.588 70 58 42
-3200.3081 5992.0532 1470.0234 0.505 -0.631 0.589 53 40 24
-3020.1260 5886.0586 1374.1176 -0.157 -0.914 -0.375 27 23 13
-3112.0991 6082.3745 1410.1581 0.657 0.248 -0.712 47 38 27
-3220.4377 6433.6909 1441.7083 0.028 -0.663 -0.748 42 30 16
-2932.5857 6061.1572 1306.9453 0.620 -0.560 0.550 42 35 25
-2916.0417 6051.5239 1298.1304 0.644 -0.538 0.544 39 35 26
-3005.9807 6378.8623 1321.0815 0.609 -0.590 -0.530 25 22 15
-2599.5159 6167.2803 1102.2322 -0.042 -0.878 0.477 37 36 32
-2490.7222 5989.8267 1054.6270 -0.455 -0.875 -0.162 34 33 29
-2310.8989 5778.9551 968.4553 -0.300 -0.860 -0.413 14 13 9
-2318.0554 5843.3955 966.7949 0.277 -0.934 0.225 27 26 22
-2160.0625 6262.7026 836.1826 0.660 0.054 -0.749 25 21 18
-2123.2253 6186.2451 821.5505 0.390 -0.907 0.160 25 22 18
-2074.2932 6075.0010 802.9935 0.592 -0.404 0.697 28 21 13
-1987.5085 5880.8149 769.7983 -0.208 -0.950 0.232 62 45 27
-1926.0739 5830.3604 738.3983 0.443 -0.791 0.423 107 71 46
-1947.1543 5917.0684 742.8710 0.691 0.068 -0.720 114 77 52
-1981.1653 6095.0610 746.6276 0.600 0.203 -0.774 134 98 73
-1933.0101 6031.1792 724.2245 0.860 0.225 -0.458 59 48 36
-1920.9471 6021.3540 718.0516 0.944 0.087 -0.320 59 47 38
-1860.1183 5889.8320 694.3680 0.943 0.213 -0.257 62 48 39
-1587.1838 5559.5879 564.5020 0.008 0.039 -0.999 44 34 32
-1752.0104 6552.2026 570.9006 -0.449 -0.890 -0.080 33 13 9
-1735.3723 1068.7531 1054.2341 0.874 -0.484 -0.036 193 190 183
-5073.7593 3553.9224 2773.5581 0.828 -0.133 -0.545 204 201 194
-4413.5366 3452.4768 2397.5305 0.259 -0.687 -0.679 213 209 200
-4630.8735 3833.2493 2489.2493 0.090 -0.152 -0.984 216 208 205
-4823.5293 4372.7358 2551.9114 -0.558 -0.696 -0.452 40 35 32
-2400.3735 2379.7400 1321.4052 0.784 -0.509 0.354 178 139 134
-3120.8979 3066.3589 1678.6188 0.968 -0.245 -0.052 183 134 132
-3117.0735 3074.2485 1675.6581 0.826 -0.541 0.159 182 132 130
-3052.2886 3104.8279 1635.0186 0.904 -0.235 -0.357 248 215 206
-3965.0608 5704.2686 1927.8907 0.071 -0.983 -0.172 107 76 55
-3894.9451 5711.3896 1886.3048 -0.134 -0.598 -0.791 142 111 90
-3898.6223 5737.8174 1886.0120 0.049 -0.550 -0.834 150 119 98
-3893.7842 5752.1968 1881.8605 0.051 -0.549 -0.834 149 118 97
-3885.6392 5761.8633 1876.2137 0.054 -0.555 -0.830 145 115 91
-3877.7563 5771.9033 1870.6855 0.045 -0.554 -0.832 154 124 100
-3821.1255 5711.4668 1843.2069 0.410 -0.809 0.420 164 134 110
-3813.7185 5721.9277 1837.9177 0.399 -0.812 0.426 166 136 112
-3783.5527 5741.6646 1818.4872 1.000 0.017 0.026 159 131 107
-3778.8745 5756.1133 1814.4229 1.000 0.027 -0.000 155 127 103
-3794.3467 5800.3984 1819.3666 0.318 -0.880 0.353 88 63 39
-3780.9280 5802.0508 1811.3811 0.318 -0.880 0.353 57 33 10
-3726.7534 5785.7183 1781.2654 0.433 -0.876 0.209 90 66 40
-3701.4216 6169.6348 1731.0413 0.823 0.505 -0.261 99 69 41
-3477.8625 6007.9224 1615.4698 0.649 -0.033 -0.760 80 56 30
-3445.2539 6112.3232 1586.7986 0.895 -0.403 -0.189 95 69 44
-3363.8699 6109.4365 1539.5587 -0.562 -0.562 -0.607 87 62 35
-3206.2568 5966.4971 1460.7493 0.437 -0.723 0.535 70 58 42
-3150.9453 6071.4023 1418.7791 0.983 -0.183 0.002 12 13 5
-2971.8435 6054.1958 1315.8202 0.286 -0.722 0.631 34 27 17
-3024.8853 6377.0693 1316.9796 0.460 -0.311 -0.831 31 28 21
-3068.5889 6491.4111 1331.9364 0.453 -0.225 -0.862 25 22 15
-3078.2605 6536.6348 1333.4077 0.443 -0.264 -0.857 18 15 8
-3129.0332 6666.9604 1351.0155 0.752 -0.114 -0.649 12 11 6
-2841.4138 6518.8247 1196.7971 -0.042 -0.998 0.038 12 8 5
-2729.2705 6320.0337 1149.6849 -0.074 -0.964 0.257 16 11 8
-2537.3757 6057.5200 1061.9015 0.020 -0.981 -0.195 24 23 19
-2345.2874 5941.4526 960.4872 0.072 -0.996 -0.049 15 14 10
-2019.7618 5878.6826 776.2623 0.021 -0.859 0.512 26 21 18
-2014.4010 5888.7217 772.2063 0.038 -0.881 0.472 31 20 11
-2002.6472 5880.7622 766.0800 -0.205 -0.950 0.237 41 25 10
-1900.2854 5688.7749 724.0496 0.306 -0.218 -0.927 88 55 31
-1895.0532 5698.1904 720.1263 0.292 -0.109 -0.950 100 64 39
-1927.2853 5816.0215 728.0648 0.766 -0.063 -0.640 107 70 44
-2011.9200 6140.0342 747.5609 0.686 0.207 -0.697 119 81 57
-1966.7866 6033.8115 731.0199 0.549 -0.633 0.545 123 86 59
-1963.3607 6049.9497 727.5305 0.541 -0.630 0.557 107 68 47
-1924.5520 5961.0225 713.0851 0.557 -0.159 -0.816 75 48 34
-1935.3440 6019.2715 714.0081 0.860 0.225 -0.458 57 41 29
-1919.7683 5998.9185 706.7947 0.936 0.074 -0.344 58 40 30
-1874.0322 6045.0171 675.8420 0.152 -0.987 -0.043 62 50 44
-1720.4808 5930.4580 596.7839 0.213 -0.814 0.541 40 31 26
-1671.7340 5795.9224 580.7471 -0.086 -0.732 -0.676 34 24 22
-1683.9893 5917.0537 576.7198 0.065 0.059 -0.996 30 22 19
-761.2674 450.0738 540.6954 0.656 0.220 -0.723 108 93 74
-5074.8706 3549.6152 2759.5027 0.824 -0.389 0.411 203 200 193
-4274.4526 3063.8755 2339.4026 0.867 -0.216 -0.449 211 208 203
-4502.1436 3499.5352 2431.0034 0.265 -0.677 -0.687 213 209 200
-4245.7295 3481.9521 2283.4778 -0.099 -0.880 -0.464 218 210 207
-4353.1069 3621.7029 2332.8391 0.508 0.059 -0.859 216 208 205
-4490.0312 4153.8301 2362.5859 -0.206 -0.534 -0.820 38 30 27
-3121.4194 3073.3799 1667.7085 0.963 -0.268 -0.014 176 122 121
-3079.0833 3079.4539 1642.5088 0.448 -0.443 -0.776 209 170 160
-3060.7556 3107.9272 1629.1755 0.819 -0.251 -0.516 210 175 166
-4487.1758 5045.6758 2277.2725 0.891 0.140 -0.433 123 110 100
-4476.4453 5204.9946 2256.0864 0.561 0.198 -0.804 120 92 78
-3364.0273 4351.2754 1688.9885 -0.289 -0.874 -0.391 152 120 105
-3970.5667 5700.7124 1915.2834 0.075 -0.992 -0.103 85 54 33
-3767.8154 5728.2041 1794.7499 0.999 0.039 -0.016 149 121 97
-3791.6919 5784.7163 1803.3398 0.372 -0.825 0.426 136 110 87
-3778.4641 5786.6099 1795.4667 0.372 -0.825 0.426 106 80 57
-3763.9602 5786.5430 1787.0349 0.364 -0.845 0.391 57 33 9
-3749.9255 5787.0996 1778.8179 0.323 -0.876 0.358 86 62 38
-3731.1594 5780.4932 1768.5199 0.433 -0.876 0.209 91 67 43
-3707.8274 5766.8916 1756.2218 0.844 -0.525 -0.109 87 61 38
-3703.3367 5781.5605 1752.2333 0.843 -0.516 -0.155 99 73 50
-3688.8611 5781.1304 1743.8521 0.840 -0.519 -0.157 114 88 64
-3728.5925 5973.1709 1748.9540 0.891 -0.386 -0.238 124 98 71
-3729.2996 5996.5591 1747.1715 0.896 -0.394 -0.207 124 98 71
-3725.9360 6013.6870 1743.6082 0.898 -0.428 -0.103 122 96 69
-3786.5703 6131.2549 1767.8561 0.957 -0.269 0.111 120 91 65
-3624.6914 6032.8804 1682.9067 0.825 0.492 -0.277 105 75 49
-3672.5583 6132.8896 1701.3738 0.838 0.482 -0.257 105 78 51
-3400.3992 5932.1230 1561.8704 0.703 -0.654 0.280 77 53 25
-3399.8020 5953.4399 1559.5236 0.706 -0.639 0.306 78 54 26
-3496.3792 6256.8101 1587.2543 -0.605 -0.557 -0.570 94 68 41
-3310.2622 6024.5322 1500.7635 -0.562 -0.547 -0.620 79 56 32
-3074.3484 5716.3179 1392.4249 -0.382 -0.554 -0.740 70 58 42
-3059.7004 5711.6172 1384.3441 -0.383 -0.551 -0.742 53 40 24
-3031.8303 5682.8989 1370.8237 -0.365 -0.542 -0.757 32 22 3
-3015.5286 5674.8867 1362.0913 -0.216 -0.373 -0.902 31 23 6
-3003.8679 5675.2002 1355.2781 -0.220 -0.390 -0.894 26 21 11
-3109.6521 6003.5005 1386.0270 0.993 -0.116 0.009 19 19 11
-2990.7400 6076.8569 1309.9666 0.280 -0.807 0.520 32 28 17
-2892.8584 5907.4126 1268.9152 0.800 -0.514 0.309 39 35 24
-2894.0305 5932.5396 1267.2401 0.778 -0.497 0.384 39 35 24
-3128.7769 6598.4551 1341.3483 -0.119 -0.842 -0.526 25 22 15
-3131.3865 6629.5366 1339.9512 -0.031 -0.891 -0.453 16 16 8
-2636.9495 6195.5186 1093.0110 -0.114 -0.915 0.388 10 9 5
-2605.5779 6148.8516 1079.1372 -0.091 -0.889 0.449 13 12 8
-2552.2263 6075.7007 1054.9600 0.133 -0.988 -0.084 13 12 8
-2478.3518 6001.4785 1018.9436 -0.346 -0.934 -0.086 34 33 29
-2323.6687 5801.7686 947.6854 0.002 -0.678 -0.735 18 17 13
-2331.9543 5845.2681 948.4257 -0.302 -0.696 -0.652 12 11 7
-2387.7190 6028.4429 963.6868 0.544 -0.838 0.048 15 14 10
-2445.6270 6194.3804 981.8117 0.896 0.051 0.441 15 14 9
-2020.3926 5912.9927 760.8154 0.061 -0.849 0.525 39 22 12
-1983.4047 5833.8765 746.7178 -0.201 -0.958 0.204 53 31 16
-1956.5745 5782.7861 735.9008 -0.351 -0.918 0.188 62 35 17
-1937.5994 5778.2192 725.2900 -0.332 -0.410 -0.850 82 51 32
-1934.0073 5792.7329 721.8389 -0.290 -0.341 -0.894 98 65 45
-1951.5358 5868.2261 724.9554 0.579 -0.138 -0.803 105 70 48
-1910.5878 5926.8413 695.6351 0.965 0.212 -0.155 49 35 24
-1939.6189 6200.5068 686.8557 0.351 -0.744 0.569 56 45 39
-1888.4646 6070.1890 669.3189 0.143 -0.989 0.044 60 51 44
-1874.1417 6052.7134 662.6254 0.151 -0.988 0.020 60 51 46
-1936.8042 6302.4990 675.6516 0.987 -0.157 -0.018 61 50 44
-1784.2509 5877.6357 626.7511 0.874 0.199 -0.443 62 51 45
-1768.1663 5852.9277 619.7111 0.778 0.218 -0.589 61 52 47
-1719.9011 5802.9761 596.3171 0.614 0.141 -0.776 34 26 23
-1712.7473 5858.6035 586.9376 0.156 -0.945 0.286 28 21 15
-1686.5203 5878.5762 569.8060 0.177 0.080 -0.981 18 12 9
-1744.8126 6156.9136 577.6117 0.107 0.053 -0.993 16 11 7
-4397.4272 3623.1724 2344.6272 0.083 -0.595 -0.800 215 208 205
-4392.0176 3632.9854 2340.5557 0.066 -0.365 -0.929 215 208 205
-4395.2139 3649.6318 2340.8225 0.535 0.045 -0.843 215 208 205
-4789.5479 3993.2891 2536.7190 0.862 0.232 -0.450 217 209 206
-3712.1755 3510.2341 1958.0674 0.778 -0.538 -0.326 38 29 23
-3119.0806 3054.9097 1657.5663 0.959 -0.281 -0.040 101 45 46
-3108.8916 3056.8379 1651.4749 0.638 -0.662 -0.394 105 48 48
-3112.9744 3072.0396 1652.3936 0.961 -0.275 -0.014 131 84 76
-3088.3823 3060.4600 1639.2380 0.672 -0.688 -0.274 142 96 87
-3093.4089 3076.5779 1640.6168 0.864 -0.346 -0.366 155 110 101
-3078.8599 3074.2981 1632.3982 0.428 -0.450 -0.784 165 122 112
-3070.1089 3100.3530 1624.8414 0.376 -0.279 -0.883 171 128 118
-3067.1040 3108.9858 1622.2767 0.385 -0.274 -0.881 142 102 94
-3060.5164 3114.1870 1617.9614 0.121 -0.520 -0.846 224 207 201
-3056.9719 3122.3157 1615.1317 0.197 -0.468 -0.861 227 216 210
-4507.1387 5021.1226 2275.0349 0.305 0.081 -0.949 106 93 85
-4103.5195 4672.7485 2074.2043 0.469 -0.183 -0.864 121 95 80
-4210.1104 4807.3560 2123.1816 0.413 -0.153 -0.898 122 96 82
-3970.5713 5710.5942 1898.2266 0.071 -0.993 -0.099 111 81 60
-3862.6370 5622.3276 1844.0548 0.392 -0.726 0.565 95 64 43
-3745.0361 5517.5830 1785.8485 0.976 0.092 0.197 80 49 28
-3780.8787 5778.4458 1781.7740 0.372 -0.825 0.426 152 124 103
-3766.8464 5779.0688 1773.5785 0.364 -0.845 0.391 76 48 27
-3755.5242 5783.6577 1766.5764 0.363 -0.916 0.173 47 20 3
-3738.3140 5779.3999 1757.0033 0.359 -0.920 0.155 69 42 20
-3719.9695 5773.3306 1746.9452 0.837 -0.524 -0.154 66 39 16
-3715.6758 5788.3110 1743.0282 0.434 -0.851 -0.295 80 53 31
-3696.9724 5803.0273 1730.7814 0.619 -0.720 -0.312 120 95 69
-3677.8560 5795.4727 1720.4172 0.703 -0.683 -0.197 120 96 69
-3666.7900 5800.1011 1713.5599 0.718 -0.612 -0.333 119 95 68
-3689.3306 5878.1021 1719.1970 0.987 0.053 0.153 124 100 73
-3711.1799 5933.8052 1726.5579 0.917 -0.397 0.030 126 100 74
-3705.0994 5990.8979 1717.5922 0.865 -0.474 0.162 119 91 66
-3636.1570 5926.9575 1683.7107 0.729 -0.569 0.379 121 94 68
-3419.7891 5929.5630 1558.0084 0.437 -0.895 -0.089 78 54 26
-3409.8193 5935.0620 1551.7039 0.437 -0.895 -0.089 74 50 22
-3403.6978 5947.0298 1547.0140 0.707 -0.640 0.300 76 52 24
-3418.0410 6107.5088 1540.0392 0.448 -0.703 0.551 96 70 43
-3298.6917 5990.7734 1481.9614 0.335 -0.840 0.427 75 52 28
-3130.5696 5782.1875 1404.3566 -0.427 -0.720 -0.547 72 61 42
-3089.8906 5952.8706 1364.5065 -0.127 -0.973 -0.194 19 18 10
-2914.0137 5934.9292 1264.2394 0.726 -0.587 0.359 34 30 20
-2911.7468 5953.3384 1261.1709 0.719 -0.593 0.362 34 30 20
-2781.1128 6505.3979 1132.8235 0.118 -0.869 0.480 8 7 3
-2584.5918 6133.8770 1054.2778 -0.082 -0.993 -0.082 10 9 7
-2515.1624 6046.9888 1022.3005 -0.406 -0.692 -0.597 18 17 15
-2502.1335 6040.9380 1015.3228 -0.371 -0.720 -0.586 9 8 6
-2333.3264 5809.2759 939.5195 0.012 -0.695 -0.719 30 29 26
-2391.4561 5996.7822 955.3574 0.085 -0.990 0.110 21 20 16
-2452.7444 6194.8257 972.0226 0.869 -0.024 0.494 21 20 15
-2484.7866 6324.0898 978.2842 0.783 -0.218 0.582 20 21 15
-2480.6233 6339.6597 974.3868 0.789 -0.215 0.576 18 19 13
-1957.0648 5766.7959 725.4040 -0.434 -0.897 0.083 40 24 11
-1946.6353 5811.3213 715.1141 -0.282 -0.341 -0.897 68 46 31
-1960.6033 5876.4473 717.0073 0.579 -0.138 -0.803 72 49 33
-1979.6783 5956.8281 720.4083 0.658 -0.119 -0.743 74 53 34
-2019.5105 6098.0605 730.0462 0.907 0.234 -0.350 75 53 37
-2042.3484 6354.3032 718.8717 0.838 -0.414 0.357 37 30 21
-2008.4990 6280.3828 706.2889 0.693 -0.709 0.128 39 31 22
-1928.5736 6256.5503 662.2175 0.991 0.129 -0.021 63 55 49
-1760.3198 5861.1855 602.3337 -0.513 -0.463 -0.723 22 15 12
-1731.7563 5822.0269 589.5033 0.718 0.125 -0.684 20 16 12
-1734.6561 5857.5962 587.7953 0.775 0.072 -0.627 19 14 10
-1669.1620 5722.7568 562.6691 0.039 -0.972 -0.233 19 14 10
-1368.2410 815.5040 852.0314 0.748 0.155 -0.645 183 179 168
-4301.6650 2904.0908 2345.0454 0.589 0.184 -0.787 208 205 196
-4419.1055 3634.7568 2342.2021 0.065 -0.590 -0.805 209 205 202
-4423.0352 3651.9810 2342.8062 0.027 -0.632 -0.774 212 207 204
-4419.9185 3663.6929 2339.8718 0.549 0.046 -0.835 213 209 206
-3722.7500 3500.9888 1952.7458 0.760 -0.559 -0.333 33 28 24
-3115.7500 3046.9761 1645.9159 0.623 -0.690 -0.369 90 35 34
-3110.9070 3053.8396 1642.4530 0.635 -0.672 -0.382 121 63 61
-3114.1890 3068.2700 1642.9532 0.961 -0.275 -0.014 102 42 32
-3092.5032 3059.4226 1631.2778 0.672 -0.682 -0.289 106 46 33
-3097.3362 3075.3389 1632.5304 0.864 -0.346 -0.366 113 53 41
-3094.5984 3084.1956 1630.0912 0.805 -0.403 -0.436 117 58 45
-3078.0667 3114.4553 1617.6097 0.322 -0.235 -0.917 136 81 72
-3071.7622 3119.9521 1613.4347 0.122 -0.512 -0.850 220 189 185
-3067.6804 3127.5830 1610.3375 0.214 -0.444 -0.870 246 224 222
-3063.7686 3135.3855 1607.3219 0.214 -0.444 -0.870 233 215 211
-4465.6719 4786.7188 2257.6333 0.684 0.427 -0.592 210 203 195
-4530.4766 4963.2261 2278.0010 -0.148 -0.157 -0.976 219 202 194
-4518.5264 5024.6797 2265.1482 0.085 -0.177 -0.980 120 104 95
-4495.4048 5188.6431 2235.9199 0.622 0.242 -0.745 93 63 53
-3862.4153 5610.9351 1829.2697 0.392 -0.726 0.565 91 64 43
-3760.5134 5779.3247 1754.0884 0.363 -0.916 0.173 62 25 9
-3740.8613 5771.4360 1743.4955 0.616 -0.721 0.318 58 22 5
-3723.7537 5767.2227 1734.0172 0.991 -0.083 -0.101 57 21 5
-3697.0862 5812.8008 1714.1962 0.645 -0.709 -0.286 120 97 78
-3723.6899 5985.1299 1712.8929 0.926 -0.345 0.153 112 87 66
-3643.5876 5904.2261 1674.4336 0.733 -0.567 0.375 113 88 66
-3634.5354 5911.9824 1668.4521 0.733 -0.567 0.375 119 94 71
-3609.6899 5916.7520 1653.6331 0.759 -0.590 0.277 107 81 59
-3493.3206 5753.5757 1602.1780 0.889 -0.394 0.234 106 79 57
-3695.8972 6144.4170 1681.4178 0.906 0.409 -0.106 107 80 54
-3472.1157 5871.0264 1578.5585 0.153 -0.030 -0.988 101 74 47
-3543.9875 6101.5889 1597.7787 -0.111 -0.406 -0.907 80 55 25
-3426.2600 5927.5342 1546.5916 0.437 -0.895 -0.089 75 50 20
-3416.2888 5933.0322 1540.2974 0.437 -0.895 -0.089 75 50 20
-3409.2339 5943.4141 1535.2158 0.563 -0.823 -0.077 80 55 25
-3406.0520 5960.3550 1531.7377 0.870 -0.426 -0.248 86 61 31
-3445.4238 6049.6445 1545.8488 0.946 -0.067 -0.318 92 66 39
-3473.1189 6119.6318 1555.0800 0.922 -0.255 -0.291 99 73 46
-3409.6577 6102.4844 1520.0673 0.466 -0.689 0.555 98 71 44
-3344.9033 6058.4004 1486.9138 0.521 -0.686 0.508 77 54 30
-3285.8345 5977.4019 1460.6183 0.184 -0.861 0.474 76 57 34
-3172.2114 5821.2959 1410.0659 -0.355 -0.542 -0.762 74 61 45
-3165.1792 5830.7920 1405.0831 -0.276 -0.524 -0.806 75 62 46
-3121.2129 5774.3218 1385.1412 -0.272 -0.803 -0.531 69 56 40
-3106.3643 5769.5503 1377.0225 -0.211 -0.630 -0.747 52 37 21
-3045.3206 5856.4165 1333.3411 -0.015 -0.632 -0.775 19 16 9
-3055.8088 5898.2778 1335.3508 -0.161 -0.917 -0.365 19 16 7
-3158.1626 6112.2969 1373.7867 0.613 0.330 -0.718 24 20 11
-3187.6995 6286.4443 1374.0024 -0.177 -0.840 -0.513 19 16 4
-2865.1479 5758.3657 1238.7136 0.106 -0.956 0.272 19 18 9
-2885.7747 5865.4399 1240.2714 -0.059 -0.993 0.105 21 20 12
-2891.0220 5898.3481 1240.1191 0.337 -0.895 0.292 22 21 14
-2905.2742 5949.2437 1243.4297 0.342 -0.834 0.433 22 21 13
-2906.3499 5974.3208 1241.6245 0.497 -0.720 0.484 21 21 13
-3070.3828 6422.7388 1293.0194 0.534 -0.072 -0.843 23 22 17
-2549.3032 6037.2935 1029.2047 0.393 -0.919 0.035 12 12 14
-2487.5842 6015.2588 995.6717 -0.344 -0.877 -0.335 11 9 11
-2395.1233 5893.6147 954.0132 -0.518 -0.767 -0.379 35 30 33
-2360.1423 5834.1768 939.5509 -0.174 -0.853 -0.491 37 32 37
-2343.2944 5817.4824 931.4305 0.012 -0.695 -0.719 37 32 36
-2410.1248 6025.5356 949.9158 0.178 -0.981 0.078 28 29 25
-2458.0449 6216.0259 959.1731 0.818 -0.146 0.556 27 27 20
-2459.2327 6244.2383 957.1294 0.806 -0.175 0.566 28 28 19
-2477.5630 6314.7559 960.8977 0.789 -0.215 0.576 23 24 14
-2504.2249 6406.3555 967.4404 0.810 -0.151 0.567 17 17 10
-1989.0531 5814.8633 726.9793 -0.196 -0.955 0.223 23 17 12
-1975.9440 5802.7017 720.5809 -0.361 -0.915 0.180 23 17 11
-1967.5479 5803.6997 715.6325 -0.348 -0.918 0.191 23 16 11
-1971.2714 5839.0752 714.3608 -0.303 -0.400 -0.865 29 22 15
-1966.6348 5875.9155 708.1163 0.583 -0.137 -0.801 38 29 20
-1970.7018 5912.8584 706.8915 0.564 -0.143 -0.814 38 29 20
-2007.5674 6044.9028 715.4167 0.917 0.243 -0.318 40 32 23
-2030.8838 6138.6885 719.8147 0.917 0.243 -0.318 43 35 26
-2108.6516 6447.6245 734.8576 0.920 0.248 -0.302 37 31 24
-1983.8143 6133.1519 693.1505 0.893 0.172 -0.416 31 28 22
-2055.0408 6372.3198 711.1651 0.841 -0.407 0.356 32 28 21
-2035.9358 6342.9170 702.9703 0.699 -0.696 0.162 33 30 22
-1971.4905 6258.4106 673.9073 0.100 -0.762 0.640 44 40 35
-1931.3328 6217.4961 654.6609 0.517 -0.821 0.240 49 45 40
-1792.3153 5891.0640 605.9167 0.805 0.214 -0.554 45 41 37
-1773.0542 5856.4043 598.1404 -0.525 -0.447 -0.724 27 23 20
-1765.1558 5883.6538 590.9393 -0.102 -0.918 -0.384 18 18 14
-1722.7710 5826.1348 572.0127 -0.026 -0.139 -0.990 14 13 9
-1603.4198 5538.8345 530.8463 0.390 -0.321 -0.863 9 10 5
-1753.2936 6374.4194 536.5920 0.943 0.191 0.273 23 7 5
-1810.0371 6727.8970 535.1754 0.985 0.169 -0.039 197 159 141
-4275.0332 2859.6113 2321.5266 0.454 0.089 -0.886 184 181 172
-4438.6147 3644.6040 2338.6067 -0.065 -0.573 -0.817 187 183 180
-4447.2607 3665.5686 2341.5261 0.027 -0.766 -0.642 155 151 148
-5036.1074 4275.9019 2620.6868 0.192 -0.942 0.276 43 39 36
-3115.8135 3053.5283 1634.8539 0.635 -0.672 -0.382 131 73 70
-3096.7820 3058.5361 1623.4011 0.672 -0.682 -0.289 131 66 54
-3101.2595 3074.1006 1624.4506 0.864 -0.346 -0.366 137 72 60
-3097.6362 3082.1160 1621.5762 0.852 -0.341 -0.397 142 77 65
-3094.2542 3101.8413 1617.6902 0.361 -0.280 -0.890 167 102 90
-3088.1824 3107.5735 1613.6302 0.613 0.023 -0.790 136 71 61
-3082.5857 3125.2930 1608.6659 0.122 -0.512 -0.850 221 188 185
-3077.4243 3131.9036 1605.0438 0.222 -0.440 -0.870 247 222 221
-2795.2107 2902.6550 1465.0360 0.950 -0.302 0.083 226 227 217
-2763.8313 2893.1506 1447.8978 0.691 -0.720 0.063 224 228 217
-4282.1260 4887.6304 2126.3472 0.652 -0.120 -0.749 110 80 72
-4270.1260 4892.4707 2118.9602 0.777 -0.002 -0.630 117 87 79
-4521.3418 5227.7119 2230.7014 0.641 0.232 -0.732 151 117 107
-4089.3708 5746.0166 1930.9938 0.284 -0.676 0.679 112 86 61
-4040.1824 5721.1182 1905.1116 -0.157 -0.974 -0.164 101 75 52
-3997.9741 5705.1650 1882.3704 0.079 -0.986 -0.150 93 66 45
-3856.2358 5591.2363 1811.9344 0.397 -0.724 0.564 84 57 36
-3784.5654 5511.0352 1778.5382 0.409 -0.742 0.531 77 50 29
-3758.6440 5764.8335 1738.6724 0.623 -0.717 0.312 83 44 29
-3735.9653 5752.4199 1726.8308 0.592 -0.723 0.356 72 33 18
-3725.8660 5758.6411 1720.4032 0.991 -0.083 -0.101 55 18 4
-3745.1921 5830.5308 1724.4701 -0.067 -0.589 -0.805 70 37 20
-3722.5505 5861.1938 1708.4174 0.193 -0.357 -0.914 91 68 50
-3606.1887 5833.3931 1644.1337 0.754 -0.569 0.327 119 94 72
-3629.5469 5891.7832 1651.8490 0.826 -0.443 0.348 125 100 78
-3626.8198 5909.4209 1648.5454 0.829 -0.445 0.339 125 100 78
-3535.0366 5807.7402 1605.6761 0.967 -0.194 0.163 118 93 71
-3550.4729 5853.9937 1610.0216 0.964 -0.242 0.108 120 94 71
-3554.5710 5882.3779 1609.5930 0.978 -0.204 0.041 113 87 63
-3723.4790 6175.7100 1678.0491 0.923 0.382 -0.053 107 79 54
-3615.4478 6184.0630 1615.0109 0.178 -0.135 -0.975 93 68 38
-3543.2593 6087.1987 1582.9535 -0.061 -0.363 -0.930 85 60 30
-3428.8018 5918.9546 1533.5658 0.493 -0.431 -0.756 80 55 25
-3430.9993 5944.8203 1532.2899 0.514 -0.383 -0.767 77 52 22
-3456.2078 6146.3032 1527.0112 0.126 -0.914 0.385 96 70 43
-3467.7317 6189.3623 1529.4174 0.191 -0.949 0.250 95 69 42
-3384.5872 6114.3096 1488.9071 0.101 -0.948 0.303 77 54 30
-3352.8843 6081.7529 1473.8475 -0.002 -0.959 0.282 73 53 30
-3334.2031 6071.8062 1464.0660 -0.013 -0.962 0.274 69 55 39
-3231.1409 5912.4961 1420.3633 -0.202 -0.619 -0.759 69 56 40
-3117.3625 5754.5068 1370.3594 0.458 -0.837 0.300 68 55 39
-3107.4685 5758.5537 1364.2634 0.459 -0.836 0.302 53 37 21
-2896.2253 5894.5508 1229.2416 0.341 -0.894 0.290 22 22 14
-2908.0601 5940.5635 1231.5365 0.347 -0.831 0.434 21 21 13
-2897.1179 5941.7764 1225.1155 0.347 -0.831 0.434 21 21 13
-2614.4893 6121.1641 1044.7178 -0.150 -0.981 -0.123 13 13 11
-2630.9880 6182.9258 1048.1514 -0.195 -0.891 -0.409 12 12 12
-2548.2451 6091.4961 1009.4814 -0.371 -0.666 -0.647 29 29 29
-2513.0430 6034.3926 994.8184 -0.372 -0.762 -0.530 28 28 28
-2367.8916 5836.9736 930.6202 -0.190 -0.854 -0.485 22 16 20
-2356.2385 5832.7319 924.3258 -0.012 -0.741 -0.671 21 16 20
-2462.0261 6284.9062 940.8224 0.794 -0.198 0.575 15 17 10
-2019.7300 6009.8765 713.1179 0.401 0.051 -0.915 31 24 16
-2049.0596 6172.5688 714.0239 0.798 0.215 -0.563 36 29 21
-1964.9683 6058.3511 676.8165 0.901 0.221 -0.373 32 29 24
-2032.7794 6286.2974 693.4733 0.804 -0.558 0.205 31 28 21
-2017.9031 6269.2607 686.5797 0.785 -0.546 0.292 33 30 23
-1973.4872 6244.7041 663.4125 0.173 -0.714 0.679 39 36 31
-1805.2916 5912.7725 599.1592 0.812 0.198 -0.549 34 29 25
-1816.2136 5973.4878 599.4838 -0.233 -0.829 -0.508 24 20 17
-1807.5632 5972.7134 594.5779 -0.234 -0.824 -0.516 19 18 14
-1767.4707 5898.1025 578.8188 -0.221 -0.170 -0.960 20 19 15
-1762.6042 5908.9038 574.9548 -0.211 -0.153 -0.965 16 15 11
-1754.4725 5909.2041 570.2421 -0.176 -0.142 -0.974 14 13 9
-1749.8177 5920.7002 566.4317 -0.133 -0.137 -0.982 14 13 9
-1717.3936 5894.7676 550.3059 -0.207 -0.807 -0.553 10 11 6
-1675.3533 5970.2612 518.6764 0.931 0.129 0.343 6 12 2
-1756.8765 6394.3340 523.9597 0.944 0.182 0.275 138 114 117
-1776.2501 6522.4854 522.5259 0.940 0.181 0.290 186 149 137
-2916.2952 1888.2806 1626.1077 0.899 -0.264 -0.351 190 183 175
-4294.4238 2856.1890 2320.5886 0.438 0.079 -0.895 199 196 187
-4482.2026 3616.6487 2352.5242 0.137 -0.271 -0.953 34 30 27
-4464.3716 3659.3127 2338.0342 -0.070 -0.582 -0.810 73 69 66
-4465.3315 3674.2749 2337.0928 0.025 -0.768 -0.640 48 44 41
-4736.1216 3917.4517 2468.2671 0.758 0.323 -0.567 45 41 38
-5059.3467 4271.7725 2618.4529 0.229 -0.938 0.259 43 39 36
-4525.2637 3882.7039 2350.7048 0.853 -0.188 -0.486 40 36 33
-3128.0010 3048.6023 1631.8960 0.674 -0.578 -0.461 212 157 155
-3124.3245 3056.5498 1628.9932 0.681 -0.535 -0.500 126 67 65
-3109.6448 3065.6494 1619.6598 0.811 -0.431 -0.395 107 37 27
-3107.0540 3074.6160 1617.2784 0.864 -0.337 -0.374 114 44 34
-3104.5398 3083.6726 1614.9320 0.864 -0.337 -0.374 119 48 38
-3093.1702 3118.8345 1604.8992 0.609 0.022 -0.793 132 67 61
-3059.2986 3120.9316 1585.2485 0.361 -0.355 -0.863 233 214 210
-4517.8198 4770.7178 2257.8650 0.388 -0.773 0.502 210 203 196
-4309.2803 4890.8574 2126.1853 0.695 -0.158 -0.701 114 84 76
-4315.9614 4934.4917 2125.6682 0.682 -0.172 -0.711 145 115 107
-4050.8464 5724.5967 1894.6959 -0.157 -0.974 -0.164 101 75 52
-4018.2686 5700.9873 1878.3517 -0.355 -0.804 -0.477 96 70 47
-4017.4617 5720.9019 1875.9022 -0.362 -0.821 -0.441 93 66 45
-3825.0854 5496.0874 1787.9045 -0.082 -0.319 -0.944 91 64 43
-3699.9951 5461.2422 1719.5807 0.699 0.117 -0.705 77 48 30
-3693.7839 5533.3169 1708.8271 0.397 -0.778 0.486 147 118 100
-3710.4424 5598.5571 1711.8820 0.983 0.184 0.016 177 145 127
-3772.1233 5859.1157 1721.2982 -0.080 -0.584 -0.808 84 50 34
-3755.7400 5856.1123 1712.1942 0.014 -0.536 -0.844 76 51 33
-3723.3516 5872.0801 1692.0114 0.269 -0.120 -0.956 80 57 39
-3598.0964 5808.6147 1626.4475 0.653 -0.623 -0.431 108 83 61
-3598.5029 5830.8394 1624.4642 0.651 -0.586 -0.482 116 91 69
-3612.6760 5874.8140 1628.2134 0.840 -0.304 -0.449 117 92 70
-3600.3022 5899.0000 1618.6987 0.813 0.237 -0.533 115 90 68
-3609.1094 5979.2817 1615.7468 0.942 -0.266 0.205 107 79 54
-3637.3955 6371.8154 1592.8326 0.513 0.392 -0.764 92 66 39
-3559.8325 6263.5728 1559.1089 0.264 0.172 -0.949 89 63 36
-3471.8796 6136.6431 1521.2853 0.218 -0.901 0.375 89 63 36
-3463.5374 6168.4976 1513.3201 0.205 -0.949 0.240 93 67 40
-3269.1206 5966.3198 1421.8934 -0.270 -0.485 -0.832 62 49 33
-3120.9426 5726.3965 1360.7715 0.477 -0.797 0.371 61 48 32
-3224.3572 5999.3647 1392.9043 0.438 -0.893 0.102 30 19 7
-2602.9939 6127.8511 1023.4404 -0.376 -0.730 -0.571 13 13 11
-2584.8916 6110.9663 1014.7341 -0.341 -0.673 -0.657 19 21 18
-2591.8508 6151.2446 1014.7114 0.210 -0.147 -0.966 29 31 28
-2504.7178 6023.3140 977.4583 -0.270 -0.914 -0.304 41 39 40
-2454.4053 5977.9478 953.1044 -0.390 -0.914 -0.116 26 20 24
-2392.4043 5879.4067 927.3453 0.015 -0.696 -0.718 25 19 23
-2378.9529 5871.1030 920.4528 0.008 -0.691 -0.723 24 19 23
-2445.4412 6201.7979 925.6333 0.795 -0.189 0.576 21 22 24
-2448.3772 6234.2222 924.0847 0.792 -0.197 0.579 15 16 18
-1980.9990 5831.5635 695.9793 -0.353 -0.263 -0.898 22 17 11
-1969.3315 5823.3223 690.1044 -0.268 -0.257 -0.928 25 18 10
-1951.8881 5798.4854 682.5693 0.665 -0.171 -0.727 24 17 9
-2003.2830 5970.3281 694.9300 0.944 0.240 -0.225 25 18 10
-1999.3615 5984.6392 691.2517 0.913 0.224 -0.340 27 20 12
-1806.4625 5871.4268 591.8232 0.999 -0.040 -0.021 26 21 17
-1786.6844 5940.0801 573.6238 -0.184 -0.161 -0.970 19 18 14
-1777.9952 5965.4297 566.1082 -0.177 -0.140 -0.974 14 13 9
-1757.3029 5952.0288 555.5677 -0.216 -0.169 -0.962 14 13 9
-1753.8844 5967.7026 552.0423 -0.216 -0.169 -0.962 10 11 6
-1733.1571 6231.6821 513.8170 0.976 0.199 0.087 31 17 14
-1710.4874 6182.0542 505.7547 0.943 0.148 0.297 107 86 88
-1712.7440 6218.5879 503.4062 0.942 0.142 0.304 167 144 147
-1718.4719 6267.5269 501.8130 0.937 0.144 0.317 189 161 157
-1715.9934 6288.0381 498.3447 0.939 0.149 0.311 184 149 136
-4306.8086 2860.0415 2314.8652 0.438 0.079 -0.895 201 198 189
-4512.2363 3620.2637 2355.4329 -0.173 -0.687 -0.705 29 25 22
-4509.5923 3632.3442 2352.6978 0.136 -0.264 -0.955 28 24 21
-4744.0151 3917.7952 2457.9053 0.758 0.323 -0.567 39 35 32
-4821.7329 4010.2278 2493.0073 0.868 0.184 -0.462 37 33 30
-3128.1707 3043.9363 1622.0249 0.653 -0.591 -0.473 172 117 116
-3125.4380 3052.7344 1619.5712 0.673 -0.546 -0.500 159 100 98
-3122.3777 3061.2461 1616.9591 0.775 -0.377 -0.507 102 30 24
-3103.8018 3100.9290 1602.3165 0.768 0.060 -0.637 157 81 73
-3102.5493 3111.2305 1600.5573 0.763 0.075 -0.642 154 79 72
-4318.9951 4892.9917 2116.0735 0.695 -0.158 -0.701 169 139 131
-4543.3486 5253.2583 2207.9485 0.691 0.180 -0.700 160 126 116
-4118.0649 5805.2554 1908.7996 0.841 -0.019 0.540 101 75 52
-4045.1489 5726.7505 1875.0345 -0.351 -0.802 -0.483 96 70 47
-4048.4263 5752.3604 1874.3173 -0.364 -0.813 -0.455 93 66 45
-4031.4082 5750.0688 1864.8142 -0.364 -0.813 -0.455 99 72 51
-3992.7224 5717.6577 1845.9648 -0.346 -0.802 -0.486 91 64 43
-3723.7688 5444.0825 1719.8024 0.217 -0.967 -0.130 60 33 12
-3703.9624 5436.0640 1709.2839 0.695 0.116 -0.710 81 52 34
-3712.2781 5508.3013 1706.7294 0.756 0.104 -0.646 86 57 39
-3788.6792 5872.0200 1713.6205 -0.080 -0.584 -0.808 97 62 45
-3757.4290 5911.9209 1691.7056 0.250 -0.124 -0.960 79 56 38
-3641.7075 5864.4868 1630.3092 0.525 -0.843 0.116 89 64 42
-3636.6992 5878.4302 1626.0331 0.904 -0.416 -0.104 95 70 48
-3634.9309 5897.4893 1623.0924 0.901 -0.401 -0.166 96 71 49
-3645.0361 6024.1465 1616.0536 0.934 -0.047 -0.355 110 83 57
-3649.7913 6054.2197 1615.7297 0.931 -0.050 -0.362 107 80 53
-3699.8801 6157.5249 1633.9268 0.949 -0.301 0.095 102 75 48
-3666.0242 6406.4194 1589.3682 0.515 0.404 -0.756 89 63 36
-3476.7905 6131.5996 1508.9346 0.223 -0.897 0.380 88 62 35
-3401.5701 6025.7236 1476.6217 0.212 -0.913 0.349 88 62 35
-3288.6904 5987.4922 1415.9196 -0.270 -0.485 -0.832 59 46 30
-3138.4983 5766.2998 1352.3915 0.556 -0.801 0.220 60 47 31
-3281.6909 6065.8320 1403.9865 0.352 -0.390 -0.851 33 21 5
-2479.3850 5972.7104 954.4609 0.355 -0.663 0.659 36 34 37
-2488.2549 6017.2544 955.0263 0.323 -0.618 0.716 34 29 33
-2413.5815 5937.4863 920.3840 -0.273 -0.959 -0.081 26 21 25
-1887.4458 5621.9097 651.3542 0.309 -0.718 -0.623 21 14 6
-1909.4025 5708.8164 655.1180 0.592 -0.777 -0.214 23 16 8
-1913.5667 5794.6157 648.8160 0.982 -0.124 0.144 24 17 9
-1849.3019 6038.6665 587.3527 0.840 0.238 -0.488 14 10 7
-1821.0093 5976.4624 577.4641 -0.190 -0.925 -0.329 14 13 9
-1809.9763 5968.1558 571.9935 -0.183 -0.927 -0.327 19 18 14
-1792.7129 5939.9268 564.9753 -0.191 -0.647 -0.738 22 21 17
-1791.1437 5961.4116 561.9031 -0.208 -0.351 -0.913 23 22 18
-1785.2722 5969.2412 557.7520 -0.222 -0.396 -0.891 24 23 19
-1720.4852 5787.4922 539.0868 0.219 -0.009 -0.976 24 23 19
-1763.0544 5951.0420 546.8845 0.714 -0.610 0.343 24 23 19
-1766.8051 5989.9658 545.0904 0.771 -0.577 0.269 16 17 12
-1681.6075 5843.5039 511.1781 -0.092 -0.898 -0.430 12 11 7
-1667.3926 5822.6074 505.1615 -0.195 -0.752 -0.629 10 12 7
-1643.5891 5769.2842 496.9420 0.714 0.085 -0.694 10 14 7
-1718.4769 6047.9785 511.5731 0.942 -0.052 -0.330 9 14 7
-1704.3862 6027.9556 505.5393 0.923 -0.193 -0.333 9 15 5
-1706.3188 6062.1772 503.1811 0.811 -0.056 0.583 11 13 5
-1719.6628 6135.6479 503.3781 0.839 0.019 0.544 14 11 6
-1702.9237 6106.4414 496.7588 0.953 0.135 0.270 46 34 30
-1679.5303 6053.9287 488.6918 0.961 0.125 0.248 116 99 97
-834.6475 453.2614 570.0966 0.711 0.499 -0.495 169 165 147
-1373.3027 794.9603 842.0977 0.942 0.262 -0.209 175 171 162
-4311.9028 2812.7290 2310.2046 0.308 -0.886 -0.346 186 183 174
-4360.2173 2949.2087 2323.7339 0.611 0.157 -0.776 198 195 186
-4496.2534 3687.5149 2325.4729 0.029 -0.667 -0.745 28 24 21
-4449.6050 3679.2795 2299.7241 0.308 0.090 -0.947 36 32 29
-3132.0720 3042.7102 1613.9612 0.660 -0.590 -0.465 152 97 95
-3127.8752 3050.1514 1610.8046 0.673 -0.551 -0.494 165 104 103
-3123.8750 3057.7805 1607.7406 0.673 -0.551 -0.494 110 32 28
-3109.6067 3136.0088 1591.5730 0.739 -0.394 -0.547 234 197 195
-3174.4238 3354.7544 1606.0629 0.282 -0.009 -0.959 208 198 196
-4302.6782 4884.7095 2092.1763 0.552 -0.782 0.290 165 135 127
-4308.3291 5055.7725 2077.8318 0.890 -0.267 -0.369 170 133 124
-3830.0520 4717.0337 1839.9485 0.741 0.136 -0.658 176 140 124
-3899.7461 4834.9395 1867.5739 0.558 0.010 -0.830 176 140 124
-3713.9460 5054.9214 1739.0587 0.348 -0.899 0.265 136 104 81
-4073.0659 5711.7056 1876.3502 0.824 -0.033 0.566 111 85 60
-4052.9543 5726.3291 1863.3829 -0.146 -0.963 -0.226 98 72 49
-4028.5554 5713.9199 1850.7472 -0.151 -0.960 -0.237 84 57 36
-3978.2681 5686.5278 1824.8910 -0.153 -0.960 -0.236 78 51 30
-3855.8611 5537.5479 1770.4048 0.684 -0.468 0.560 84 57 36
-3714.3184 5520.5654 1691.4545 0.330 -0.856 -0.399 95 66 48
-3705.6494 5548.7788 1683.6152 0.553 -0.574 -0.604 168 139 121
-3686.1064 5540.8477 1673.2881 0.360 -0.705 -0.611 163 131 113
-3680.1584 5593.6318 1664.4768 0.911 -0.055 -0.409 93 54 39
-3789.4202 5839.6099 1701.5082 0.646 -0.563 -0.516 91 54 38
-3852.1587 5955.1064 1725.4155 0.630 -0.433 -0.644 89 54 38
-3848.0889 5971.0215 1721.4609 0.618 -0.426 -0.661 82 57 39
-3826.0876 5981.9956 1707.7910 0.394 -0.579 -0.714 80 57 39
-3668.4966 5915.8335 1624.7418 0.867 -0.361 0.343 83 58 36
-3662.1377 5927.8247 1619.8851 0.832 -0.409 0.375 74 49 27
-3647.8230 5927.3223 1611.7759 0.990 -0.138 0.029 63 38 16
-3656.4177 6007.2969 1608.4633 0.996 -0.083 0.043 89 63 39
-3653.2339 6024.5522 1604.8762 0.995 -0.084 0.051 89 61 36
-3651.4309 6044.0757 1601.8435 0.995 -0.084 0.051 95 68 41
-3544.4807 6118.1001 1533.2693 0.110 -0.047 -0.993 92 67 37
-3542.0752 6136.9478 1529.9624 0.105 -0.039 -0.994 93 68 38
-3666.6572 6393.5503 1574.6368 0.519 0.403 -0.754 85 59 32
-3668.2693 6444.3413 1570.3403 0.275 0.219 -0.936 90 64 37
-3332.5532 6028.5542 1421.6437 0.678 0.180 -0.713 58 44 28
-3343.4875 6185.7144 1411.7388 0.206 -0.165 -0.965 28 17 5
-3182.2791 5919.3438 1347.1865 0.011 -0.450 -0.893 25 18 7
-2482.3259 5987.6475 941.1259 0.343 -0.616 0.710 36 34 37
-2421.0164 6108.8047 893.7318 0.785 -0.229 0.575 22 17 38
-1799.2500 5786.2832 572.3793 0.912 0.208 -0.355 12 7 3
-1866.6633 6100.3687 578.5588 0.297 0.055 -0.953 12 11 7
-1806.2158 5963.4209 558.1603 -0.179 -0.610 -0.772 24 23 19
-1805.7582 5988.4995 555.3242 -0.247 -0.539 -0.805 29 28 24
-1760.3799 5949.4658 533.4622 0.198 -0.099 -0.975 24 25 20
-1741.8824 5916.0479 526.3484 -0.545 -0.696 -0.468 21 22 17
-1640.3108 5712.9766 489.2951 0.665 0.066 -0.744 9 10 5
-1719.0801 6057.1011 498.8641 0.939 0.109 0.326 10 16 6
-1701.2875 6052.1221 489.2317 0.845 0.026 0.535 15 14 6
-1671.8822 5979.3130 479.9443 0.771 -0.125 0.624 47 36 30
-1660.8291 5968.8369 474.7186 0.826 -0.038 0.562 96 78 76
-1646.0669 6028.3828 460.1879 0.705 -0.312 0.637 202 160 141
-4328.6060 2807.5881 2307.8909 0.312 -0.882 -0.353 204 201 192
-4319.2168 2813.4031 2301.9507 0.308 -0.886 -0.346 186 183 174
-4326.0708 2840.8787 2302.9832 0.637 0.075 -0.767 194 191 182
-4386.8740 3610.3198 2257.3840 0.616 0.103 -0.781 28 24 21
-3137.3042 3042.7080 1606.5350 0.660 -0.590 -0.465 197 142 141
-3133.0786 3050.1211 1603.3619 0.718 -0.521 -0.461 210 149 147
-3128.0400 3056.7898 1599.8046 0.680 -0.552 -0.483 158 75 73
-4663.1206 5004.1387 2269.1587 0.760 0.416 -0.500 214 205 198
-4293.4380 4884.1177 2071.6165 0.538 -0.793 0.286 170 140 132
-4278.6714 4903.8994 2061.1660 0.501 -0.838 0.214 170 140 131
-4307.3096 4990.3501 2068.4326 0.878 -0.472 -0.079 175 138 129
-4017.5237 5687.7402 1831.1434 0.679 -0.320 0.661 83 56 35
-3876.1919 5534.5908 1766.7947 0.747 -0.347 0.567 67 40 19
-3731.0916 5513.3813 1686.5618 0.869 -0.169 -0.465 88 59 41
-3703.4954 5534.6318 1668.6689 0.443 -0.874 -0.198 159 130 112
-3673.4956 5511.5283 1654.0304 0.404 -0.875 -0.268 149 117 99
-3658.9729 5530.9863 1643.7521 0.892 -0.287 -0.349 121 82 67
-3689.4326 5596.0098 1654.2856 0.895 -0.081 -0.438 95 56 41
-3704.2131 5638.3813 1658.2701 0.943 -0.108 -0.316 99 57 43
-3739.5273 5711.3262 1670.7367 0.983 0.002 -0.182 92 53 38
-3780.9121 5836.6045 1681.2013 0.638 -0.651 0.410 89 54 38
-3718.8154 5872.3848 1642.1927 0.929 -0.016 0.369 82 59 41
-3616.3433 5758.1680 1595.8677 0.618 -0.721 0.312 88 63 44
-3638.5171 5813.7437 1602.6775 0.637 -0.721 0.273 94 69 48
-3665.5554 5877.2124 1611.4291 0.944 -0.291 0.156 95 70 48
-3642.0215 5862.3398 1599.6067 0.987 -0.126 -0.096 95 70 48
-3635.7554 5874.2695 1594.8040 0.987 -0.132 -0.091 94 69 47
-3633.5833 5892.6377 1591.6566 0.987 -0.132 -0.091 92 67 45
-3616.1328 5887.0078 1582.3281 0.968 -0.238 0.077 86 61 39
-3637.0286 5963.9370 1586.1875 0.919 -0.359 0.162 84 58 34
-3542.1438 5900.2061 1538.9147 0.968 -0.240 0.066 121 94 67
-3623.4302 6076.1401 1566.7742 0.533 -0.820 -0.206 116 89 62
-3520.4419 6087.4873 1507.0769 0.449 -0.445 -0.775 92 67 37
-3510.5330 6093.5889 1500.8115 0.410 -0.406 -0.816 93 67 40
-3435.2278 6171.2666 1449.9341 0.914 0.285 -0.290 75 55 34
-2502.5249 5923.9561 945.7575 0.814 0.291 -0.503 43 43 45
-2499.8938 6334.5112 901.4989 0.021 -0.999 0.041 19 18 33
-2511.2808 6388.1553 902.3810 0.193 -0.981 0.033 10 13 24
-2504.2622 6396.8032 897.4925 0.064 -0.995 0.077 10 13 20
-2017.0780 6216.3130 639.4875 0.289 -0.826 0.484 22 19 12
-1769.3390 5651.4468 557.5657 0.883 0.232 -0.408 15 10 6
-1832.8051 6001.4297 557.1710 0.022 -0.894 -0.447 18 17 13
-1817.6927 5980.3716 550.7780 -0.190 -0.637 -0.747 24 23 19
-1815.1035 5998.7183 547.3959 -0.253 -0.551 -0.795 29 28 24
-1812.2617 6016.3569 543.9440 -0.246 -0.536 -0.808 30 29 25
-1757.5715 5868.3594 528.2860 0.198 0.036 -0.979 30 29 25
-1650.3055 5701.2617 484.7454 0.644 0.084 -0.760 17 16 12
-1656.8407 5748.7061 483.5167 0.649 0.082 -0.757 14 16 11
-1658.7772 5781.2041 481.2320 0.660 0.060 -0.749 13 17 10
-1681.6512 5884.0078 483.5202 0.872 0.100 -0.480 10 15 8
-1710.2294 6006.8799 486.9591 0.938 0.110 0.328 10 16 6
-1703.8086 6012.6016 482.7150 0.809 -0.038 0.587 13 15 6
-1692.9288 6003.1719 477.5156 0.844 0.024 0.535 18 13 5
-1676.7742 5975.5957 471.2093 0.791 -0.107 0.602 38 25 19
-1664.8274 5962.1040 465.8268 0.819 -0.044 0.572 81 61 59
-1659.8134 5972.2749 461.9185 0.824 -0.042 0.565 124 101 102
-1656.5631 5988.5708 458.3745 0.824 -0.042 0.565 148 117 113
-1650.2375 5994.2632 454.1875 0.824 -0.101 0.558 175 136 124
-1647.2253 6011.5049 450.6801 0.830 -0.073 0.554 188 146 130
-1629.2375 5976.3110 444.1258 0.818 -0.232 0.526 203 161 145
-1626.1742 5993.3066 440.6150 0.945 0.062 0.322 214 172 156
-4339.7437 2810.5925 2301.5400 0.313 -0.889 -0.334 203 200 191
-4339.0273 2845.0349 2297.4963 0.673 0.069 -0.737 194 191 182
-4495.6660 3577.6409 2308.8069 0.038 -0.170 -0.985 29 24 18
-4327.4487 3599.6541 2211.2295 0.565 -0.787 0.247 25 21 18
-4370.2598 3661.6902 2228.9182 0.738 0.141 -0.659 34 30 27
-3140.9299 3041.2361 1598.3544 0.726 -0.515 -0.455 216 162 160
-3138.0786 3049.9041 1595.8241 0.718 -0.521 -0.461 252 194 193
-4779.5396 4947.9678 2324.8015 0.922 -0.278 -0.271 208 198 196
-4344.9160 4877.8452 2086.1050 -0.071 -0.982 -0.178 102 72 64
-4322.2930 4871.2612 2073.9902 0.025 -0.948 -0.316 170 140 132
-4308.6138 4874.3086 2065.9226 0.025 -0.948 -0.316 177 147 139
-4286.9634 4868.5771 2054.2688 0.026 -0.974 -0.223 177 147 139
-4326.0083 4929.4375 2069.9490 0.640 -0.765 0.067 176 146 138
-4306.0591 4961.9634 2055.2170 0.629 -0.771 0.100 180 146 136
-4572.3701 5277.4043 2172.6943 0.912 -0.395 0.110 182 145 136
-4548.6812 5270.3359 2160.0273 0.904 -0.400 0.150 182 145 136
-4147.1548 4909.8711 1970.7407 0.351 -0.731 -0.585 176 140 125
-3758.9900 5481.6094 1690.5516 0.619 -0.098 -0.780 97 68 50
-3750.0110 5489.0474 1684.6816 0.612 -0.105 -0.784 51 22 5
-3718.0024 5544.5503 1660.6941 0.291 -0.911 -0.291 164 135 117
-3805.5911 6014.8276 1660.6155 0.950 0.047 0.309 84 58 41
-3701.1401 5920.1606 1611.4702 0.935 -0.320 0.152 90 65 43
-3660.6096 5879.0938 1592.8579 0.975 -0.194 -0.105 89 64 42
-3644.0549 5962.5918 1574.6641 0.728 -0.684 0.053 79 53 29
-3687.6860 6259.7246 1567.9839 0.412 0.339 -0.846 98 72 45
-3734.4331 6360.2402 1583.8367 0.415 0.325 -0.850 97 72 42
-3438.3828 5959.4829 1458.5315 0.910 -0.406 0.083 92 66 39
-3529.3440 6134.7900 1491.5203 0.479 -0.372 -0.795 92 66 39
-3285.6462 6009.6714 1366.7438 0.271 -0.688 -0.673 44 28 12
-3384.6323 6208.0024 1401.8445 0.221 0.009 -0.975 35 23 7
-3404.6724 6267.0918 1406.9504 0.167 -0.192 -0.967 28 17 5
-3277.7092 6202.1782 1341.9150 0.844 -0.421 -0.333 25 22 15
-3194.5691 6072.8374 1308.4994 0.565 -0.811 -0.153 29 26 17
-3264.1899 6391.6226 1314.2487 0.660 -0.488 -0.572 20 17 8
-3202.4619 6346.6074 1284.0505 0.654 0.170 -0.738 17 17 9
-2519.2576 5853.5957 949.2660 -0.332 -0.894 -0.302 39 37 38
-2412.6685 6055.7065 867.5615 0.639 0.264 -0.723 23 15 38
-2223.5601 6124.0039 753.2654 0.194 0.061 -0.979 24 19 15
-2225.7778 6155.3560 751.2095 0.163 0.040 -0.986 28 25 20
-2257.1675 6343.6978 749.0891 0.174 -0.984 0.038 20 15 11
-1870.5780 5994.1436 567.1080 0.458 0.141 -0.878 11 6 2
-1885.7134 6067.1670 567.9648 0.294 0.076 -0.953 12 7 3
-1855.0432 6051.7661 552.2249 0.669 0.142 -0.730 18 19 14
-1837.6096 6023.7354 545.3140 0.002 -0.958 -0.287 24 23 19
-1661.0133 5717.5693 477.6575 0.855 0.069 -0.513 38 37 33
-1698.2494 5866.4058 483.0207 -0.391 -0.537 -0.747 37 38 33
-1687.2158 5856.3032 477.8401 -0.371 -0.485 -0.792 35 39 32
-1674.0604 5838.9604 472.2228 0.943 0.036 -0.330 14 19 12
-1700.1139 5952.7666 474.9542 0.942 0.118 0.315 10 16 6
-1700.4535 5981.0010 472.1641 0.824 -0.016 0.566 13 15 6
-1670.2549 5933.1299 460.1209 0.805 -0.086 0.587 28 18 12
-1648.0988 5966.2017 444.0817 0.902 -0.055 0.428 131 99 89
-1639.4662 5963.7251 439.4551 0.856 -0.130 0.500 154 119 104
-1626.7719 5946.9580 434.0381 0.822 -0.230 0.521 179 146 130
-1618.8707 5946.7930 429.5817 0.827 -0.219 0.518 199 167 152
-4545.9214 3513.2336 2330.2979 0.225 -0.631 -0.743 169 165 158
-3144.1084 3028.1243 1591.1782 0.739 -0.314 -0.596 74 24 20
-3143.4407 3038.7505 1589.6633 0.651 -0.693 -0.309 136 80 79
-3142.8342 3049.4639 1588.1738 0.678 -0.549 -0.489 180 118 117
-3139.3909 3057.5981 1585.3595 0.683 -0.543 -0.488 188 102 100
-3129.6042 3071.2114 1578.3787 0.609 -0.439 -0.661 137 39 38
-4280.3535 4888.7505 2033.1196 0.150 -0.834 -0.531 182 152 141
-4342.4263 4975.3667 2058.8726 0.532 -0.802 0.271 184 150 140
-4554.6934 5248.5015 2149.4077 0.893 -0.408 0.192 185 150 140
-4485.3892 5190.3545 2116.5251 0.807 -0.483 0.338 186 149 140
-3736.5593 4839.2993 1731.5410 0.756 0.366 -0.542 165 129 112
-3725.9490 5134.9473 1693.8907 0.948 -0.070 0.310 135 106 82
-3762.7861 5476.2173 1678.1299 -0.075 -0.928 -0.365 64 36 17
-3712.4692 5607.2881 1635.6979 0.038 -0.474 -0.879 99 60 45
-3731.2214 5867.2568 1618.4384 0.831 -0.486 0.269 84 61 43
-3679.0051 5809.1660 1595.1929 0.700 -0.631 0.333 85 59 42
-3621.6355 5742.6602 1569.9406 0.895 -0.371 0.247 85 59 42
-3658.2725 5972.6147 1565.9883 0.862 -0.506 0.033 95 68 45
-3650.9792 5983.1753 1560.7417 0.999 0.017 -0.052 87 60 34
-3437.3176 5944.8691 1444.2703 0.901 -0.427 0.069 95 69 43
-3398.0691 6079.8252 1407.6682 0.888 0.270 -0.372 87 68 48
-3410.6946 6124.5396 1410.0043 0.888 0.270 -0.372 75 60 44
-3391.2991 6136.5952 1397.7678 -0.236 -0.822 -0.519 46 33 17
-3407.3481 6234.4175 1396.3483 0.224 0.011 -0.974 34 22 6
-3203.4099 6075.2622 1298.3064 0.573 -0.795 -0.199 32 29 20
-3216.7195 6122.7212 1300.7346 0.736 -0.378 -0.562 31 27 18
-3119.2329 5988.3003 1260.1168 0.462 0.208 -0.862 23 19 10
-3114.7952 6002.7041 1256.0701 0.441 0.217 -0.871 20 16 5
-3236.6514 6421.6260 1279.9711 0.765 0.350 -0.541 22 19 12
-3231.0068 6459.8130 1272.6960 0.392 0.159 -0.906 21 18 11
-2531.7417 5866.5039 941.6269 -0.334 -0.890 -0.310 33 31 29
-2520.5024 5864.4229 935.5072 -0.334 -0.890 -0.310 36 34 31
-2517.3206 5880.3857 932.0021 -0.325 -0.889 -0.321 45 43 39
-2418.8955 6054.4541 857.8167 0.655 0.271 -0.705 33 15 35
