ply
format ascii 1.0
element vertex 787
property float x
property float y
property float z
property float nx
property float ny
property float nz
property uchar diffuse_red
property uchar diffuse_green
property uchar diffuse_blue
end_header
-999.5412 5558.9727 -1228.3467 0.618 -0.781 -0.086 223 122 111
-522.3356 4440.4746 -1149.6655 0.743 -0.611 -0.274 251 131 123
-3172.4888 3181.0291 1384.9161 0.944 -0.258 0.207 173 104 62
-3184.7114 3272.7271 1357.5052 -0.092 -0.734 -0.673 51 41 26
-3166.9600 3263.9319 1347.3751 0.074 -0.696 -0.714 57 45 31
-3160.4404 3265.4153 1341.7621 0.082 -0.712 -0.698 60 44 32
-3149.1470 3269.9839 1331.2365 -0.266 -0.952 -0.152 58 40 27
-3126.6328 3256.6326 1319.2700 -0.267 -0.936 -0.230 55 38 25
-2968.3979 3219.4956 1212.4034 -0.127 -0.516 -0.847 112 55 30
-2961.9180 3235.8179 1200.8629 0.099 -0.672 -0.734 82 30 12
-2956.3853 3238.0120 1195.7240 0.296 -0.860 -0.416 72 27 13
-2950.0425 3239.4163 1190.2788 0.273 -0.950 -0.150 66 27 16
-2947.4177 3244.4492 1186.2382 0.296 -0.865 -0.404 63 29 18
-2944.4500 3249.1602 1182.0625 0.280 -0.869 -0.408 62 30 17
-2944.9053 3257.2456 1179.1666 0.648 -0.643 -0.409 64 30 18
-2943.4539 3263.4832 1175.5452 0.642 -0.645 -0.414 65 30 19
-2940.8860 3268.6389 1171.4989 0.642 -0.645 -0.414 64 31 20
-2940.0801 3275.5530 1168.1025 0.265 -0.938 -0.222 65 31 20
-2932.3208 3275.5916 1162.1155 0.268 -0.931 -0.247 73 35 24
-2903.2588 3254.4277 1148.2469 0.426 -0.761 0.489 83 46 32
-2896.4695 3255.3562 1142.6490 0.272 -0.798 0.539 101 64 47
-2884.3250 3250.9236 1135.0824 0.323 -0.786 0.526 115 77 56
-2851.0308 3400.2212 1049.5153 0.076 -0.793 -0.604 219 163 122
-2322.5203 3265.6960 696.7869 0.126 -0.674 0.728 127 83 58
-2235.6399 3507.4026 532.8770 0.360 -0.852 -0.380 227 187 174
-2227.8181 3506.3181 527.2925 0.352 -0.865 -0.358 225 185 172
-2711.4873 5424.3765 129.4100 0.735 -0.667 0.121 212 159 143
-2587.9314 5215.8354 118.0524 -0.742 -0.651 0.161 212 159 143
-2507.7810 5208.1338 59.4610 0.212 -0.728 0.652 218 165 149
-2355.2478 5239.4580 -70.5053 -0.276 -0.931 -0.238 230 183 165
-2324.4485 5271.3115 -106.9981 -0.019 -0.951 0.307 233 187 171
-2312.0217 5264.8164 -113.9538 -0.004 -0.955 0.297 233 187 171
-2286.2478 5249.6875 -127.7149 -0.002 -0.842 -0.540 235 189 173
-2275.9819 5247.4727 -134.7263 -0.082 -0.813 -0.576 235 189 173
-2268.8936 5251.8779 -141.9503 -0.082 -0.813 -0.576 235 189 173
-2257.9753 5248.2324 -148.8893 -0.049 -0.822 -0.567 234 190 173
-2341.7212 5444.5420 -163.2582 -0.236 -0.954 0.186 238 195 181
-2127.0581 5046.6216 -168.6948 -0.269 -0.405 -0.874 237 195 181
-2125.1028 5061.2100 -176.0570 -0.269 -0.405 -0.874 240 198 184
-2183.6880 5225.8311 -197.0664 -0.332 -0.907 0.259 239 197 183
-2187.6680 5254.1157 -205.3600 -0.344 -0.927 0.151 239 197 183
-1114.8898 5716.1611 -1216.4834 -0.273 -0.957 0.098 231 142 134
-1102.3042 5697.3052 -1218.5986 -0.224 -0.971 0.086 232 142 134
-1013.8618 5592.8960 -1244.7428 0.141 -0.886 -0.442 217 116 105
-1006.5383 5596.5547 -1251.8479 0.148 -0.887 -0.438 215 109 98
-968.9683 5570.7173 -1270.3878 -0.264 -0.893 -0.364 237 116 100
-922.3260 5418.3853 -1245.1212 -0.162 -0.748 0.643 230 109 97
-498.1727 3870.3909 -950.0186 -0.290 -0.776 -0.561 255 131 131
-528.5717 4445.6050 -1157.5760 0.533 -0.621 -0.574 248 128 120
-2764.8708 2709.1638 1251.9398 0.743 -0.566 0.356 188 188 163
-2765.0596 2715.2690 1249.6189 0.743 -0.561 0.364 170 169 154
-3178.5862 3180.8354 1379.4182 0.939 -0.260 0.225 159 97 61
-3227.0957 3260.6960 1384.4475 -0.136 -0.804 -0.579 56 30 25
-3221.1648 3262.7617 1379.0547 0.175 -0.976 0.134 54 33 26
-3218.0681 3267.3904 1374.8051 0.389 -0.807 -0.445 50 36 27
-3214.4739 3271.5789 1370.3507 0.389 -0.807 -0.445 47 40 30
-3208.3152 3273.4451 1364.8634 0.306 -0.808 -0.504 45 40 28
-3214.8818 3286.9077 1364.4731 0.223 -0.755 -0.616 43 41 27
-3211.6011 3291.4272 1360.1260 0.223 -0.755 -0.616 47 42 30
-3147.5107 3240.2571 1331.5332 -0.024 -0.670 0.742 54 46 36
-3182.1282 3279.4607 1342.3063 -0.026 -0.618 0.786 56 44 36
-3145.1873 3252.9751 1324.6106 0.037 -0.573 0.819 58 44 36
-2984.7266 3170.0005 1234.7924 -0.003 -0.673 0.740 159 111 99
-2954.0957 3155.6807 1217.0328 -0.013 -0.671 0.741 146 90 69
-2938.6179 3177.5898 1196.2876 0.346 -0.603 -0.719 36 16 2
-2936.5286 3182.9709 1192.5083 0.359 -0.608 -0.708 38 14 1
-2976.6707 3229.0344 1204.7570 -0.124 -0.523 -0.843 42 16 2
-2942.4409 3203.5225 1188.7518 -0.153 -0.582 -0.799 37 9 0
-2939.9819 3208.6184 1184.8037 -0.153 -0.585 -0.797 30 4 0
-2942.0742 3248.4185 1170.3365 0.332 -0.774 -0.538 23 7 0
-2942.7732 3256.7415 1167.5122 0.353 -0.801 -0.484 25 7 1
-2941.0942 3262.7529 1163.7938 0.432 -0.813 -0.391 20 8 1
-2937.0540 3266.4509 1159.1948 0.403 -0.811 -0.424 25 8 1
-2918.6960 3255.9788 1149.3145 0.394 -0.751 0.530 28 1 0
-2887.5173 3232.7134 1134.7469 0.365 -0.827 0.427 40 6 1
-2888.4399 3241.2678 1132.0012 0.340 -0.801 0.492 66 28 19
-2878.5979 3239.1128 1125.3068 0.343 -0.794 0.501 94 49 35
-2748.8879 3391.6785 963.9901 -0.466 -0.799 -0.379 224 211 207
-2730.9807 3380.3904 954.7856 -0.462 -0.799 -0.386 221 210 207
-2737.4709 3395.9182 953.5023 -0.109 -0.978 -0.175 221 210 206
-2326.2285 3221.3167 707.9391 0.822 -0.541 -0.178 132 79 56
-2327.5144 3231.2241 704.9260 0.372 -0.897 0.240 131 80 55
-2321.5776 3232.3420 699.9114 0.372 -0.897 0.240 141 92 66
-2322.1069 3241.3845 696.6660 0.831 -0.549 -0.086 127 82 56
-2318.9009 3254.3269 688.9744 0.384 -0.786 0.485 97 51 25
-2214.6367 3158.4460 647.5620 -0.529 -0.671 0.519 213 172 148
-2226.8992 3365.1335 573.5068 -0.567 -0.727 -0.387 213 178 158
-2208.6819 3377.4719 554.5214 -0.072 -0.613 -0.787 216 180 162
-2206.2380 3383.4165 550.2420 -0.046 -0.609 -0.792 223 186 168
-2701.0422 5390.0068 120.0982 0.790 -0.613 0.000 230 177 161
-2541.0525 5149.8008 94.1471 -0.658 -0.696 0.288 224 171 155
-2461.3032 5088.1997 57.7316 0.630 -0.528 0.569 223 170 154
-2427.5176 5094.0352 29.4068 0.443 -0.679 0.585 228 175 159
-2367.9441 5249.1494 -79.0321 -0.280 -0.938 -0.203 230 183 165
-2195.0898 5099.9375 -151.6229 -0.011 -0.967 -0.254 234 190 173
-2119.8210 5391.1191 -327.0823 -0.518 -0.809 -0.280 246 201 196
-2110.0415 5389.7070 -334.0285 -0.249 -0.708 -0.661 246 202 196
-2104.1040 5397.1602 -341.6025 -0.241 -0.708 -0.664 245 203 199
-2123.6423 5507.3765 -371.1013 -0.191 -0.400 -0.896 244 203 201
-2088.7744 5447.1694 -373.5834 -0.219 -0.677 -0.703 247 206 204
-2059.3040 5399.2012 -376.8605 0.313 -0.399 -0.862 247 206 204
-2041.2206 5399.4614 -390.8647 0.545 -0.231 -0.806 247 206 204
-1998.0732 5317.8281 -391.0566 0.597 -0.309 -0.740 254 210 209
-1045.2600 5592.2300 -1234.2262 0.412 -0.747 -0.522 228 125 116
-968.7803 5574.1548 -1285.7087 -0.222 -0.907 -0.359 222 105 93
-673.9054 4338.5225 -1013.2845 -0.232 -0.947 0.220 248 25 58
-503.6649 3874.7046 -956.7985 0.313 -0.942 -0.121 255 131 129
-547.3887 4453.0439 -1156.7810 0.005 -0.946 0.323 255 138 136
-538.6555 4436.2686 -1156.7180 0.544 -0.617 -0.569 255 139 134
-534.1824 4446.5991 -1164.3285 0.402 -0.515 -0.757 249 128 121
-2767.3860 2712.6243 1243.7373 0.828 -0.547 -0.125 166 178 164
-2761.2913 2713.3604 1238.7599 0.312 -0.847 0.431 160 164 156
-2755.9246 2714.7151 1234.0900 0.320 -0.843 0.434 150 144 145
-2749.5615 2715.2100 1229.0044 -0.241 -0.891 0.386 156 133 134
-2749.2043 2720.8755 1226.4285 0.132 -0.873 0.469 190 151 137
-3178.2710 3174.9465 1371.3053 0.939 -0.260 0.225 114 62 35
-3217.4099 3238.8452 1375.3879 0.973 -0.222 0.067 51 26 20
-3230.8977 3258.3159 1377.8308 0.268 -0.850 -0.454 48 31 28
-3225.7429 3261.0781 1372.7517 0.175 -0.976 0.134 51 38 32
-3224.4888 3267.3647 1369.2349 0.389 -0.807 -0.445 50 40 31
-3220.8967 3271.5542 1364.7753 0.389 -0.807 -0.445 44 40 33
-3214.5205 3280.6960 1356.1666 0.252 -0.785 -0.565 41 41 31
-3137.0320 3224.8706 1319.3661 -0.399 -0.851 0.341 51 46 39
-3162.1797 3270.2195 1320.2455 -0.033 -0.562 0.827 65 54 50
-3136.9792 3254.4556 1307.3059 -0.038 -0.555 0.831 84 74 69
-2942.6746 3131.9390 1207.9308 0.474 -0.816 0.332 89 52 39
-2934.8540 3139.0056 1199.0565 0.477 -0.820 0.317 44 17 3
-2944.8933 3163.0908 1196.9773 0.417 -0.546 -0.727 27 15 2
-2952.1384 3177.3306 1196.7535 0.450 -0.491 -0.746 21 17 5
-2950.9883 3183.6030 1193.3221 0.450 -0.491 -0.746 19 18 7
-2984.8369 3230.9497 1200.0688 0.726 -0.422 -0.543 26 19 9
-2987.6948 3241.2329 1198.0847 0.346 -0.713 -0.611 21 14 3
-2980.8938 3242.2273 1192.4601 -0.204 -0.624 -0.754 13 7 0
-2976.4976 3245.5439 1187.7379 -0.247 -0.622 -0.743 15 11 3
-2966.2949 3243.2290 1180.8468 -0.222 -0.623 -0.750 16 14 5
-2958.1528 3242.8962 1174.7319 -0.162 -0.611 -0.775 16 14 4
-2947.8513 3248.0432 1164.7332 0.287 -0.748 -0.598 18 15 3
-2944.7500 3252.6289 1160.4894 0.287 -0.748 -0.598 19 15 3
-2941.6436 3257.2214 1156.2390 0.287 -0.748 -0.598 19 14 4
-2904.7974 3228.5686 1139.5964 0.324 -0.792 0.518 23 12 4
-2904.2490 3235.6279 1136.3075 0.389 -0.779 0.492 36 16 11
-2894.3936 3233.4910 1129.6105 0.253 -0.848 0.466 43 14 12
-2886.5461 3233.3262 1123.6537 0.368 -0.821 0.436 42 9 7
-2879.6316 3234.0776 1118.0405 0.343 -0.794 0.501 47 7 2
-2873.9385 3236.0413 1112.8726 0.324 -0.794 0.515 103 56 41
-2868.2722 3238.0303 1107.7151 0.340 -0.793 0.505 149 93 73
-2902.1738 3366.9915 1081.3436 0.407 -0.671 -0.620 170 98 43
-2909.2947 3382.4722 1080.5200 0.020 -0.723 -0.691 173 99 47
-2866.6472 3403.5327 1039.2267 0.076 -0.790 -0.609 185 116 76
-2845.3154 3430.8352 1011.7594 -0.530 -0.771 -0.352 220 167 142
-2811.5508 3419.6450 990.3876 -0.023 -0.998 -0.066 245 201 186
-2803.7988 3419.6519 984.4343 -0.551 -0.786 -0.280 243 206 193
-2789.3716 3412.3828 976.3128 -0.559 -0.802 -0.208 239 206 197
-2776.2063 3406.4397 968.6216 -0.522 -0.844 -0.126 237 207 199
-2766.8804 3404.6521 962.1890 -0.461 -0.806 -0.372 232 208 201
-2328.8430 3201.2212 708.5950 0.976 -0.219 -0.007 127 76 57
-2329.2317 3218.2251 701.9850 0.823 -0.543 -0.164 124 75 53
-2335.0298 3233.5994 700.1893 0.024 -0.999 -0.048 123 76 52
-2323.8679 3228.3530 693.7526 0.364 -0.902 0.230 106 62 38
-2325.2051 3238.3601 690.7134 0.818 -0.567 -0.094 101 59 36
-2250.5566 3370.7627 579.6190 -0.410 -0.679 -0.609 159 130 112
-2243.8877 3380.2056 570.6632 -0.567 -0.724 -0.394 129 98 82
-2221.1399 3386.6475 550.5844 -0.079 -0.612 -0.787 156 124 108
-2216.7031 3389.9319 545.8444 -0.046 -0.609 -0.792 165 131 116
-2227.8535 3480.7122 517.5209 0.001 -0.636 -0.772 221 185 170
-2190.1450 3457.4263 498.0359 -0.653 -0.718 -0.242 219 183 168
-2714.3643 5399.0537 111.5826 0.737 -0.675 -0.036 233 180 164
-2533.9915 5139.5146 78.5721 -0.658 -0.697 0.286 231 178 162
-2427.1106 5078.5137 21.3124 0.220 -0.788 0.575 228 175 159
-2411.1162 5065.5186 14.3145 0.195 -0.784 0.589 228 175 159
-2138.8142 5192.6948 -246.3789 0.655 -0.694 -0.300 242 202 192
-2139.0291 5212.8442 -254.4003 0.560 -0.774 -0.296 242 202 192
-1879.0990 5518.4883 -578.1055 -0.093 -0.620 -0.779 255 207 210
-1042.5605 5546.9390 -1231.8058 0.491 -0.828 -0.272 239 136 127
-1035.2871 5550.5723 -1238.8651 0.487 -0.838 -0.247 230 126 117
-991.9867 5535.8110 -1266.1060 0.941 -0.311 -0.135 224 103 91
-506.8040 3865.2959 -959.8364 0.333 -0.939 -0.086 255 132 129
-552.6669 4451.7852 -1162.9127 -0.009 -0.935 0.353 255 137 136
-544.0863 4436.1343 -1163.1405 0.548 -0.610 -0.572 255 138 134
-540.9586 4455.0083 -1173.2096 0.410 -0.514 -0.753 251 126 122
-2766.4812 2713.1660 1234.0885 0.560 -0.804 0.200 91 120 115
-2766.9795 2719.5457 1231.8632 0.078 -0.945 0.319 86 106 114
-2760.8550 2720.2622 1226.8752 -0.206 -0.905 0.372 100 103 115
-2775.1509 2738.5432 1230.3639 0.365 -0.805 0.466 175 159 160
-2768.2234 2738.5977 1225.0309 0.365 -0.805 0.466 208 182 174
-3074.0042 3063.2092 1326.7911 0.969 -0.218 -0.113 140 95 68
-3219.2395 3234.7415 1368.0322 0.977 -0.212 0.032 48 33 28
-3250.8945 3270.4646 1377.7008 0.124 -0.987 0.105 46 35 31
-3246.0945 3273.5776 1372.7488 0.155 -0.985 0.072 49 37 31
-2939.8083 3102.1372 1208.0043 0.300 -0.657 -0.692 80 61 61
-2946.8408 3130.1816 1201.9346 0.249 -0.700 -0.669 28 14 1
-2955.6599 3145.7039 1202.3522 0.196 -0.710 -0.677 25 15 2
-2957.2688 3154.4802 1199.9988 0.192 -0.671 -0.716 22 14 3
-2966.6389 3170.6411 1200.5778 0.259 -0.671 -0.695 22 16 8
-3018.7322 3234.9216 1214.2443 0.629 -0.522 -0.576 21 21 16
-2968.1487 3194.1592 1192.1239 0.674 -0.401 -0.621 22 23 17
-2967.2998 3200.7620 1188.7750 0.674 -0.401 -0.621 22 22 14
-2980.4348 3228.2949 1187.5927 0.462 -0.557 -0.690 18 19 12
-2948.6953 3205.2219 1172.6895 0.748 -0.600 -0.284 17 18 11
-2935.1301 3199.5850 1164.5939 0.639 -0.753 -0.159 14 15 10
-2915.1855 3187.7268 1154.1497 0.650 -0.759 0.032 11 13 6
-2909.0122 3189.1738 1148.8258 0.688 -0.725 0.033 11 13 5
-2903.3618 3191.1260 1143.6963 0.716 -0.698 0.015 11 14 4
-2891.9058 3187.4089 1136.4327 0.597 -0.777 0.200 9 12 3
-2896.9966 3199.8564 1135.2485 0.508 -0.831 0.226 13 15 7
-2890.4067 3200.8950 1129.7723 0.099 -0.770 0.631 17 20 12
-2882.5520 3200.6829 1123.8373 0.073 -0.778 0.624 16 16 7
-2900.7332 3226.1355 1127.3737 0.268 -0.765 0.585 21 17 11
-2898.7102 3231.7302 1123.5364 0.253 -0.764 0.593 23 17 12
-2891.3962 3232.0974 1117.7794 0.324 -0.794 0.515 22 15 9
-2883.1377 3231.5159 1111.6857 0.324 -0.794 0.515 23 11 2
-2874.8950 3230.9360 1105.6036 0.324 -0.794 0.515 42 21 4
-2858.6445 3222.3428 1096.6575 0.197 -0.747 0.635 87 53 31
-2841.4612 3220.3679 1084.2911 0.245 -0.771 0.588 172 98 71
-2834.8098 3221.3088 1078.8075 0.238 -0.766 0.597 180 92 51
-2824.5984 3218.6504 1072.0656 0.214 -0.741 0.637 189 94 44
-2905.8828 3372.4688 1071.5193 0.495 -0.782 0.378 184 96 43
-2899.4094 3373.8889 1065.9763 0.495 -0.782 0.378 182 93 42
-2897.0244 3379.5496 1061.8346 0.480 -0.807 0.342 188 101 48
-2893.0479 3383.5708 1057.1427 0.503 -0.853 0.139 187 101 46
-2872.6978 3411.5959 1030.0885 0.093 -0.791 -0.605 187 101 50
-2852.5505 3440.2874 1002.9178 -0.572 -0.781 -0.250 190 123 91
-2835.9822 3430.8843 994.0588 -0.567 -0.783 -0.255 191 125 94
-2818.3103 3420.2273 984.8664 -0.313 -0.896 -0.314 199 133 105
-2819.2026 3429.6045 981.7183 -0.549 -0.789 -0.275 216 153 128
-2803.5212 3421.0237 973.2032 -0.556 -0.804 -0.209 218 161 139
-2787.8403 3412.3853 964.7121 -0.556 -0.804 -0.209 221 169 146
-2776.8359 3408.7932 957.7438 -0.453 -0.812 -0.368 225 179 159
-2763.2319 3402.3245 949.9582 -0.428 -0.808 -0.405 231 193 178
-2764.7002 3420.7996 943.5336 -0.158 -0.983 0.095 224 194 181
-2327.7166 3201.4229 698.1832 0.954 -0.157 -0.255 83 47 26
-2331.9858 3223.1396 692.5811 0.709 -0.701 0.073 85 47 28
-2326.1658 3232.7356 684.1978 0.812 -0.579 -0.071 70 35 17
-2321.2878 3235.1465 679.4728 0.144 -0.534 -0.833 76 43 24
-2354.3254 3284.1104 684.7902 -0.504 -0.848 0.163 82 47 29
-2332.6394 3406.6106 618.1028 -0.521 -0.792 -0.320 217 179 165
-2276.9038 3388.8359 582.6384 -0.485 -0.739 -0.468 102 84 75
-2267.6667 3385.8364 576.7828 -0.417 -0.688 -0.594 38 21 16
-2261.2007 3395.6299 567.8235 -0.568 -0.730 -0.380 24 7 2
-2231.9888 3393.6204 546.2501 -0.079 -0.612 -0.787 29 10 3
-2229.6797 3399.7817 541.9620 -0.070 -0.612 -0.788 32 13 6
-2229.3867 3418.0142 534.2863 -0.029 -0.404 -0.914 59 40 31
-2253.2288 3507.6855 515.9182 0.063 -0.607 -0.793 197 163 157
-2236.5940 3494.4871 508.5593 -0.586 -0.661 -0.469 217 183 177
-2426.8108 5063.2803 13.2639 -0.153 -0.824 0.545 229 177 163
-2408.3447 5045.5903 6.3365 0.156 -0.822 0.547 229 177 163
-1676.0231 4921.8286 -504.5029 0.375 -0.496 0.783 255 207 208
-1644.8318 4902.9893 -520.7159 -0.503 -0.811 0.299 239 184 186
-1059.5201 5591.4526 -1250.7867 0.933 -0.055 0.356 244 141 132
-1026.1287 5512.5962 -1244.1592 0.792 -0.412 0.450 233 130 123
-666.5474 4245.4565 -1001.9802 -0.514 -0.814 -0.270 252 23 58
-554.9041 4431.5972 -1163.6393 0.196 -0.600 -0.776 254 133 134
-2794.1216 2714.2463 1246.0768 0.364 -0.930 0.037 63 106 114
-2790.1436 2728.7190 1237.0819 -0.279 -0.814 -0.510 48 93 101
-2784.3784 2729.7771 1232.2330 -0.279 -0.814 -0.510 45 87 99
-2774.7915 2727.5564 1225.8058 0.034 -0.934 0.356 59 89 100
-2779.0308 2737.1897 1225.0917 0.340 -0.818 0.463 145 147 158
-2769.1274 2734.6848 1218.5389 0.356 -0.848 0.393 190 178 184
-3102.4885 3082.9146 1330.6301 0.917 -0.235 -0.322 112 75 52
-3156.5190 3180.1860 1332.0138 0.967 -0.145 0.212 48 38 30
-3152.3694 3212.6667 1315.4852 -0.222 -0.875 -0.431 54 46 37
-3119.4797 3197.3650 1296.5935 -0.201 -0.916 -0.348 57 49 44
-3056.7678 3154.5737 1266.1687 -0.509 -0.840 0.189 65 55 53
-3021.5630 3129.4709 1249.5333 -0.508 -0.841 0.187 68 58 56
-3000.6226 3117.3518 1238.4821 -0.487 -0.856 0.176 72 62 60
-2971.0989 3097.2478 1224.1416 -0.471 -0.865 0.172 77 69 66
-2954.8655 3089.3169 1214.9728 -0.384 -0.888 0.254 83 76 73
-2927.7209 3071.2256 1201.6265 -0.409 -0.893 0.187 67 60 57
-2958.0142 3106.3872 1210.3667 0.045 -0.511 -0.858 34 27 24
-2949.7378 3105.7966 1204.2727 0.157 -0.626 -0.764 27 20 16
-2947.5845 3110.9084 1200.5228 0.157 -0.626 -0.764 18 12 7
-2951.8975 3122.0864 1199.2302 0.177 -0.606 -0.776 16 10 6
-2952.1021 3129.4546 1196.3582 0.237 -0.705 -0.669 20 14 8
-2970.0674 3153.5537 1200.2069 0.234 -0.734 -0.638 21 14 9
-2983.7439 3173.7185 1202.3893 0.101 -0.974 0.205 19 14 9
-2985.9927 3183.1709 1200.2256 0.237 -0.680 -0.694 21 17 12
-2967.8281 3180.6548 1187.3523 0.247 -0.679 -0.692 22 21 16
-2961.8647 3182.3411 1182.0935 0.272 -0.675 -0.686 22 21 16
-2959.3901 3187.3555 1178.1377 0.272 -0.675 -0.686 21 20 15
-2915.4961 3204.5039 1137.4817 0.024 -0.663 0.748 6 8 5
-2893.0303 3190.0608 1126.2179 0.078 -0.760 0.645 2 3 0
-2885.2542 3189.9177 1120.3230 0.090 -0.753 0.652 6 6 3
-2901.4268 3213.2739 1123.1046 0.676 -0.615 0.407 13 13 10
-2893.0991 3220.1763 1113.8916 0.695 -0.604 0.390 15 16 11
-2892.4517 3227.1152 1110.5435 0.810 -0.556 0.188 15 19 8
-2888.5076 3230.8086 1106.0055 0.805 -0.562 0.192 15 19 2
-2882.2468 3232.2058 1100.6377 0.441 -0.861 0.252 28 19 0
-2874.7280 3232.3450 1094.8239 -0.183 -0.957 0.225 69 42 24
-2862.5659 3227.8325 1087.3671 -0.202 -0.954 0.220 146 93 78
-2827.1301 3199.9653 1071.6910 -0.315 -0.904 0.288 167 97 77
-2839.5056 3219.9729 1072.9419 -0.153 -0.963 0.223 176 91 50
-2919.7502 3380.3137 1068.4708 0.654 -0.712 0.256 190 95 40
-2922.6335 3391.4292 1066.1094 0.406 -0.859 0.310 190 95 40
-2920.0212 3396.8958 1061.8622 0.281 -0.912 0.299 193 98 43
-2916.9324 3401.8838 1057.4469 0.434 -0.875 0.213 193 98 43
-2879.7461 3404.1482 1028.0450 0.075 -0.799 -0.596 195 99 43
-2922.6050 3474.5234 1031.9312 -0.447 -0.733 -0.513 195 99 42
-2894.4580 3461.5090 1015.7304 -0.317 -0.734 -0.601 191 101 48
-2872.3096 3454.7378 1001.5561 -0.567 -0.783 -0.255 184 104 61
-2791.9126 3418.4900 954.9011 -0.453 -0.812 -0.368 186 119 85
-2777.8289 3411.5449 946.9730 -0.428 -0.808 -0.405 189 134 107
-2767.1472 3408.2759 940.1385 -0.355 -0.854 -0.381 183 136 114
-2771.3674 3421.3389 937.9999 -0.158 -0.983 0.095 183 137 116
-2779.4778 3438.7422 937.0558 -0.172 -0.933 -0.317 198 151 128
-2387.0552 3159.8789 751.2313 0.021 -0.937 -0.350 140 96 80
-2378.4924 3157.8843 745.4952 -0.211 -0.961 -0.180 129 87 70
-2360.7854 3153.1458 733.8859 0.015 -0.994 -0.110 76 36 21
-2354.5378 3153.8013 728.8329 0.015 -0.994 -0.110 86 55 37
-2338.1411 3158.5000 714.3475 0.255 -0.939 -0.232 78 61 39
-2336.9438 3222.4155 687.1581 0.795 -0.594 -0.119 58 30 15
-2330.4792 3222.8831 682.0164 0.401 -0.891 0.212 54 27 12
-2327.3506 3227.4045 677.7623 0.614 -0.759 -0.215 58 31 16
-2360.0742 3284.2385 679.4547 -0.502 -0.857 0.112 69 43 27
-2437.9775 3487.8743 655.3945 0.809 -0.553 0.199 212 174 156
-2432.9668 3490.7759 650.3652 0.808 -0.537 0.242 203 171 164
-2291.6604 3400.6953 579.2041 -0.485 -0.739 -0.468 26 21 19
-2282.4062 3397.7236 573.3405 -0.417 -0.688 -0.594 15 9 7
-2275.8584 3398.2822 568.0975 -0.417 -0.688 -0.594 21 13 9
-2277.2065 3409.2507 564.6210 -0.546 -0.732 -0.408 20 13 8
-2243.9412 3402.0281 542.1207 -0.072 -0.608 -0.790 18 10 8
-2241.0596 3407.4409 537.6896 -0.072 -0.608 -0.790 17 11 8
-2262.9502 3513.0586 511.0348 0.063 -0.607 -0.793 81 52 55
-2256.8054 3514.3433 505.8022 -0.586 -0.661 -0.469 109 82 84
-1691.8108 4944.8101 -514.7822 -0.476 -0.873 0.111 253 205 202
-1043.7194 5523.8438 -1249.0009 0.831 -0.101 0.547 241 137 128
-1022.8939 5501.8550 -1255.9069 0.790 -0.158 0.592 203 100 90
-1016.1359 5507.5229 -1263.4110 0.790 -0.158 0.592 213 109 96
-561.5535 4438.9624 -1172.2166 0.192 -0.595 -0.780 255 131 135
-2792.3008 2708.1045 1238.4678 0.345 -0.937 0.051 29 74 100
-2801.8125 2734.0037 1235.0332 -0.279 -0.814 -0.510 26 72 99
-2796.0288 2735.0625 1230.1730 -0.279 -0.814 -0.510 29 75 101
-2794.3118 2739.5945 1226.9863 -0.268 -0.819 -0.507 43 79 100
-2789.8005 2741.7437 1222.6482 -0.262 -0.820 -0.510 110 120 137
-5156.1294 4792.0742 2184.3633 -0.152 -0.492 -0.857 171 156 161
-3114.7581 3088.3000 1327.8453 0.880 -0.231 -0.416 85 47 26
-3175.4124 3235.1323 1313.5179 0.661 -0.438 0.609 56 49 41
-2983.3123 3102.9436 1221.2812 -0.476 -0.862 0.174 55 47 44
-3032.7043 3162.8069 1234.2988 -0.377 -0.880 0.290 23 18 14
-3022.8948 3160.9556 1227.5634 -0.385 -0.881 0.274 18 13 9
-3003.8943 3150.5422 1217.3401 -0.375 -0.871 -0.319 23 18 14
-2995.4917 3149.9397 1211.1641 -0.341 -0.863 -0.373 31 26 22
-2983.7891 3146.2410 1203.7450 -0.292 -0.875 -0.385 28 23 19
-3034.8843 3201.3142 1220.0453 -0.124 -0.918 -0.376 19 14 10
-2951.5400 3137.6565 1182.6349 0.136 -0.989 -0.064 20 15 11
-2888.2263 3128.1562 1138.1501 0.596 -0.801 -0.048 21 20 15
-2888.4819 3135.6567 1135.2446 0.597 -0.802 -0.022 20 19 15
-2891.5662 3145.9067 1133.3651 0.614 -0.774 -0.157 15 16 11
-2881.3486 3143.3613 1126.6046 0.623 -0.748 -0.230 10 12 9
-2855.8958 3140.6370 1108.2686 0.936 -0.347 0.062 22 24 21
-2893.1260 3184.2600 1118.7010 -0.201 -0.871 0.449 12 14 11
-2883.4082 3182.2122 1112.1171 -0.020 -0.803 0.596 2 2 1
-2870.6172 3177.1316 1104.4370 0.295 -0.757 0.583 6 7 5
-2894.3242 3207.8640 1109.8584 0.739 -0.600 0.307 15 15 13
-2890.9082 3212.0325 1105.5229 0.892 -0.434 -0.128 16 17 12
-2888.8025 3217.5042 1101.6505 0.892 -0.434 -0.128 15 19 8
-2888.3179 3224.5972 1098.3475 0.891 -0.437 -0.121 13 20 2
-2885.6357 3229.5342 1094.2554 0.851 -0.507 -0.139 28 23 3
-2880.4697 3232.0139 1089.2800 -0.116 -0.966 0.233 55 31 13
-2868.6748 3227.8833 1081.9689 -0.202 -0.954 0.220 128 78 63
-2858.9995 3225.8394 1075.4156 -0.186 -0.957 0.223 164 95 75
-2845.1487 3219.5876 1067.4093 -0.153 -0.963 0.223 178 94 52
-2882.3928 3400.3477 1021.1543 -0.242 -0.827 -0.507 195 99 41
-2875.4851 3409.5896 1012.0513 -0.228 -0.825 -0.518 195 99 41
-2794.4241 3431.3472 941.0727 -0.341 -0.902 -0.263 175 109 74
-2785.0818 3429.5920 934.6547 -0.297 -0.912 -0.283 175 111 76
-2785.2642 3438.2788 931.2028 -0.169 -0.909 -0.380 172 108 71
-2342.8950 3141.6492 715.5854 0.289 -0.733 0.616 40 18 1
-2353.0134 3161.5518 715.0939 0.394 -0.918 -0.032 38 18 0
-2344.1482 3159.1130 709.3232 0.261 -0.937 -0.231 37 19 0
-2361.1487 3278.6487 672.9017 -0.422 -0.903 0.074 70 42 31
-2340.7964 3270.6960 660.6273 -0.593 -0.764 0.255 117 89 78
-2366.5066 3453.6523 604.6447 -0.151 -0.392 -0.907 163 132 127
-2339.9521 3428.5518 594.7175 -0.598 -0.698 -0.394 137 115 110
-2286.6458 3414.1570 559.9083 -0.432 -0.700 -0.569 20 13 10
-2277.9204 3411.8733 554.1807 -0.449 -0.720 -0.530 17 14 9
-2228.5864 3496.5906 481.4320 -0.649 -0.752 -0.115 200 176 177
-2212.4614 3483.9368 474.3336 -0.643 -0.756 -0.122 220 189 188
-1699.0836 4945.5869 -522.5268 -0.468 -0.876 0.113 252 204 200
-1692.8928 4950.5029 -529.2931 -0.423 -0.902 0.089 247 198 194
-1039.5742 5472.9331 -1244.8459 0.833 -0.094 0.545 241 137 128
-1028.0609 5456.7739 -1246.9688 0.843 -0.094 0.530 238 130 122
-1021.9863 5465.2544 -1255.1199 0.843 -0.094 0.530 203 100 90
-1013.5037 5462.7065 -1260.5527 0.841 -0.104 0.531 214 108 97
-752.5141 4559.3652 -1086.6385 0.706 -0.682 0.188 247 46 68
-2795.5320 2724.0178 1225.5828 0.117 -0.638 -0.761 23 72 116
-2826.2871 2756.1687 1235.7001 0.359 -0.855 -0.374 32 80 121
-2808.0071 2746.6121 1225.7144 -0.121 -0.697 -0.706 40 82 114
-2803.5161 2748.7976 1221.3760 -0.098 -0.691 -0.716 80 100 121
-2823.5193 2771.9919 1227.0068 -0.196 -0.630 -0.751 143 152 164
-3047.1055 3141.6477 1244.0380 -0.324 -0.838 -0.440 40 35 31
-3023.6492 3148.7712 1223.1632 -0.131 -0.885 0.447 13 8 4
-3024.7039 3156.9482 1220.5685 -0.265 -0.933 0.243 16 11 7
-3012.1628 3152.5439 1212.8229 -0.272 -0.932 0.240 19 14 10
-2995.3899 3144.1711 1203.4956 -0.265 -0.933 0.243 21 16 12
-2980.8628 3137.8394 1195.0349 -0.265 -0.933 0.243 22 17 13
-2899.2527 3184.3452 1113.3744 -0.210 -0.867 0.452 5 7 6
-2886.7854 3179.6272 1105.8154 -0.217 -0.857 0.468 9 11 9
-2870.4648 3171.1062 1096.8953 0.042 -0.809 0.586 54 56 53
-2859.2954 3167.5801 1089.8318 0.486 -0.829 0.276 37 37 35
-2885.6265 3200.8792 1096.0931 0.878 -0.463 -0.120 17 17 12
-2891.4153 3214.0972 1095.0175 0.892 -0.434 -0.128 14 19 9
-2890.9089 3221.1528 1091.6969 0.891 -0.437 -0.121 14 19 3
-2888.5630 3226.4114 1087.7188 0.851 -0.507 -0.139 29 25 7
-2887.6963 3233.1538 1084.2532 -0.013 -0.940 0.342 46 25 7
-2877.4128 3230.5464 1077.4844 -0.013 -0.940 0.342 114 65 49
-2867.1633 3227.9478 1070.7378 -0.013 -0.940 0.342 161 94 73
-2817.2456 3185.6372 1050.2115 -0.034 -0.930 0.367 177 95 53
-2897.0413 3459.2019 997.3931 -0.529 -0.846 -0.071 192 102 50
-2761.7466 3439.5759 902.2352 0.704 -0.376 -0.603 187 101 51
-2760.0544 3446.2502 898.1675 0.698 -0.380 -0.606 183 100 51
-2737.8479 3464.4978 873.6215 -0.587 -0.800 0.125 186 104 57
-2410.4548 3174.1387 744.3438 0.102 -0.885 -0.453 194 143 122
-2356.2964 3158.9390 709.3057 0.475 -0.880 -0.032 42 24 1
-2336.8823 3233.8152 663.3444 0.312 -0.577 -0.755 62 38 25
-2346.0259 3253.3284 662.2128 0.225 -0.567 -0.792 68 43 31
-2372.5984 3390.3953 625.5093 -0.192 -0.952 0.239 210 174 151
-2390.7295 3422.2976 626.0895 0.723 -0.460 0.516 202 175 163
-2383.0205 3467.3875 601.4529 -0.151 -0.392 -0.907 41 16 12
-2409.7473 3558.6797 583.9015 -0.026 -0.468 -0.883 19 11 8
-2244.6172 3510.7651 477.7226 -0.643 -0.756 -0.122 72 53 53
-2212.4587 3485.6602 463.6036 -0.643 -0.756 -0.122 197 168 163
-2196.5972 3473.2781 456.6397 -0.643 -0.756 -0.122 227 195 188
-2197.3811 3493.8118 448.6998 0.213 -0.812 0.543 213 179 174
-1018.7971 5418.7007 -1251.7538 0.828 -0.105 0.551 204 101 90
-1011.5021 5421.3159 -1258.4121 0.840 -0.100 0.534 214 108 97
-757.0392 4553.2861 -1091.7859 0.228 -0.953 0.197 249 46 68
-561.1078 3941.0234 -986.8163 -0.578 -0.804 0.140 253 52 82
-2816.9385 2755.5710 1219.9408 -0.071 -0.453 -0.889 52 86 109
-2843.0991 2784.0151 1227.9972 -0.194 -0.625 -0.756 96 121 133
-3025.9976 3102.6882 1234.2167 0.886 -0.246 0.392 31 23 20
-3024.6350 3115.5498 1227.7987 0.875 -0.266 0.405 25 20 16
-3034.6748 3160.4897 1216.6616 -0.203 -0.940 0.273 16 11 7
-3019.2900 3153.4771 1207.8608 -0.208 -0.937 0.279 16 11 7
-3008.2905 3150.4880 1200.7218 -0.248 -0.931 0.268 16 11 7
-2898.9531 3170.7944 1108.8412 0.809 -0.462 -0.363 3 5 4
-2902.8452 3181.9651 1107.1378 -0.210 -0.867 0.452 13 15 14
-2870.5254 3165.3086 1089.4545 -0.210 -0.865 0.456 69 70 68
-2856.8276 3159.3086 1081.5168 0.040 -0.804 0.594 95 94 92
-2891.2004 3207.9194 1087.4025 0.879 -0.468 -0.086 28 31 22
-2889.0603 3213.3418 1083.5027 0.878 -0.472 -0.080 21 26 10
-2886.6462 3218.5095 1079.5002 0.878 -0.472 -0.080 32 28 10
-2868.9539 3208.5542 1070.1702 0.321 -0.873 0.367 33 11 0
-2881.7024 3228.7756 1071.4364 0.054 -0.935 0.351 105 55 39
-2866.8069 3221.5581 1063.0945 -0.009 -0.939 0.344 160 93 72
-2842.5100 3204.9055 1051.5282 -0.245 -0.911 0.332 173 90 48
-2783.0940 3397.1348 925.8215 -0.300 -0.952 -0.059 202 98 33
-2722.4595 3414.6228 872.2638 0.650 -0.442 -0.618 196 103 39
-2711.4768 3410.8577 865.4623 0.649 -0.473 -0.596 197 103 40
-2702.4609 3409.2639 859.2527 0.518 -0.579 -0.630 197 102 40
-2716.5220 3433.5771 859.8086 -0.536 -0.841 -0.070 198 102 41
-2490.8982 3252.3794 763.5105 -0.610 -0.788 0.083 182 112 69
-2351.7161 3155.0850 698.0496 0.405 -0.914 0.016 46 30 6
-2333.3149 3165.4375 679.6862 0.628 -0.684 0.370 55 31 16
-2339.2454 3229.9268 657.2393 0.829 -0.454 -0.326 61 35 20
-2344.3716 3261.3279 648.0166 0.270 -0.505 -0.820 80 54 40
-2417.3418 3421.3679 636.7388 -0.180 -0.943 0.280 210 173 152
-2395.5239 3403.0032 627.7792 -0.168 -0.931 0.325 212 172 151
-2385.2747 3399.0806 621.6030 -0.180 -0.919 0.351 207 173 152
-2378.1038 3399.0076 616.1643 -0.027 -0.914 0.406 199 177 165
-2425.3069 3561.5630 584.1829 -0.018 -0.461 -0.887 25 20 16
-2424.5193 3570.1431 579.9939 -0.019 -0.464 -0.886 21 13 8
-2243.5393 3511.0161 466.6932 -0.641 -0.760 -0.113 51 33 26
-2227.4663 3498.5063 459.6666 -0.641 -0.760 -0.113 95 72 64
-2211.8389 3486.5269 452.7579 -0.640 -0.759 -0.121 168 142 133
-2197.0078 3475.5723 446.0280 -0.638 -0.763 -0.103 213 185 174
-2178.8950 3459.9500 438.7473 -0.640 -0.758 -0.127 208 181 172
-2184.3708 3487.0400 431.5943 0.212 -0.834 0.509 218 192 183
-760.9045 4544.0425 -1096.0879 0.211 -0.958 0.193 246 44 66
-691.0060 4231.3652 -1018.6332 -0.229 -0.970 0.079 244 22 53
-2819.0920 2746.6926 1216.4508 0.025 -0.444 -0.896 19 79 112
-3031.7700 3102.4109 1228.8325 0.898 -0.336 0.285 29 19 17
-3024.7654 3103.0830 1223.2146 0.894 -0.333 0.299 28 20 17
-2972.4341 3206.0576 1140.0446 0.718 -0.390 -0.576 22 23 18
-2902.8584 3168.7432 1102.7441 0.809 -0.462 -0.363 17 19 16
-2901.8779 3175.1724 1099.2933 -0.194 -0.869 0.456 27 29 26
-2890.3140 3171.3418 1092.0964 -0.178 -0.800 0.574 13 13 11
-2870.9912 3159.9243 1082.1805 -0.178 -0.800 0.574 41 41 39
-2850.4556 3147.2537 1071.8680 0.086 -0.750 0.656 79 77 75
-2891.5520 3209.8276 1076.8525 0.878 -0.472 -0.080 22 26 11
-2889.1418 3214.9873 1072.8467 0.878 -0.472 -0.080 34 29 11
-2892.5486 3225.9138 1070.8459 0.793 -0.591 0.148 36 13 1
-2884.5938 3225.6213 1064.9099 0.076 -0.925 0.373 114 64 49
-2875.1133 3223.7996 1058.4550 0.076 -0.925 0.373 160 93 73
-2671.2854 3409.8796 824.9398 -0.303 -0.953 -0.026 187 106 55
-2632.9104 3383.3062 806.8866 -0.009 -0.798 -0.602 191 103 48
-2577.7251 3328.7642 787.7928 -0.301 -0.716 0.629 190 103 51
-2564.7505 3322.2712 780.6412 -0.434 -0.718 0.544 188 104 54
-2494.8674 3258.5356 754.2189 -0.534 -0.743 0.403 159 92 64
-2388.5330 3175.7559 708.0422 0.380 -0.906 0.188 51 25 9
-2359.9419 3158.2932 693.6094 0.541 -0.840 0.037 46 28 6
-2314.6787 3152.8181 661.4360 0.097 -0.993 -0.068 60 32 20
-2297.6284 3140.4675 653.6437 -0.440 -0.897 0.046 60 32 20
-2251.9812 3428.8250 497.5949 0.692 -0.703 -0.164 28 24 21
-2252.4277 3438.7922 493.7429 0.651 -0.624 -0.431 29 27 22
-2195.6633 3371.5808 478.7749 0.323 -0.899 -0.297 26 24 19
-2189.7263 3372.7698 473.7527 0.411 -0.821 -0.396 26 24 19
-2279.5698 3504.0056 486.9886 -0.188 -0.959 0.211 27 24 19
-2240.5029 3508.5593 455.3167 -0.579 -0.815 -0.037 55 39 28
-2229.0422 3502.4250 449.1674 -0.637 -0.758 -0.136 65 47 34
-2212.3008 3488.8972 442.1053 -0.638 -0.763 -0.103 131 111 97
-2194.6401 3473.9927 434.9222 -0.621 -0.783 -0.022 198 178 164
-2180.6143 3464.0701 428.4124 -0.618 -0.786 -0.026 215 197 185
-1069.0756 5474.3223 -1263.7173 0.953 -0.040 0.301 247 143 132
-1037.5208 5369.8071 -1243.7942 0.473 -0.548 0.691 245 141 132
-1024.0494 5344.5781 -1243.4438 0.421 -0.489 0.764 241 133 126
-694.6570 4223.1816 -1022.6889 -0.054 -0.983 0.175 242 21 52
-578.4985 4011.9092 -1022.3058 -0.713 -0.600 -0.363 255 103 120
-571.2543 4553.6431 -1255.6711 0.695 -0.397 -0.599 253 60 92
-2829.1609 2750.5691 1213.6290 0.035 -0.441 -0.897 14 80 110
-3064.0981 3112.0425 1239.4524 -0.101 -0.661 -0.744 34 25 18
-3052.0852 3115.2791 1228.9452 -0.097 -0.669 -0.737 29 19 17
-3048.8823 3119.4338 1224.7513 -0.097 -0.669 -0.737 29 19 17
-3045.6750 3123.5945 1220.5519 -0.097 -0.669 -0.737 26 18 15
-3045.1956 3130.2490 1217.3724 -0.092 -0.665 -0.741 21 13 10
-3063.1729 3153.7783 1221.0956 0.976 -0.214 -0.035 22 14 11
-3063.3616 3161.1301 1218.1295 0.976 -0.213 -0.042 19 14 10
-2906.3169 3173.6301 1093.3793 -0.224 -0.838 0.497 62 64 60
-2889.7366 3164.9473 1084.4393 -0.175 -0.797 0.578 54 55 50
-2871.9302 3155.0176 1075.0941 -0.173 -0.799 0.576 56 57 52
-2863.0781 3175.9207 1059.5190 0.679 -0.390 0.623 23 28 12
-2850.6909 3193.5649 1042.6331 0.666 -0.383 0.640 161 97 75
-2809.0713 3167.1370 1022.1516 0.595 -0.690 0.413 179 87 36
-2712.5095 3449.6333 829.2102 -0.213 -0.928 -0.306 193 104 48
-2504.8977 3263.4680 750.0233 -0.534 -0.743 0.403 123 55 27
-2397.9863 3172.2974 707.2586 -0.569 -0.801 0.185 61 31 14
-2361.9226 3146.2097 690.8596 0.854 -0.510 -0.102 56 34 15
-2334.4426 3186.0876 653.0886 -0.164 -0.955 0.248 58 33 21
-2367.8401 3425.4646 577.2446 0.639 -0.334 0.694 21 17 0
-2361.5881 3426.5713 572.0206 0.639 -0.334 0.694 21 16 3
-2240.6755 3387.6057 496.5243 0.382 -0.920 -0.093 16 12 9
-2244.3225 3401.6763 493.3472 0.645 -0.614 -0.455 22 18 15
-2263.1926 3436.1951 493.1012 0.639 -0.614 -0.464 26 25 21
-2247.2256 3433.4844 482.1016 0.615 -0.659 -0.433 23 26 19
-2245.4128 3440.4314 477.7843 0.619 -0.658 -0.430 23 25 19
-2236.8069 3447.6436 468.1873 0.672 -0.615 -0.413 22 23 17
-2227.1965 3501.6006 438.0546 -0.641 -0.760 -0.107 56 42 27
-2208.1064 3484.7910 430.6429 -0.621 -0.783 -0.022 95 81 68
-2190.2766 3469.6250 423.4944 -0.686 -0.727 0.018 176 163 152
-2166.9893 3446.7163 415.4696 -0.692 -0.722 0.021 212 198 185
-1394.0280 5193.9429 -911.5414 0.078 -0.798 0.598 247 179 180
-1031.0035 5310.5024 -1236.9934 0.898 -0.071 0.434 245 141 132
-919.5251 5112.6538 -1238.1104 0.014 -0.440 0.898 230 108 95
-570.8870 3829.9551 -960.7752 0.705 -0.474 0.528 254 10 56
-594.2659 4039.6819 -1031.6990 -0.604 -0.790 0.101 253 67 95
-587.3601 4032.7917 -1034.0378 -0.661 -0.747 0.075 255 105 120
-2785.0618 2685.0676 1199.1312 0.419 -0.465 -0.780 15 84 115
-2825.6641 2736.9565 1207.9061 0.479 -0.626 -0.615 15 81 114
-3190.2239 3120.1802 1321.8613 -0.200 -0.763 0.615 135 86 63
-3167.6069 3114.4075 1307.1345 -0.239 -0.868 0.436 87 53 32
-3084.6221 3110.9207 1245.5735 -0.254 -0.964 -0.073 28 24 12
-3081.9570 3115.5483 1241.5804 -0.440 -0.893 -0.097 28 24 13
-3075.0176 3116.3494 1235.9677 -0.258 -0.966 0.020 28 23 14
-3063.6489 3113.1565 1228.6888 -0.258 -0.966 0.020 27 21 15
-2875.0461 3152.2378 1068.7830 -0.191 -0.793 0.579 62 66 60
-2809.9907 3162.1472 1015.1448 0.595 -0.690 0.413 178 88 38
-2360.7881 3260.8318 631.9067 0.043 -0.483 -0.875 71 44 29
-2364.5312 3273.8220 629.2252 0.050 -0.440 -0.897 118 91 76
-2233.1562 3370.1240 488.4567 0.474 -0.724 -0.500 16 13 8
-2233.6531 3379.9231 484.6661 0.415 -0.729 -0.544 20 19 14
-2232.8574 3388.0408 480.6087 0.415 -0.731 -0.543 26 25 20
-2222.2163 3496.4238 426.4241 -0.617 -0.787 -0.022 31 21 12
-2206.4109 3484.1570 419.6341 -0.690 -0.723 0.023 76 67 57
-2184.7795 3463.6692 411.9152 -0.692 -0.722 0.021 161 152 141
-2163.5286 3443.5771 404.3167 -0.685 -0.727 0.039 211 198 186
-1774.8761 5028.2729 -564.9936 -0.652 -0.738 -0.176 251 202 198
-1572.8640 4793.9106 -618.7782 0.686 -0.201 0.699 247 192 189
-1570.1313 4828.4297 -635.5367 0.643 -0.312 0.700 248 193 190
-1547.7595 4788.6172 -635.5986 -0.011 -0.953 -0.303 248 193 190
-1032.1632 5285.5308 -1238.6625 0.898 -0.071 0.434 244 141 132
-1023.2251 5280.0903 -1243.1388 0.880 -0.072 0.469 240 134 128
-846.3632 4838.1104 -1189.5066 0.466 -0.540 0.701 252 72 85
-765.8022 4546.9106 -1126.8479 0.536 -0.775 -0.335 254 18 57
-574.0320 3821.6418 -964.0451 0.705 -0.474 0.528 254 10 54
-2833.0081 2738.5159 1203.9948 0.501 -0.503 -0.704 22 82 117
-3141.0791 3120.5579 1274.3252 0.625 -0.529 0.574 42 22 11
-3128.1763 3116.1631 1266.4154 0.808 -0.310 0.501 42 23 13
-3119.5876 3115.5554 1260.1589 0.846 -0.303 0.438 39 23 12
-3116.5271 3119.8401 1256.0042 0.841 -0.307 0.446 34 25 12
-3109.8542 3120.9211 1250.4790 0.645 -0.534 0.547 28 23 9
-3097.6580 3117.0703 1242.8726 -0.253 -0.965 -0.075 25 25 10
-2894.8931 3158.3164 1071.3884 -0.186 -0.788 0.586 48 51 44
-2875.8860 3147.2612 1061.6959 -0.191 -0.793 0.579 65 71 65
-2859.5718 3138.7527 1052.9574 -0.162 -0.802 0.574 62 72 64
-2847.6794 3134.4922 1045.7568 0.477 -0.827 0.298 9 19 10
-2852.7654 3146.7600 1044.3684 0.721 -0.395 0.569 12 25 12
-2823.1992 3161.9458 1015.4405 0.629 -0.686 0.366 160 86 43
-2504.2856 3249.5977 735.9831 0.012 -0.823 0.568 186 101 54
-2491.2625 3242.8103 729.0051 -0.019 -0.858 0.513 127 58 29
-2414.3406 3178.3652 698.2078 -0.510 -0.786 0.349 109 58 26
-2331.6885 3153.5681 646.1044 0.084 -0.995 0.054 100 56 35
-2334.1472 3172.5928 639.8324 0.011 -0.910 0.415 97 57 36
-2352.1594 3226.9285 630.2578 0.824 -0.444 -0.351 87 47 28
-2356.3945 3240.3486 627.7308 0.127 -0.457 -0.880 112 72 53
-2361.9717 3255.4592 625.4993 0.176 -0.423 -0.889 81 41 22
-2371.0173 3274.8594 624.0645 0.100 -0.419 -0.902 102 61 41
-2370.6794 3282.9155 620.3622 0.100 -0.419 -0.902 167 118 92
-2435.4468 3405.8674 616.9127 0.306 -0.881 0.361 210 144 109
-2235.1328 3365.2976 482.2832 0.466 -0.706 -0.533 14 11 6
-2235.7852 3375.2739 478.5110 0.474 -0.724 -0.500 18 18 12
-2235.7803 3384.4204 474.5950 0.599 -0.708 -0.375 23 25 18
-2235.9631 3393.8586 470.6968 0.566 -0.706 -0.424 27 29 24
-2202.5059 3480.4443 408.2771 -0.694 -0.719 0.022 66 59 52
-2180.4089 3459.2791 400.5646 -0.685 -0.727 0.039 178 169 159
-1583.4775 4702.5166 -584.1055 0.700 -0.378 -0.606 241 187 185
-1587.2589 4793.8042 -620.2827 0.511 -0.296 0.807 251 196 193
-1573.2109 4818.5708 -641.5345 0.739 -0.238 0.630 244 189 186
-1555.3517 4791.1440 -643.3535 -0.009 -0.949 -0.314 252 197 195
-1547.2407 4790.0332 -649.0322 -0.010 -0.955 -0.297 251 196 193
-1540.2158 4791.8628 -655.1449 -0.010 -0.955 -0.297 247 192 189
-1539.6923 4832.9175 -673.1022 0.669 -0.710 -0.220 248 193 190
-1394.4529 5175.7803 -929.9500 0.404 -0.590 0.699 233 165 166
-1031.3494 5252.2393 -1238.1477 0.578 -0.709 0.404 244 141 134
-521.7528 3686.2593 -954.9781 -0.661 -0.750 -0.028 254 126 123
-2824.9905 2715.2998 1199.0818 0.734 -0.448 -0.510 29 84 121
-2838.9438 2738.8804 1199.5127 0.501 -0.503 -0.704 30 85 121
-3139.3303 3113.5642 1265.9733 0.625 -0.529 0.574 51 26 10
-3127.2234 3137.9065 1246.3296 0.485 -0.700 0.525 24 26 6
-3021.5403 3092.1792 1185.9174 0.077 -0.684 0.726 19 17 5
-2895.4993 3153.1140 1064.2034 -0.186 -0.788 0.586 58 59 50
-2875.1426 3140.7710 1054.0872 -0.186 -0.788 0.586 101 105 96
-2847.4771 3121.2756 1041.5092 -0.291 -0.953 0.088 100 111 101
-2846.7112 3127.7903 1038.1268 0.173 -0.940 0.294 26 40 30
-2832.8484 3158.2075 1014.5399 0.641 -0.765 0.059 136 87 57
-2825.3855 3158.2358 1008.8727 0.649 -0.761 0.021 159 85 46
-2536.9597 3255.8652 748.3317 -0.078 -0.925 0.373 197 98 39
-2520.6492 3245.4741 740.4420 -0.042 -0.927 0.373 198 98 40
-2501.4790 3239.8457 728.3369 0.025 -0.926 0.378 186 95 43
-2477.1113 3228.1416 714.9065 -0.019 -0.932 0.361 129 57 15
-2419.5405 3177.9358 692.8769 -0.522 -0.801 0.293 110 46 10
-2361.4480 3150.2402 660.7701 0.365 -0.926 0.101 136 85 59
-2335.1375 3151.1790 640.4299 0.092 -0.991 0.095 123 72 46
-2317.6472 3138.4412 632.6555 -0.382 -0.909 0.166 124 72 46
-2388.4624 3255.5442 635.9482 -0.204 -0.314 -0.927 85 40 17
-2429.7107 3347.8540 627.5007 -0.350 -0.343 -0.872 164 106 79
-2432.1125 3359.4570 624.3303 -0.353 -0.343 -0.870 188 103 69
-2438.3853 3402.2844 610.6630 0.306 -0.881 0.361 172 91 44
-2236.9939 3360.3364 476.1037 0.493 -0.869 -0.037 11 11 2
-2234.3479 3365.9119 471.7007 0.401 -0.903 0.154 13 19 10
-2175.1411 3453.6289 389.1103 -0.685 -0.727 0.040 179 164 149
-1641.4017 4775.5542 -583.8873 0.679 -0.401 0.614 238 183 178
-1604.7466 4801.8071 -622.9537 0.288 -0.337 0.896 242 185 184
-1594.9792 4796.5171 -628.0795 0.288 -0.337 0.896 240 184 184
-1552.6150 4807.5366 -664.9198 0.669 -0.307 0.677 249 195 194
-1527.0734 4779.6714 -672.2886 0.625 -0.327 0.709 248 193 192
-1548.4513 4881.6753 -699.9622 0.498 -0.450 0.741 248 192 191
-2848.3076 2748.0959 1193.7874 0.921 -0.173 -0.349 31 94 128
-3183.5015 3098.1760 1296.0427 -0.369 -0.917 0.149 133 69 47
-3129.8274 3099.7866 1254.7284 0.642 -0.514 0.569 63 31 14
-3112.8296 3119.6030 1233.2952 0.272 -0.541 0.796 46 44 23
-2893.4575 3138.1099 1059.2816 -0.274 -0.958 0.082 30 28 24
-2879.0886 3131.5618 1051.2400 -0.282 -0.956 0.075 28 27 21
-2855.4902 3123.3008 1036.9545 -0.291 -0.953 0.088 108 115 104
-2850.0232 3125.2588 1031.9705 0.173 -0.940 0.294 26 35 25
-2847.7969 3130.3643 1028.0778 0.685 -0.541 0.487 20 24 13
-2829.9524 3149.5103 1006.2937 0.688 -0.726 0.014 148 93 63
-2507.7087 3224.3015 730.0904 0.047 -0.892 0.450 197 98 41
-2484.2061 3213.6494 716.9116 0.122 -0.952 0.281 181 91 38
-2489.2336 3227.4314 714.7557 -0.498 -0.845 0.195 177 97 48
-2396.9292 3161.2896 673.5093 -0.405 -0.843 0.355 131 75 47
-2383.3008 3153.4209 666.5992 -0.385 -0.831 -0.403 147 94 70
-2337.3796 3147.3716 634.4646 0.043 -0.992 0.123 129 78 51
-2411.2346 3284.4629 631.0651 -0.200 -0.315 -0.928 117 73 48
-2413.0742 3295.1147 627.8505 -0.200 -0.315 -0.928 109 65 40
-2441.7949 3399.2927 604.5302 0.295 -0.885 0.361 184 99 53
-2406.2593 3381.8953 585.1626 0.016 -0.827 0.562 176 102 60
-2381.3145 3377.3452 568.2534 -0.095 -0.905 0.414 145 80 47
-2370.9114 3373.1650 562.1888 -0.022 -0.915 -0.404 137 78 42
-2361.2188 3369.8425 556.2908 -0.257 -0.965 0.056 120 71 34
-2239.3613 3329.1328 481.6812 -0.163 -0.986 0.033 23 6 6
-2196.0371 3474.8730 385.8662 -0.656 -0.748 -0.106 93 78 67
-2172.0723 3460.6787 373.8695 -0.307 -0.834 -0.458 219 193 171
-1635.9237 4804.5425 -613.0536 0.278 -0.350 0.894 244 189 184
-1626.0677 4799.2163 -618.2087 0.278 -0.350 0.894 226 171 168
-1554.8108 4795.3306 -670.4519 0.588 -0.561 0.582 239 183 184
-1548.5134 4799.1753 -676.8801 0.600 -0.548 0.583 244 188 187
-1378.6278 5029.2793 -904.9561 -0.190 -0.711 -0.677 243 175 176
-1026.0571 5203.7100 -1247.2014 -0.686 -0.691 0.228 239 136 130
-600.1993 3854.7471 -986.0706 -0.330 -0.802 0.498 255 6 48
-598.5713 3873.8052 -995.5447 -0.344 -0.791 0.505 255 10 51
-442.8094 4540.5225 -1401.7588 -0.215 -0.715 0.665 244 97 108
-2830.6992 2705.0620 1190.3403 0.349 -0.432 -0.832 45 94 124
-2827.5710 2708.3176 1186.5604 0.338 -0.439 -0.832 42 97 126
-2842.5713 2732.6787 1187.3036 0.169 -0.770 -0.616 38 100 123
-2886.1851 2787.4280 1196.4573 0.956 -0.117 -0.270 48 104 138
-3089.2632 3031.7437 1243.6948 0.476 -0.481 0.736 111 62 27
-3059.0862 3059.6133 1208.7688 0.827 -0.331 0.455 85 68 43
-3001.0771 3062.7893 1163.5468 0.095 -0.605 0.791 18 18 9
-2874.5281 3114.2610 1045.5227 0.405 -0.446 -0.798 30 25 21
-2881.9524 3128.5916 1044.9021 -0.072 -0.997 0.021 35 32 28
-2876.7144 3130.7983 1039.9838 -0.204 -0.946 0.251 109 108 101
-2864.4368 3126.2141 1032.6982 -0.204 -0.946 0.251 174 173 162
-2853.3318 3122.7300 1025.8207 0.173 -0.940 0.294 146 142 129
-2846.5640 3123.4224 1020.4047 0.623 -0.538 0.568 155 146 129
-2832.9094 3146.5911 1000.0101 0.688 -0.726 0.014 148 81 51
-2485.9565 3209.1899 710.5742 0.138 -0.949 0.284 193 101 50
-2477.3621 3215.4304 701.3652 -0.483 -0.852 0.203 176 101 56
-2452.5347 3195.0278 691.4736 -0.465 -0.816 0.344 154 84 44
-2432.4231 3179.9226 682.8426 -0.465 -0.816 0.344 116 51 15
-2417.5083 3170.7119 675.5757 -0.471 -0.818 0.331 107 48 18
-2405.3291 3164.6008 669.0286 -0.319 -0.790 0.523 132 77 49
-2389.6765 3154.4202 661.6259 -0.338 -0.930 0.141 152 100 76
-2422.8259 3377.5969 589.6298 0.042 -0.793 0.608 162 80 36
-2412.3425 3373.4561 583.5076 0.042 -0.793 0.608 161 80 35
-2401.3306 3368.6248 577.2859 0.002 -0.824 0.566 178 95 53
-2389.0439 3362.1711 570.8068 0.126 -0.773 0.622 183 94 56
-2379.4321 3358.9993 564.9218 0.126 -0.773 0.622 179 86 52
-2384.8638 3374.5852 562.2491 -0.112 -0.911 0.396 170 83 47
-2379.2668 3376.4346 557.2151 -0.032 -0.913 -0.407 161 83 42
-2369.2649 3372.7485 551.2587 0.013 -0.967 -0.256 159 88 44
-2245.1833 3356.3455 464.6153 0.522 -0.833 -0.185 12 11 3
-2203.3674 3401.2820 413.4715 0.679 -0.718 -0.151 18 17 15
-2182.6282 3467.5249 368.9917 -0.308 -0.838 -0.451 206 183 168
-2174.5710 3465.8992 363.6092 -0.292 -0.886 -0.361 209 181 166
-1790.5349 4955.4800 -574.3816 0.769 -0.600 0.219 253 200 196
-1629.3351 4790.2031 -624.3392 0.281 -0.321 0.904 204 151 147
-1550.4156 4786.2031 -682.2443 0.592 -0.543 0.596 236 181 179
-1544.3895 4790.7407 -688.7717 0.754 -0.441 0.487 238 182 181
-1536.0146 4788.8447 -694.2768 0.755 -0.437 0.489 238 180 179
-1515.6870 4796.2529 -712.8610 0.692 -0.312 0.652 242 190 188
-1508.8488 4798.5415 -719.0245 0.692 -0.312 0.652 242 190 187
-1505.4138 4810.3940 -726.7745 0.640 -0.333 0.692 244 189 187
-1370.5248 4957.4238 -892.6554 0.612 -0.643 0.461 250 184 185
-1043.7008 5217.9131 -1252.9320 -0.694 -0.685 0.219 245 142 136
-614.5162 3875.1477 -993.3874 0.532 -0.655 0.536 253 6 50
-604.7188 3880.4749 -1003.1085 -0.373 -0.912 0.171 253 10 50
-642.1202 4549.9248 -1265.9547 -0.578 -0.752 -0.317 255 112 129
-661.8100 4736.1411 -1332.0509 -0.402 -0.915 0.033 255 86 112
-449.0487 4546.2471 -1410.2721 -0.234 -0.720 0.654 244 98 108
-264.2934 3831.4670 -1239.0786 0.893 -0.165 0.418 240 71 79
-2845.9248 2730.8792 1181.8152 0.169 -0.793 -0.585 38 101 118
-2864.3284 2758.2576 1183.7352 0.830 -0.276 -0.485 44 110 146
-2883.6064 2786.6003 1185.8936 0.938 -0.201 -0.281 72 112 139
-3041.1113 2978.2007 1221.0022 0.883 -0.123 -0.452 140 79 45
-3063.8157 3004.4624 1226.6565 0.928 -0.329 -0.172 127 71 36
-3076.7549 3022.3645 1228.5956 0.281 -0.616 0.735 112 66 22
-3077.2371 3029.5034 1225.8383 -0.159 -0.777 0.610 100 57 16
-2875.6934 3074.1519 1054.1956 0.766 -0.620 0.169 34 34 29
-2889.6677 3130.2766 1040.2039 -0.087 -0.994 0.059 37 39 31
-2879.9343 3128.1731 1033.7771 -0.107 -0.961 0.253 121 121 109
-2859.0056 3122.4900 1020.4653 -0.196 -0.949 0.248 173 160 140
-2857.4546 3164.8347 1000.7803 0.737 -0.617 0.275 154 77 43
-2468.9380 3199.3584 692.4413 0.042 -0.636 0.771 171 97 50
-2452.4744 3188.5295 684.7496 -0.020 -0.641 0.767 166 97 54
-2437.6978 3179.5647 677.5162 -0.004 -0.675 0.738 123 60 23
-2423.7034 3171.4395 670.5062 -0.000 -0.676 0.737 99 41 8
-2406.4812 3159.5364 662.7115 -0.231 -0.789 0.570 129 77 47
-2388.5549 3345.7151 567.7788 -0.329 -0.786 0.524 185 92 50
-2373.3958 3335.6599 560.7333 -0.259 -0.831 0.492 189 84 46
-2359.7900 3327.4661 554.0466 -0.259 -0.831 0.492 190 79 44
-2375.2666 3355.4517 553.4918 -0.131 -0.980 0.151 182 79 42
-2390.2026 3382.9084 552.7605 -0.047 -0.976 -0.214 173 80 39
-2385.9768 3386.4958 548.0024 -0.074 -0.980 -0.185 166 78 35
-2228.8428 3345.4785 447.3346 0.811 -0.487 0.326 13 22 11
-2201.4258 3476.1580 369.5043 -0.303 -0.837 -0.455 44 33 23
-2192.9197 3473.9624 364.0440 -0.308 -0.838 -0.451 108 93 82
-2184.5596 3471.9448 358.6161 -0.303 -0.882 -0.362 185 164 153
-2175.2815 3468.6128 353.0701 -0.475 -0.858 -0.196 203 177 170
-1548.8599 4784.7925 -695.2097 0.848 -0.361 0.388 219 165 163
-1541.5153 4785.7119 -701.1553 0.905 -0.406 -0.129 234 178 177
-1534.8688 4788.5322 -707.4050 0.936 -0.272 -0.224 237 181 180
-1532.5427 4803.2798 -715.6089 0.936 -0.272 -0.224 237 182 181
-1524.7070 4824.2422 -730.6884 0.938 -0.247 -0.245 245 190 188
-1052.7766 5227.8086 -1263.3419 -0.696 -0.684 0.220 244 143 136
-579.6071 3865.6663 -1024.9146 -0.442 -0.871 -0.216 255 120 121
-455.1476 4505.2935 -1398.5165 -0.096 -0.920 -0.381 254 108 121
-2877.0149 2770.2734 1179.1318 0.935 -0.225 -0.275 59 114 150
-2883.6462 2781.9104 1179.0146 0.947 -0.193 -0.255 79 119 148
-3056.8552 2993.2588 1216.6702 0.908 -0.322 -0.269 140 78 36
-3072.6221 3013.5564 1219.6322 0.281 -0.616 0.735 135 82 34
-3067.7781 3016.0413 1214.8885 -0.178 -0.786 0.592 131 81 36
-2873.1421 3066.2007 1046.1228 0.759 -0.634 0.151 28 27 23
-2885.9731 3099.5520 1041.1334 0.852 -0.446 0.273 21 23 14
-2884.2795 3105.0796 1037.4271 0.850 -0.451 0.274 38 39 31
-2890.3013 3117.9817 1036.2946 0.282 -0.530 -0.799 23 23 15
-2894.5952 3129.2854 1034.5620 -0.104 -0.992 0.077 61 62 52
-2890.6670 3132.7546 1030.0759 -0.281 -0.958 0.061 160 155 142
-2875.9504 3125.8640 1022.0118 -0.204 -0.946 0.251 158 145 128
-2469.9507 3194.0916 685.9784 0.019 -0.628 0.778 168 93 46
-2452.5503 3182.2104 678.0850 -0.032 -0.645 0.763 165 94 52
-2437.4080 3172.8372 670.7913 -0.032 -0.645 0.763 125 59 21
-2346.0740 3146.2676 613.6242 -0.059 -0.842 -0.536 145 94 67
-2340.7671 3357.8318 516.6204 -0.262 -0.953 0.150 150 68 23
-2333.7971 3357.8555 511.3559 -0.171 -0.964 0.205 149 69 24
-2310.5452 3345.9900 499.0448 -0.138 -0.971 0.196 139 70 35
-2301.2803 3343.0071 493.3721 -0.134 -0.961 0.242 129 66 37
-2293.0420 3341.3118 487.9074 -0.516 -0.844 0.145 109 53 29
-2194.6611 3365.1270 403.2794 0.828 -0.545 0.130 18 16 17
