ply
format ascii 1.0
element vertex 784
property float x
property float y
property float z
property float nx
property float ny
property float nz
property uchar diffuse_red
property uchar diffuse_green
property uchar diffuse_blue
end_header
-3178.5903 2732.5374 1396.3165 0.927 -0.307 0.214 48 41 32
-3177.9519 2740.6897 1393.4381 0.880 -0.473 0.036 37 32 27
-2945.6396 2640.7722 1260.0248 -0.120 -0.930 -0.348 22 29 29
-2930.3303 2634.4075 1251.1675 -0.407 -0.913 0.020 38 48 49
-2912.5740 2625.5928 1241.3213 -0.423 -0.902 0.088 39 55 54
-2881.1699 2611.7837 1223.3763 -0.340 -0.936 0.088 36 55 62
-2866.9097 2606.2092 1215.0204 -0.365 -0.900 0.239 26 44 59
-2847.9446 2595.9270 1204.7626 0.090 -0.987 -0.135 36 53 73
-2840.8259 2597.3171 1199.3475 0.090 -0.987 -0.135 100 116 141
-2833.7168 2598.7053 1193.9397 0.090 -0.987 -0.135 144 157 188
-2832.1233 2605.5884 1190.7689 0.224 -0.948 -0.226 133 145 173
-2829.1387 2611.1001 1187.0294 0.202 -0.955 -0.216 132 142 168
-2850.0354 2640.6082 1192.9139 0.612 -0.770 -0.181 134 140 166
-2845.8120 2644.9722 1188.6465 0.612 -0.770 -0.181 136 137 165
-2885.6406 2801.5669 1169.9519 0.644 -0.100 -0.759 100 108 97
-2887.3862 2812.6016 1167.8893 0.556 0.092 -0.826 75 59 36
-2865.3772 2798.6399 1156.5897 -0.139 -0.756 -0.640 84 53 36
-3066.8262 3090.9319 1210.9849 -0.296 -0.767 0.570 42 33 26
-3038.5596 3070.4644 1197.2286 -0.136 -0.715 0.686 40 31 22
-3014.3337 3054.2405 1185.0463 -0.149 -0.728 0.669 33 26 16
-3004.0042 3053.0459 1178.1459 -0.006 -0.722 0.692 19 12 2
-3101.2854 3973.6389 972.1001 -0.319 -0.947 -0.043 198 121 69
-2451.2646 3216.5637 741.1229 -0.516 -0.728 0.450 143 104 78
-2300.2529 3125.9917 662.0359 0.441 -0.558 -0.703 59 31 19
-2210.6038 3309.6416 544.3223 -0.348 -0.932 -0.099 16 15 3
-3121.6040 5662.0728 483.1339 0.989 0.040 0.142 211 166 161
-3138.1335 5715.9106 478.6992 0.991 0.005 0.133 213 168 163
-3136.7214 5758.8594 464.9063 0.992 0.009 0.125 217 172 167
-3375.5735 6315.0347 466.9256 0.107 -0.048 -0.993 209 164 159
-2300.9160 4966.1743 114.0334 0.993 0.000 -0.116 194 131 113
-2331.4497 5408.1934 3.7384 0.901 -0.186 0.392 163 113 86
-1995.6414 5544.7720 -272.8665 0.659 -0.282 -0.697 234 219 224
-1968.0769 5492.7173 -276.7148 0.071 -0.995 -0.067 227 212 217
-1906.4073 5479.8154 -316.1908 0.163 -0.855 -0.492 240 228 232
-1933.7994 5832.4331 -402.0465 -0.496 -0.451 -0.742 255 245 251
-1915.5249 5806.0195 -407.0114 -0.457 -0.397 -0.796 252 241 247
-4374.1235 2790.9607 2206.7883 0.082 -0.522 -0.849 180 178 166
-3541.2688 2390.8457 1742.9028 0.990 -0.129 -0.061 187 188 180
-3521.8450 2436.6865 1715.5248 0.785 -0.494 -0.374 200 201 195
-4885.7666 3740.1147 2280.6602 -0.107 -0.340 -0.934 71 72 64
-3474.6311 2756.1948 1586.5225 0.386 -0.665 0.640 42 38 29
-3462.6648 2754.6021 1578.6100 0.454 -0.655 0.604 102 96 89
-3438.2402 2742.2458 1565.1927 0.086 -0.700 0.709 138 132 126
-3306.5540 2774.2085 1463.2645 0.807 -0.584 0.091 56 32 15
-3338.9099 2812.4209 1474.4825 -0.072 -0.572 -0.817 49 32 21
-3301.6404 2787.4094 1455.8571 0.219 -0.889 -0.402 47 33 23
-3243.5959 2751.9927 1425.7878 -0.537 -0.794 0.286 49 34 22
-2948.0933 2637.6743 1252.9006 -0.162 -0.974 -0.155 23 28 29
-2938.9104 2637.2795 1246.5803 -0.170 -0.978 -0.120 39 49 50
-2919.3706 2626.7588 1236.0372 -0.402 -0.911 0.095 38 54 55
-2885.5864 2610.6646 1217.1792 -0.338 -0.916 0.217 37 56 62
-2868.7637 2602.5828 1207.8091 -0.396 -0.901 0.176 28 44 54
-2850.8289 2593.3352 1198.0094 0.246 -0.966 -0.079 40 52 67
-2845.9468 2596.9377 1193.5048 0.463 -0.885 0.047 111 124 140
-2841.5974 2601.0715 1189.2145 0.441 -0.896 0.041 160 170 190
-2829.5222 2605.9812 1179.2740 0.210 -0.977 -0.030 135 132 152
-2893.1194 2821.8022 1159.0903 -0.128 -0.613 -0.780 98 64 46
-3070.3645 3067.8767 1209.5132 0.404 -0.364 0.839 96 85 65
-3058.8669 3065.5852 1202.1392 -0.014 -0.810 0.586 94 85 73
-3036.5459 3051.5867 1190.6897 0.003 -0.822 0.569 93 84 74
-3036.8967 3061.9995 1187.8104 -0.136 -0.728 0.672 90 82 71
-3016.0481 3049.4556 1176.9567 -0.026 -0.801 0.598 63 57 44
-3002.0593 3044.2766 1168.7026 -0.069 -0.817 0.573 35 29 18
-2982.9800 3033.4866 1158.5631 -0.193 -0.831 0.522 16 11 5
-2986.1587 3046.9783 1156.7427 0.963 -0.270 0.026 15 12 4
-2459.8057 3220.4548 735.6104 -0.535 -0.739 0.410 59 15 1
-2291.5969 3417.1309 558.6365 -0.778 -0.536 -0.327 14 16 5
-2204.5251 3290.9307 535.4618 0.207 -0.902 -0.378 13 16 5
-2201.4551 3298.3979 531.0678 0.828 -0.499 -0.257 10 13 2
-2154.9705 3248.3196 513.5046 0.122 -0.206 -0.971 10 12 1
-2166.0178 3471.7583 454.1879 0.049 -0.916 -0.398 209 176 171
-2966.5247 4990.0859 559.7715 0.941 -0.286 0.179 215 181 172
-3135.6680 5716.9004 460.2245 0.991 0.005 0.133 200 155 150
-3276.5271 7056.4692 156.9332 -0.382 -0.798 0.466 203 142 124
-1763.3152 3821.9541 66.7156 0.407 -0.913 0.022 192 134 112
-2335.4197 5398.5825 -5.3487 0.111 -0.657 -0.746 168 120 95
-2010.8640 5538.1079 -274.7959 0.980 0.125 -0.156 241 225 228
-1970.0685 5952.4429 -427.7591 -0.440 -0.358 -0.824 253 240 247
-3913.6921 2508.3835 1958.0115 0.436 -0.757 -0.487 179 176 167
-3910.7356 2514.0996 1954.2148 0.430 -0.766 -0.479 176 176 166
-5184.7617 3573.5010 2525.6917 0.743 -0.573 -0.345 191 191 181
-3544.8606 2389.0750 1735.9346 0.989 -0.136 -0.048 192 194 183
-3529.7715 2445.7446 1708.2471 0.690 -0.550 -0.471 198 199 193
-4799.9458 3697.5645 2218.8745 0.026 -0.739 -0.674 29 31 20
-3365.0615 2839.5000 1473.9678 -0.310 -0.822 -0.478 50 32 20
-3163.0344 2715.7507 1369.9746 0.394 -0.338 -0.855 31 19 16
-3173.3906 2734.0801 1371.6831 -0.295 -0.953 0.069 17 8 7
-2978.8228 2636.3362 1265.0510 0.548 -0.822 0.155 13 13 13
-2975.4814 2641.6296 1261.1129 0.046 -0.983 0.178 11 13 12
-2951.4624 2635.4724 1246.1635 -0.020 -0.992 -0.121 25 30 30
-2945.6409 2638.3428 1241.2216 0.051 -0.986 0.157 34 44 45
-2924.3728 2626.1711 1230.0153 -0.396 -0.915 0.081 40 57 57
-2902.5273 2613.3425 1218.6033 -0.303 -0.864 0.402 42 62 64
-2872.5352 2600.8521 1201.3875 -0.336 -0.910 0.243 31 46 54
-2849.3130 2594.8235 1186.9570 0.463 -0.885 0.047 107 119 130
-2845.0723 2599.0588 1182.7090 0.441 -0.896 0.041 153 165 178
-2905.7405 2810.5403 1161.2537 0.269 -0.009 -0.963 120 126 121
-3015.6389 3022.4839 1174.1136 0.558 -0.501 0.661 145 136 123
-3030.5215 3048.4800 1176.6729 -0.157 -0.741 0.653 139 131 117
-3017.0337 3043.8989 1168.6177 -0.026 -0.808 0.589 96 89 75
-3004.8171 3040.6475 1161.0503 -0.102 -0.827 0.553 55 51 39
-2986.1621 3030.3401 1151.1094 -0.201 -0.833 0.515 21 18 10
-2493.2200 3247.5374 740.4698 -0.522 -0.763 0.380 135 71 39
-2466.0295 3221.0859 729.4343 -0.501 -0.760 0.414 73 22 4
-2439.4985 3195.3584 718.6414 -0.507 -0.728 0.461 54 14 1
-2275.1238 3073.4844 640.4337 0.786 -0.575 0.229 70 39 24
-2449.2922 3486.8584 637.3967 0.289 -0.154 -0.945 210 181 170
-2411.8723 3455.3516 620.7297 -0.532 -0.694 -0.485 186 162 151
-2545.7595 5603.9580 65.0678 -0.046 -0.987 -0.152 196 138 119
-2549.0579 5636.2930 57.6037 -0.279 -0.746 -0.605 195 137 118
-2540.5818 5641.6123 50.0638 -0.285 -0.750 -0.597 192 135 115
-2516.2961 5635.1372 35.0240 -0.450 -0.891 0.063 191 135 115
-2499.5730 5696.9170 4.6483 -0.535 -0.669 -0.515 179 132 109
-2488.2593 5695.5732 -2.8636 -0.534 -0.670 -0.515 178 130 108
-2342.4185 5420.8350 -21.9005 -0.529 -0.712 -0.462 174 126 105
-1980.3153 5483.4038 -294.2366 0.123 -0.989 -0.086 248 229 233
-3917.3794 2514.2080 1948.0792 0.430 -0.766 -0.479 177 175 163
-5165.2104 3478.1531 2526.4417 0.830 -0.259 -0.493 171 172 156
-5162.0952 3486.4873 2521.7292 0.822 -0.264 -0.504 185 186 172
-5172.3193 3504.4419 2523.4077 0.838 -0.546 0.021 190 192 178
-3965.6760 2644.1792 1942.2662 0.965 -0.262 -0.006 185 187 174
-3976.3608 2660.0979 1944.8862 0.967 -0.255 -0.011 179 181 168
-4539.9155 3332.4768 2133.9583 0.390 -0.380 -0.839 195 199 188
-4805.7422 3661.5698 2219.5107 0.153 -0.503 -0.850 88 90 79
-4867.2988 3722.6521 2243.9246 0.123 -0.397 -0.909 63 65 54
-4680.8945 3604.7205 2149.5957 0.544 -0.818 0.187 27 29 18
-3386.2778 2695.4282 1521.9186 -0.289 -0.837 0.465 131 105 92
-3361.2271 2690.7769 1505.8344 -0.371 -0.927 -0.058 116 88 68
-3334.5264 2676.0881 1491.6519 -0.295 -0.925 -0.241 117 89 68
-3324.3862 2701.1982 1476.9270 0.078 -0.590 0.804 113 83 62
-3271.8782 2749.2573 1425.6213 -0.481 -0.849 0.218 59 32 16
-3231.7725 2721.4929 1406.0536 -0.481 -0.849 0.218 59 31 16
-3183.7119 2738.1382 1367.4144 -0.352 -0.931 0.095 18 2 7
-2980.2639 2632.2878 1257.5024 0.536 -0.829 0.156 12 13 15
-2972.2800 2633.1091 1251.6752 0.435 -0.889 0.143 14 15 17
-2965.8083 2635.3718 1246.4657 0.430 -0.889 0.154 20 21 23
-2959.1057 2637.4053 1241.1647 0.424 -0.887 0.185 23 28 27
-2949.2966 2636.4207 1234.6119 0.032 -0.973 0.227 30 42 43
-2908.1294 2613.3706 1212.8680 -0.265 -0.850 0.455 48 67 71
-2860.2285 2591.7458 1185.9863 0.441 -0.896 0.041 37 54 60
-2854.3848 2594.3972 1181.0972 0.441 -0.896 0.041 94 111 117
-2848.5439 2597.0481 1176.2102 0.441 -0.896 0.041 151 167 172
-2843.8877 2600.8708 1171.7942 0.175 -0.974 0.142 141 147 153
-2914.9688 2814.1409 1156.5492 0.279 -0.006 -0.960 119 125 128
-3047.5667 2981.2502 1198.3252 0.773 -0.526 0.354 159 113 95
-3015.8455 3036.0132 1159.5009 -0.025 -0.797 0.603 99 92 77
-3009.5376 3039.1572 1154.1376 0.606 -0.525 0.598 57 54 44
-2862.3396 3160.6587 1014.3347 0.314 -0.162 -0.936 148 91 59
-2300.1804 3068.4805 649.6762 -0.099 -0.976 -0.193 131 91 68
-2294.3794 3071.2158 644.7913 0.147 -0.959 -0.241 130 91 70
-2137.2937 3275.6726 472.8370 0.454 -0.753 -0.476 27 25 21
-2732.1492 4750.1021 439.7020 0.842 -0.172 0.511 212 173 168
-2804.9961 4921.3330 438.4833 0.427 -0.343 0.837 212 173 168
-3137.0339 5663.1797 444.6840 0.933 -0.048 0.355 212 174 165
-2575.1731 5702.0864 40.3434 -0.515 -0.729 -0.451 200 147 134
-2561.3457 5695.2729 32.7572 -0.514 -0.729 -0.452 199 147 133
-2548.6565 5691.0034 25.1921 -0.514 -0.729 -0.452 198 148 134
-2526.7471 5741.3594 -5.4369 -0.537 -0.683 -0.495 183 138 124
-2364.2441 5478.9785 -39.1118 -0.254 -0.590 -0.766 177 132 118
-2074.4458 5246.6074 -170.8440 -0.179 -0.975 -0.129 214 179 175
-2126.1702 5488.2236 -208.2372 0.679 -0.731 -0.064 229 195 193
-5117.2539 3294.7307 2534.8337 0.757 -0.592 0.278 174 172 160
-3920.4297 2511.8120 1940.1993 0.200 -0.937 -0.287 177 175 163
-3921.7273 2520.5005 1938.4419 0.917 -0.390 0.089 177 175 163
-5153.8950 3442.9407 2514.9724 0.729 -0.181 -0.661 178 179 163
-5171.4058 3476.3987 2516.9307 0.830 -0.259 -0.493 171 172 156
-5168.7754 3485.0725 2512.4392 0.828 -0.261 -0.497 185 186 172
-4570.3433 3339.8379 2139.6660 0.074 -0.419 -0.905 196 199 188
-3361.4531 2677.2546 1499.7483 0.017 -0.660 0.751 94 64 49
-3286.2847 2756.8164 1422.9580 -0.485 -0.843 0.232 70 37 24
-2991.3230 2628.9783 1256.4574 -0.082 -0.876 -0.475 18 19 21
-2988.9292 2643.6438 1250.2948 0.117 -0.869 0.481 21 23 22
-2949.1494 2630.8259 1226.4847 -0.145 -0.843 0.518 33 43 45
-2930.7961 2621.5220 1216.5381 -0.150 -0.836 0.528 50 66 70
-2861.1553 2595.6431 1175.9083 0.357 -0.934 0.028 85 103 107
-2855.4131 2598.3982 1171.0604 0.370 -0.928 0.035 162 177 179
-2850.6719 2602.1414 1166.6075 0.071 -0.984 0.162 211 216 219
-2927.2000 2820.8457 1152.9591 0.279 -0.006 -0.960 113 122 120
-2967.6653 2881.6414 1162.5471 0.176 -0.007 -0.984 143 105 93
-3047.8169 2975.1416 1189.7872 0.773 -0.526 0.354 188 141 124
-3013.5439 3017.0527 1153.0481 0.728 -0.402 -0.555 151 140 121
-3016.5818 3030.2314 1151.1284 0.609 -0.353 -0.710 85 78 62
-3018.8474 3042.6338 1148.9082 0.576 -0.369 -0.729 48 46 35
-2297.3333 3067.6194 638.1589 -0.064 -0.940 -0.336 138 96 74
-2373.5315 3317.7957 614.6379 0.222 -0.097 -0.970 211 161 148
-2494.0195 5424.2148 53.2586 -0.198 -0.526 -0.827 199 149 138
-2581.6201 5722.5908 22.9199 -0.477 -0.856 -0.200 197 147 136
-2411.2075 5448.9092 -12.0502 -0.520 -0.786 -0.334 188 144 133
-2154.6084 5386.4321 -171.8279 -0.017 -0.920 0.392 194 159 155
-2110.4563 5321.6353 -182.7607 0.128 -0.842 0.524 210 175 171
-2083.5288 5301.2759 -195.2987 0.265 -0.555 -0.789 226 191 187
-3541.2356 2222.8159 1754.7074 0.904 -0.067 -0.423 163 161 149
-3921.5828 2515.8696 1929.0215 0.731 -0.677 -0.082 177 175 163
-3965.6196 2618.3379 1928.0614 0.753 -0.657 0.038 185 186 172
-3968.7896 2644.9888 1922.0465 0.965 -0.264 0.002 178 180 167
-3432.0476 2426.0471 1616.0237 -0.592 -0.588 -0.551 197 200 189
-4806.7402 3626.5181 2202.4666 0.623 -0.488 -0.611 125 125 117
-4802.2554 3634.0229 2197.0300 0.633 -0.512 -0.580 116 117 109
-4801.3027 3644.3855 2193.1704 0.638 -0.499 -0.586 100 102 91
-4841.4443 3687.9436 2207.6716 0.205 -0.601 -0.773 74 76 65
-4862.9478 3728.0222 2210.2744 0.484 -0.606 -0.631 34 36 25
-3249.5933 2675.4053 1412.1190 0.949 -0.312 -0.038 95 48 32
-3243.0764 2686.5688 1404.1398 0.923 -0.379 -0.065 82 35 19
-3242.5396 2711.7612 1395.9950 0.560 -0.818 0.133 79 40 28
-3274.2148 2757.8381 1403.8268 -0.534 -0.845 0.027 77 36 25
-3005.1577 2636.7434 1253.9235 -0.085 -0.849 -0.521 24 26 25
-2951.3792 2627.5447 1219.3324 -0.152 -0.837 0.526 33 43 45
-2931.4919 2616.7720 1208.8143 -0.150 -0.836 0.528 57 73 77
-2888.3406 2600.0730 1183.9331 -0.325 -0.918 0.229 41 54 60
-2865.0254 2594.0315 1169.5697 0.159 -0.974 -0.158 77 94 101
-2859.8232 2597.3167 1164.9358 0.169 -0.974 -0.152 172 187 192
-2869.2217 2623.5222 1163.3932 0.709 -0.489 -0.509 205 204 209
-2900.1621 2723.9854 1153.9370 0.198 -0.806 -0.558 204 216 220
-2902.6765 2753.2732 1146.6523 0.590 0.036 -0.806 119 170 186
-2907.3123 2767.0176 1145.6390 0.584 0.040 -0.811 106 174 194
-3047.5552 2968.5181 1181.0874 0.840 -0.501 0.207 218 168 152
-2843.5251 2991.5398 1031.9855 -0.001 -0.194 -0.981 23 21 16
-2317.3313 3077.3494 639.2961 0.041 -0.936 -0.350 147 103 78
-2309.4597 3077.1597 633.8762 0.048 -0.946 -0.319 145 103 79
-2336.4446 3160.9426 626.8122 0.911 -0.411 -0.043 133 88 65
-2327.9375 3159.9944 621.1840 0.897 -0.437 0.070 133 88 65
-2348.0078 3200.7354 622.5850 0.923 -0.271 -0.272 129 84 61
-2272.9692 3301.7275 539.2064 0.674 -0.585 -0.450 14 13 3
-2260.4314 3294.4385 532.7288 0.678 -0.730 -0.082 13 13 3
-2142.8403 3242.0771 467.0400 0.507 -0.861 0.044 23 22 18
-2703.1523 5490.3818 163.4632 0.497 -0.494 -0.714 208 158 149
-2426.7759 5491.0410 -29.0921 -0.360 -0.809 -0.465 194 150 139
-2224.4995 5521.9507 -179.4069 0.229 -0.578 0.783 181 146 141
-2118.4221 5373.5981 -207.4715 0.760 -0.406 -0.508 227 192 188
-2147.0786 5502.1699 -227.1882 0.708 -0.696 -0.116 228 194 192
-2104.9758 5549.0391 -270.9487 -0.671 -0.469 -0.574 223 191 192
-5133.6758 3284.4553 2521.6296 0.924 -0.311 -0.222 170 168 156
-5139.6055 3298.4829 2521.3923 0.924 -0.297 -0.241 174 172 160
-3545.2346 2221.5532 1748.2522 0.901 -0.066 -0.429 163 161 149
-3544.6177 2228.0681 1745.8004 0.906 -0.066 -0.418 159 157 145
-3928.5129 2516.1758 1923.0138 0.721 -0.688 -0.083 176 174 162
-3969.9258 2616.6794 1920.5708 0.628 -0.771 0.111 173 174 160
-3963.5547 2620.2039 1915.0505 0.633 -0.766 0.107 186 188 174
-3974.2419 2635.9771 1917.5764 0.795 -0.398 -0.457 187 189 176
-4813.5195 3636.3030 2189.9558 0.725 -0.586 -0.362 111 112 104
-4806.1792 3641.5342 2183.2319 0.703 -0.610 -0.366 94 96 85
-3253.6526 2690.6921 1400.0035 0.288 -0.346 -0.893 91 44 28
-3251.8982 2697.6523 1396.6234 0.280 -0.383 -0.880 88 42 26
-3247.2881 2710.6396 1389.3876 0.568 -0.810 0.146 88 44 31
-3283.9724 2761.1890 1399.1733 -0.503 -0.864 0.014 88 42 30
-3182.9624 2720.8992 1341.5156 0.210 -0.384 -0.899 43 10 7
-2951.5977 2622.3357 1211.3995 -0.158 -0.837 0.525 29 38 41
-2932.5176 2612.3560 1201.2440 -0.158 -0.837 0.525 42 59 63
-2872.5916 2587.6694 1167.2810 0.013 -0.736 -0.677 30 46 51
-2902.9675 2694.7200 1155.1379 0.364 -0.492 -0.791 173 173 179
-2956.4434 2839.1187 1147.4436 0.319 0.014 -0.948 111 122 109
-3030.0359 2953.4841 1163.0507 0.784 -0.621 0.004 209 161 136
-3012.6699 2944.8625 1153.6643 -0.016 -0.854 0.520 202 166 132
-2979.6865 2929.2451 1135.6014 -0.097 -0.873 0.478 188 174 129
-2938.6343 3081.9797 1059.6511 0.897 -0.216 -0.385 18 13 8
-2761.3982 3462.4385 818.3764 0.906 -0.360 0.224 200 107 48
-2307.4963 2927.6707 669.1313 0.990 -0.049 0.133 204 110 46
-2448.8276 3176.4827 690.0430 -0.307 -0.905 0.295 189 118 74
-2439.6399 3174.9592 684.1335 -0.321 -0.915 0.246 157 91 51
-2350.0667 3116.1123 640.1835 -0.124 -0.666 -0.735 153 109 84
-2324.2104 3090.3962 630.2077 0.197 -0.903 -0.381 152 108 83
-2310.3757 3115.1526 612.9090 0.762 -0.200 -0.616 126 81 58
-2308.8147 3124.1436 609.0324 0.788 -0.238 -0.567 126 81 58
-2396.5083 3322.6724 608.2982 0.195 -0.110 -0.975 187 136 111
-2408.7505 3414.5142 588.2812 0.385 -0.309 0.870 105 58 39
-2377.8792 3392.5623 573.6526 0.405 -0.319 0.857 68 17 10
-2216.5112 3290.0024 493.4031 0.907 -0.381 -0.179 13 11 2
-2155.4963 3253.6467 462.3074 0.258 -0.880 0.399 21 20 16
-2541.6479 5495.1167 34.4696 -0.522 -0.697 -0.492 209 159 148
-2468.9531 5546.4834 -31.9823 0.356 -0.660 -0.662 198 154 143
-2455.2585 5538.9976 -39.1707 0.058 -0.636 -0.770 198 154 143
-2435.2869 5591.2681 -69.2775 -0.398 -0.820 0.411 197 153 141
-2165.2930 5399.3892 -197.2493 -0.087 -0.842 0.533 186 151 147
-2153.4087 5419.7080 -211.8152 0.566 -0.398 -0.722 227 192 188
-2150.6917 5438.4565 -219.5251 0.565 -0.401 -0.721 227 192 188
-2020.9475 5511.1289 -332.2245 0.158 -0.616 -0.772 244 219 223
-1946.2052 5662.4932 -431.1531 -0.671 -0.661 -0.336 254 238 248
-5136.2441 3290.4167 2507.6675 0.951 -0.304 -0.058 174 172 160
-3545.2043 2210.6208 1742.0314 0.988 -0.067 -0.142 169 167 155
-3930.2017 2512.8367 1914.5034 0.722 -0.689 -0.070 175 173 161
-3977.7771 2609.4924 1917.2744 0.793 -0.610 0.012 170 171 155
-3972.8201 2614.0181 1912.4225 0.634 -0.765 0.109 170 171 157
-3967.1104 2618.0098 1907.2155 0.634 -0.765 0.109 186 188 174
-3957.2405 2619.0205 1900.0558 0.745 -0.663 0.068 186 188 175
-3972.6091 2638.1616 1904.7284 0.605 -0.144 -0.783 187 189 176
-4572.2437 3312.7705 2109.6074 0.420 -0.621 -0.662 184 187 176
-4573.0933 3323.5715 2106.8201 0.454 -0.476 -0.753 180 183 172
-4642.1108 3418.5557 2124.9814 0.696 -0.321 -0.642 166 167 159
-4840.4482 3651.0967 2189.8079 0.760 -0.587 -0.279 113 114 106
-4813.6533 3640.7725 2174.4558 0.693 -0.618 -0.372 97 99 88
-4801.5098 3642.1431 2165.6074 0.578 -0.603 -0.550 79 81 70
-4780.4321 3636.2881 2152.8228 0.538 -0.646 -0.541 62 64 53
-3506.1895 2742.3938 1548.7325 -0.390 -0.882 0.265 72 68 54
-3113.8613 2528.2224 1343.6522 0.191 -0.587 -0.787 113 68 49
-3190.0242 2721.9353 1335.9030 0.209 -0.387 -0.898 58 20 11
-3055.8730 2656.9517 1263.1997 -0.342 -0.856 0.387 32 33 30
-2936.1687 2610.4868 1194.7241 -0.263 -0.846 0.463 35 52 55
-2890.3481 2591.2473 1168.9675 -0.170 -0.978 0.121 41 59 63
-2878.5151 2588.0757 1161.7542 0.090 -0.844 -0.529 34 52 56
-2873.4473 2591.4875 1157.1735 0.090 -0.844 -0.529 80 98 102
-2869.3066 2595.8108 1152.9509 0.086 -0.843 -0.531 184 197 200
-2865.3533 2600.3247 1148.7985 0.001 -0.919 -0.394 202 205 209
-2854.5371 2606.4934 1139.3704 -0.001 -0.933 -0.359 190 185 187
-2887.7358 2656.5229 1146.7493 0.683 -0.724 0.100 177 172 176
-2997.6938 2894.4656 1148.6058 0.577 -0.168 -0.799 219 176 166
-3036.9087 2954.3765 1157.0671 0.817 -0.573 0.057 210 164 136
-3022.2148 2948.5872 1148.6885 -0.034 -0.852 0.522 204 168 132
-2985.0588 2947.8149 1123.1663 0.931 -0.349 -0.108 183 159 131
-3025.5361 3020.2400 1128.5908 0.975 -0.139 0.174 46 39 25
-3026.6458 3041.2534 1122.7910 0.725 -0.397 -0.563 18 18 13
-2918.7769 3042.8132 1047.5082 -0.169 -0.228 -0.959 16 12 4
-2896.9675 3099.5537 1014.6472 0.139 -0.931 0.337 112 87 65
-2281.1018 2864.1028 661.2211 0.995 -0.057 0.081 193 98 39
-2438.1265 3109.4761 693.3901 0.987 -0.042 0.155 194 100 39
-2443.5984 3127.9778 691.4001 0.967 -0.036 0.253 190 101 45
-2443.5537 3172.4856 677.4548 -0.321 -0.936 0.143 156 92 52
-2434.5964 3171.2563 671.6283 -0.435 -0.883 0.177 88 39 10
-2420.5967 3162.9353 664.5225 -0.435 -0.883 0.177 80 36 10
-2333.0691 3095.1785 625.0142 0.062 -0.965 -0.256 156 114 89
-2411.5942 3336.3875 604.0544 0.190 -0.109 -0.976 191 141 110
-2418.6260 3358.9170 601.8869 0.236 -0.084 -0.968 171 118 86
-2456.7344 3427.8123 606.7723 0.690 -0.425 0.586 169 113 82
-2289.6416 3309.9512 527.7586 -0.005 -0.863 0.505 52 15 1
-2164.0645 3258.5659 456.7491 0.276 -0.873 0.402 15 14 10
-2200.4741 3380.3391 443.9257 -0.014 -0.442 -0.897 36 35 31
-2195.5791 3423.8574 426.9266 0.396 -0.775 -0.492 24 17 14
-2738.2498 5599.1885 123.1421 0.133 -0.744 0.655 215 165 156
-2756.4297 5882.8701 47.0615 -0.312 -0.812 0.492 218 168 157
-2441.9277 5562.5356 -70.8655 -0.393 -0.807 0.441 205 161 148
-2447.7803 5601.4897 -78.9856 -0.348 -0.774 0.529 204 160 146
-2034.9626 5876.5449 -451.2182 -0.693 -0.688 -0.215 247 230 238
-3547.9490 2215.4111 1732.8387 0.983 -0.136 0.126 163 161 149
-3933.2417 2510.4436 1906.6515 0.722 -0.689 -0.070 176 174 162
-3979.5254 2606.0310 1908.6028 0.799 -0.602 0.002 169 170 154
-3975.1047 2610.9292 1904.0018 0.634 -0.765 0.109 170 171 157
-3969.3999 2614.9175 1898.7986 0.634 -0.765 0.109 187 189 175
-3976.7886 2636.3906 1897.1547 0.604 -0.151 -0.783 186 188 175
-4564.3301 3300.5952 2094.7644 0.380 -0.483 -0.788 173 176 165
-4596.0000 3335.1851 2105.7979 0.438 -0.450 -0.778 168 171 160
-4582.6641 3335.0461 2096.6116 0.336 -0.532 -0.777 168 171 160
-4642.7905 3402.3872 2117.0330 0.307 -0.431 -0.848 168 169 161
-4819.1382 3594.2937 2178.6895 0.774 -0.182 -0.607 124 124 116
-4876.7974 3673.3538 2193.7148 0.658 -0.637 -0.401 117 118 110
-4840.9521 3655.8794 2174.4058 0.669 -0.662 -0.337 104 106 95
-4632.9180 3532.3279 2069.3079 0.182 -0.975 -0.129 35 37 26
-4060.8035 3136.1423 1798.0292 -0.527 -0.829 0.185 43 42 40
-3401.7297 2665.6851 1489.9398 0.125 -0.711 0.692 104 85 74
-3382.3870 2657.6074 1479.0946 0.132 -0.708 0.694 109 82 74
-3133.0256 2524.0620 1348.5396 -0.023 -0.659 -0.752 109 68 51
-3122.8723 2531.1555 1339.2800 0.191 -0.587 -0.787 113 68 49
-3177.0222 2704.4929 1322.2078 -0.201 -0.920 -0.338 75 32 19
-3166.0532 2702.9758 1315.0936 -0.220 -0.949 -0.224 65 29 11
-3114.9658 2681.3098 1286.5546 -0.332 -0.935 0.124 49 33 8
-3094.3032 2670.5659 1275.6350 0.931 -0.353 -0.092 41 29 7
-2995.2109 2636.4324 1217.7955 -0.456 -0.886 0.087 26 27 29
-2971.7148 2622.4221 1205.9431 -0.454 -0.888 0.070 18 23 22
-2961.8188 2621.3599 1199.4282 -0.293 -0.880 0.372 28 38 39
-2942.9382 2611.6238 1189.4250 -0.310 -0.874 0.374 35 51 54
-2886.1731 2590.1675 1156.8905 0.264 -0.953 -0.151 36 53 57
-2880.8152 2593.3037 1152.1953 0.263 -0.952 -0.155 79 97 101
-2874.7815 2595.7771 1147.2411 0.263 -0.952 -0.155 181 197 204
-2871.2209 2600.6765 1143.2350 0.176 -0.977 -0.123 198 205 212
-2870.2021 2608.0913 1140.1964 0.225 -0.974 0.010 200 198 204
-2883.5767 2638.2800 1139.9526 0.227 -0.967 0.113 190 189 194
-2886.8655 2650.1003 1138.5088 0.668 -0.744 0.032 194 192 197
-3005.0847 2895.9841 1142.9482 0.577 -0.168 -0.799 224 184 174
-3029.8577 2940.7283 1146.0127 0.813 -0.551 0.189 214 172 142
-3005.2195 2924.5061 1134.0657 0.807 -0.565 -0.175 207 175 138
-2994.2825 2922.5527 1127.1110 0.745 -0.609 -0.274 200 179 136
-2991.3601 2957.8032 1113.9951 0.931 -0.338 -0.139 50 33 14
-2902.7126 3058.3748 1020.9926 0.489 -0.564 -0.665 41 38 31
-2896.7532 3092.3992 1006.1607 0.145 -0.935 0.324 113 80 55
-2814.5452 3058.9143 959.8025 0.276 -0.808 0.521 111 71 48
-2375.3096 3005.4504 672.6345 0.730 -0.567 -0.380 196 100 35
-2411.9646 3066.0979 678.9175 0.969 -0.029 -0.246 194 100 40
-2415.4255 3159.0071 652.0743 -0.395 -0.913 0.103 124 81 57
-2378.4851 3129.4438 635.8115 -0.021 -0.650 -0.760 153 111 89
-2348.0286 3097.5107 624.7820 -0.080 -0.596 -0.799 155 114 90
-2309.2749 3154.0449 580.1695 0.134 -0.750 0.647 124 79 55
-2299.2500 3150.7485 574.2686 0.134 -0.750 0.647 150 104 71
-2285.0945 3141.3179 567.4395 0.137 -0.749 0.649 173 125 89
-2273.0237 3134.8833 561.1103 0.200 -0.777 0.597 164 113 74
-2184.1311 3294.2844 449.4246 0.798 -0.597 0.080 15 14 10
-2179.7185 3299.5496 444.7137 0.798 -0.597 0.080 35 34 30
-2201.4353 3385.3779 432.7336 0.437 -0.899 -0.023 20 20 16
-2174.1001 3378.7095 415.9136 0.296 -0.794 -0.531 20 19 14
-2810.1326 5569.0503 166.8092 -0.568 -0.646 0.510 215 168 158
-2781.6162 5533.0352 158.4071 -0.579 -0.648 0.494 215 168 158
-2497.7761 5526.4531 -35.9661 -0.572 -0.743 -0.348 209 164 151
-2701.4453 6076.1821 -68.0070 -0.564 -0.802 0.197 208 164 151
-2496.7034 5698.2539 -90.7743 -0.547 -0.701 0.458 209 165 152
-2518.6646 5828.4238 -116.5393 -0.482 -0.837 -0.258 207 166 147
-2159.9558 5447.6904 -244.9835 0.826 -0.419 -0.377 201 168 163
-5120.4707 3288.0388 2469.7786 0.870 -0.371 -0.325 163 161 148
-3957.5696 2577.8289 1891.4150 0.866 -0.007 -0.500 176 177 161
-3982.5896 2611.5430 1898.0194 0.445 -0.631 -0.635 171 172 158
-3977.0862 2615.6780 1892.9077 0.449 -0.616 -0.647 186 188 174
-3546.5295 2352.3975 1678.8770 0.773 -0.484 -0.411 186 190 176
-3788.7573 2623.5239 1760.3239 -0.605 -0.534 -0.591 192 195 188
-4556.6870 3288.6675 2080.1150 0.332 -0.545 -0.770 166 169 158
-4606.8833 3337.4744 2099.3303 0.436 -0.453 -0.778 158 161 150
-4592.1069 3336.2378 2089.5146 0.446 -0.478 -0.757 158 161 150
-4700.2505 3430.3997 2134.3928 0.464 -0.452 -0.762 158 160 149
-4694.4893 3436.3904 2128.5151 0.478 -0.469 -0.743 164 165 157
-4925.6274 3705.4744 2202.9485 0.367 -0.574 -0.732 120 121 113
-4842.0039 3661.1030 2159.2368 -0.115 -0.761 -0.639 90 92 81
-4642.2915 3533.3259 2061.7505 0.071 -0.895 -0.441 35 37 26
-3165.7375 2539.6423 1356.5103 0.293 -0.660 -0.692 114 84 66
-3160.5823 2543.1758 1351.8296 0.287 -0.678 -0.676 107 70 52
-3153.7930 2545.2778 1346.4738 0.528 -0.699 -0.482 111 68 49
-3146.5439 2546.9680 1340.9307 0.641 -0.661 -0.391 113 68 49
-3187.0728 2708.2974 1317.8237 -0.201 -0.920 -0.338 89 42 21
-3175.5076 2706.2532 1310.4819 -0.220 -0.949 -0.224 79 37 16
-3124.6626 2684.9075 1282.1196 -0.328 -0.939 0.104 60 39 10
-3104.1204 2674.3152 1271.2843 -0.329 -0.942 -0.071 48 34 6
-3043.2051 2651.1687 1236.5359 -0.154 -0.857 -0.491 44 44 44
-3025.0208 2642.4480 1226.7366 -0.306 -0.946 -0.104 43 42 38
-3018.5806 2644.8047 1221.5411 -0.398 -0.917 0.022 35 35 32
-3006.7429 2642.0164 1214.2471 -0.456 -0.886 0.087 27 29 27
-2986.1167 2630.7981 1203.5519 -0.452 -0.889 0.079 21 23 22
-2971.7100 2625.4504 1195.2936 -0.446 -0.862 0.242 29 36 38
-2886.9934 2585.6011 1149.3940 0.786 -0.618 0.021 36 50 53
-2884.5479 2591.5659 1145.8153 0.767 -0.642 0.016 81 97 102
-2881.5898 2597.0454 1142.0361 0.767 -0.641 0.020 182 197 201
-2878.5068 2602.4155 1138.2052 0.762 -0.646 0.047 199 203 208
-2875.6067 2607.9783 1134.4396 0.182 -0.978 0.106 205 200 203
-2802.5884 2671.4307 1063.8984 0.871 -0.419 0.256 217 194 175
-2977.3743 2965.5225 1091.4816 0.785 -0.578 0.223 18 13 4
-2967.9280 2965.0862 1085.0942 0.883 -0.421 0.209 14 13 7
-3011.5986 3031.7427 1094.1472 0.529 -0.492 0.692 10 12 6
-2901.7610 3060.6497 1009.1140 0.962 -0.206 -0.179 78 63 49
-2900.3899 3069.2480 1005.4432 0.959 -0.202 -0.198 102 76 59
-2887.8232 3085.5447 991.5999 -0.153 -0.800 0.580 114 69 39
-2290.8162 3118.9832 568.5921 0.046 -0.932 0.360 137 93 66
-2283.5640 3119.6501 563.3710 -0.064 -0.990 -0.125 155 109 74
-2276.2961 3120.2754 558.1523 -0.257 -0.961 0.105 170 124 84
-2266.3958 3116.9978 552.3513 -0.257 -0.961 0.105 176 127 84
-2267.2461 3129.5920 548.9492 0.209 -0.747 0.631 123 68 28
-2257.6699 3126.7598 543.2313 0.792 -0.331 -0.512 153 89 53
-2260.7295 3142.7209 540.2887 0.787 -0.262 -0.558 169 95 63
-2296.3296 3302.7285 514.1957 -0.027 -0.864 0.503 140 72 27
-2225.8716 3302.7297 465.5226 0.345 -0.870 0.353 7 15 2
-2212.9314 3382.1125 431.4373 0.916 -0.309 -0.257 36 36 31
-2191.9949 3360.6035 423.7876 0.306 -0.913 -0.271 19 21 16
-2186.3145 3363.9900 418.7909 0.306 -0.913 -0.271 18 20 15
-2171.9587 3353.0669 412.3341 0.250 -0.930 -0.271 18 21 14
-2186.9946 3390.6912 410.8025 0.459 -0.886 0.067 18 21 14
-2880.8738 5939.6040 82.7160 0.067 -0.760 0.647 214 166 156
-2737.5701 5656.2764 73.4710 0.248 -0.593 0.766 216 168 158
-2575.5466 5539.7637 -1.5477 -0.068 -0.472 -0.879 221 172 162
-2516.3438 5526.0435 -38.0991 -0.175 -0.766 0.618 218 171 161
-5134.1772 3291.6621 2464.2490 0.870 -0.370 -0.324 169 167 154
-3966.1040 2571.2827 1888.5309 0.523 -0.213 -0.825 182 183 167
-4071.0625 2812.7585 1883.9093 -0.557 -0.781 -0.281 197 200 191
-3820.0161 2658.4817 1759.9988 -0.604 -0.533 -0.592 185 186 180
-4872.3130 3678.5774 2160.3257 0.175 -0.666 -0.725 97 99 88
-4648.7881 3531.9956 2052.9382 0.138 -0.894 -0.426 42 43 33
-3394.0017 2657.1650 1466.6753 -0.389 -0.911 0.139 115 101 91
-3336.5520 2641.4377 1432.0773 -0.236 -0.971 0.042 116 100 82
-3250.4138 2658.1589 1367.3524 0.225 -0.913 0.339 106 52 37
-3217.8267 2654.3508 1346.0973 0.395 -0.913 0.101 113 48 30
-3213.9360 2710.2693 1325.5857 0.326 -0.474 -0.818 104 42 24
-3197.4866 2712.4185 1313.5582 -0.208 -0.933 -0.294 92 43 16
-3177.5273 2711.2725 1300.1615 -0.345 -0.939 0.009 82 43 15
-3158.3210 2702.1250 1289.8350 -0.458 -0.889 0.024 73 41 12
-3136.8269 2690.7798 1278.6318 -0.274 -0.949 0.157 64 38 6
-3117.7957 2681.6396 1268.4238 -0.287 -0.950 0.124 52 34 2
-3104.5405 2677.8176 1260.5028 -0.427 -0.883 0.193 40 30 10
-3051.9814 2654.0425 1231.8430 -0.157 -0.857 -0.490 41 41 37
-3036.4312 2647.8435 1223.0973 -0.109 -0.988 0.107 41 40 35
-3031.2253 2651.3896 1218.3772 -0.395 -0.918 0.020 34 33 28
-3018.3254 2647.6245 1210.6830 -0.456 -0.886 0.087 27 28 25
-2995.6309 2634.4810 1199.2253 -0.429 -0.903 -0.022 20 20 20
-2884.7161 2594.7122 1135.4279 0.742 -0.504 0.442 148 153 150
-2879.6580 2598.1396 1130.8475 0.742 -0.504 0.442 207 199 194
-2862.2642 2597.8293 1118.9531 0.258 -0.741 0.620 214 197 188
-2875.7673 2619.5742 1121.3306 0.215 -0.725 -0.654 212 195 186
-2931.3669 2691.8135 1136.6346 0.897 -0.440 -0.046 178 159 150
-3008.5815 2982.7441 1097.1149 0.439 -0.899 0.009 18 10 0
-2934.0693 3049.8281 1024.3486 0.772 -0.562 -0.296 32 21 2
-2927.3083 3052.3372 1018.8867 0.878 -0.402 -0.261 41 30 9
-2915.2222 3069.0806 1005.2147 -0.122 -0.900 0.419 104 71 46
-2896.5679 3058.1184 995.8475 -0.120 -0.897 0.425 127 81 54
-2886.1208 3056.3921 989.1946 -0.047 -0.770 0.636 130 77 46
-2889.2910 3080.3538 983.7404 -0.091 -0.742 0.664 100 53 24
-2868.6597 3066.9326 973.7941 -0.088 -0.745 0.662 85 42 15
-2834.7524 3048.2593 956.3682 -0.049 -0.741 0.670 78 40 7
-2801.5596 3020.0017 942.4910 0.566 -0.463 0.682 73 46 25
-2393.4424 3079.6875 642.0581 0.877 -0.023 0.480 170 100 57
-2258.7864 3143.0869 528.9963 0.773 -0.322 -0.547 184 96 61
-2296.4883 3294.2539 506.7944 0.004 -0.879 0.478 155 77 30
-2251.2932 3309.3894 470.8059 0.640 -0.752 -0.158 39 21 7
-2246.3479 3313.8972 465.9587 0.560 -0.820 -0.121 22 13 1
-2228.9917 3298.7725 458.8137 0.345 -0.870 0.353 16 13 1
-2189.2769 3385.0867 403.9094 0.744 -0.208 0.635 15 19 13
-2766.1426 5557.7954 108.9206 0.714 -0.003 -0.700 219 172 165
-2713.8958 5494.0796 93.2109 0.366 -0.840 -0.401 216 169 162
-2784.4065 5886.3833 16.7470 -0.358 -0.853 0.380 217 171 164
-2565.1162 5545.7773 -25.8581 -0.597 -0.748 -0.291 219 173 166
-3955.9543 2443.9382 1911.5697 0.373 -0.595 -0.711 165 157 144
-3953.4597 2449.8030 1907.9707 0.373 -0.595 -0.711 157 150 137
-5172.1299 3321.8384 2466.8496 -0.011 -0.421 -0.907 167 165 150
-3974.8389 2572.8037 1883.2128 0.514 -0.218 -0.829 182 183 165
-3422.6060 2659.5317 1475.3198 -0.294 -0.873 0.389 114 102 90
-3214.0823 2696.4399 1319.9644 0.474 -0.530 -0.703 117 50 25
-3210.2234 2701.4783 1315.6917 0.477 -0.560 -0.678 112 47 22
-3098.3772 2649.7390 1255.3197 -0.038 -0.988 0.151 69 40 2
-3087.3333 2647.9243 1248.3014 -0.017 -0.989 0.144 58 37 2
-3076.8464 2646.5979 1241.5098 0.034 -0.974 0.225 41 30 7
-3066.2141 2645.1077 1234.6705 0.030 -0.977 0.212 30 28 19
-3065.6082 2652.9873 1231.7249 0.134 -0.988 0.080 35 34 30
-3043.6150 2649.2307 1217.7941 -0.094 -0.994 0.058 41 40 35
-3039.3228 2653.6465 1213.4231 -0.396 -0.918 0.028 34 33 29
-3027.3293 2650.7632 1206.0941 -0.452 -0.887 0.091 29 28 23
-3007.8538 2640.7246 1195.9120 -0.338 -0.940 0.047 20 22 17
-2934.1616 2603.8232 1157.0371 -0.076 -0.887 0.456 45 54 56
-2918.6111 2597.1843 1148.4652 -0.097 -0.828 0.553 40 49 50
-2889.8074 2577.6506 1134.9102 0.701 -0.415 0.579 30 41 42
-2885.9138 2582.1785 1130.7776 0.728 -0.398 0.558 38 48 49
-2880.6104 2585.3398 1126.1130 0.728 -0.398 0.558 128 130 129
-2876.8743 2590.0325 1122.0359 0.450 -0.582 0.678 207 191 183
-2872.0977 2593.7139 1117.5671 0.480 -0.600 0.640 218 192 176
-2899.3389 2680.2849 1108.5339 -0.541 -0.750 -0.381 120 89 67
-2982.5012 2872.9011 1103.9568 0.808 -0.500 0.310 211 193 166
-3000.7661 2920.1521 1101.3640 0.705 -0.311 -0.638 204 194 167
-3013.1631 2981.2195 1090.2988 0.438 -0.899 0.003 20 8 0
-2953.9114 2995.5549 1044.9199 0.666 -0.387 0.638 60 47 16
-2926.5061 3044.7332 1010.2774 0.848 -0.398 -0.350 77 50 14
-2881.7026 3044.6084 979.4825 -0.122 -0.794 0.595 159 77 47
-2863.4255 3054.1116 963.8541 -0.080 -0.741 0.666 73 31 4
-2822.5256 3017.3115 947.5151 0.415 -0.539 0.733 58 28 2
-2809.7351 3012.6328 940.2137 0.414 -0.546 0.728 70 42 21
-2379.6062 3052.9871 631.2379 0.822 -0.054 0.567 191 116 65
-2352.7305 3113.9326 593.1834 0.261 -0.949 -0.179 163 121 103
-2328.9214 3124.5457 573.3916 0.367 -0.915 -0.166 119 74 50
-2326.6499 3132.5010 569.2754 0.378 -0.915 -0.141 127 81 58
-2291.0398 3125.8152 546.9131 -0.329 -0.940 -0.085 162 121 88
-2263.4399 3153.3015 519.0976 0.459 -0.443 -0.770 200 97 53
-2255.5195 3307.1619 464.2718 0.640 -0.752 -0.158 107 63 42
-2253.8306 3316.7837 460.0217 0.624 -0.753 -0.209 51 17 4
-2250.5461 3323.9299 455.4680 0.574 -0.776 0.263 35 10 2
-2722.5891 5494.8408 83.6807 0.366 -0.840 -0.401 220 181 175
-2358.2676 4933.0610 13.2239 0.572 -0.416 0.707 221 182 178
-2595.3928 5595.2568 -36.0832 -0.604 -0.690 -0.398 213 175 171
-2567.9871 5630.7485 -66.3341 -0.054 -0.598 -0.800 219 183 178
-3956.0715 2447.2217 1900.0354 0.221 -0.527 -0.820 157 149 136
-5184.9761 3334.8757 2457.5310 -0.015 -0.423 -0.906 153 151 136
-3561.8062 2236.6062 1697.2218 0.794 -0.011 -0.608 175 173 158
-3985.4128 2575.6060 1878.7266 0.503 -0.219 -0.836 182 183 167
-3991.9761 2588.1536 1879.1827 0.493 -0.311 -0.813 184 182 167
-4161.3369 2977.0464 1869.9222 0.743 -0.124 -0.657 166 167 159
-4174.7153 2996.4956 1872.8308 0.769 -0.116 -0.628 165 168 158
-4516.9082 3320.2832 2003.3223 0.179 -0.428 0.886 144 145 137
-4471.9414 3295.1025 1980.5656 0.178 -0.425 0.887 129 130 122
-4472.6689 3305.7600 1977.6230 0.143 -0.449 0.882 116 117 111
-4162.3721 3080.0916 1837.3524 0.568 -0.425 0.705 120 121 113
-4652.0425 3521.5093 2031.1609 0.379 -0.684 -0.623 55 55 45
-3291.9561 2709.8320 1359.0131 0.035 -0.638 -0.769 126 60 37
-3246.8645 2703.6243 1330.0427 0.539 -0.449 -0.713 122 56 30
-3232.8928 2716.6855 1316.2267 0.434 -0.752 -0.496 119 53 27
-3202.1548 2705.8406 1298.6141 0.710 -0.648 -0.274 107 50 21
-3152.6448 2686.0405 1270.9987 -0.021 -0.788 0.615 89 50 15
-3112.9260 2657.8552 1252.8174 -0.265 -0.915 0.304 79 46 8
-3082.3232 2646.3459 1235.5122 0.036 -0.978 0.206 48 33 10
-3072.1821 2645.3242 1228.8760 0.036 -0.978 0.206 32 28 19
-3069.5999 2651.3486 1225.1562 0.226 -0.970 0.093 35 34 29
-3048.1963 2648.1609 1211.4829 -0.104 -0.989 0.103 40 40 35
-3049.5999 2657.9500 1209.2855 -0.396 -0.918 0.028 33 34 28
-3030.5764 2648.4375 1199.2899 -0.336 -0.940 0.052 29 29 21
-3015.4634 2642.5618 1190.8058 -0.336 -0.940 0.052 20 21 16
-2996.5713 2633.0320 1180.9060 -0.438 -0.865 0.246 34 39 36
-2957.6797 2621.0718 1158.0526 -0.233 -0.821 0.521 45 53 55
-2934.7502 2607.3933 1146.7192 -0.233 -0.821 0.521 46 55 54
-2895.0571 2577.4094 1129.1364 0.425 -0.566 0.707 37 45 47
-2887.6182 2578.4983 1123.6746 0.436 -0.566 0.700 38 46 48
-2881.3340 2580.6970 1118.6475 0.419 -0.566 0.710 120 123 122
-2872.7698 2580.6660 1112.7745 0.427 -0.567 0.704 197 182 173
-2822.5115 2640.3735 1058.9663 0.112 -0.902 0.417 140 106 80
-2813.1018 2639.3853 1052.8217 0.183 -0.948 0.262 182 148 121
-2830.3345 2691.6580 1047.7770 0.536 0.045 -0.843 188 172 148
-2857.2112 2728.1758 1054.4452 -0.108 -0.285 -0.952 198 180 156
-2853.6497 2733.3728 1050.3203 -0.029 -0.435 -0.900 206 184 161
-3007.6736 2902.2722 1101.5757 0.874 -0.486 0.006 205 185 161
-3012.6797 2955.0415 1087.9716 0.815 -0.564 -0.131 49 29 13
-3022.8010 2975.3711 1088.3585 0.632 -0.246 -0.735 39 19 5
-3018.0449 2980.0171 1083.5908 0.742 -0.669 0.037 40 18 3
-2949.3728 2984.1262 1035.0901 0.665 -0.373 0.647 108 75 45
-2932.4597 3034.6807 1007.1442 0.829 -0.558 -0.019 103 54 20
-2930.4697 3042.4678 1003.2621 0.848 -0.398 -0.350 111 62 28
-2913.6646 3053.8003 988.0580 0.792 -0.386 -0.473 138 73 38
-2901.4104 3050.0754 980.8432 -0.142 -0.890 0.432 158 76 41
-2881.2620 3037.3718 971.1053 -0.142 -0.790 0.597 167 83 47
-2816.9827 3004.2339 937.6520 0.418 -0.546 0.726 68 33 4
-2805.9087 3001.5066 930.9257 0.485 -0.495 0.721 82 50 29
-2311.6755 2920.9392 617.4387 0.964 0.131 0.232 193 114 57
-2380.0305 3056.7852 620.5201 0.906 -0.007 0.423 146 83 46
-2379.6714 3133.0798 595.6324 0.482 -0.435 0.761 144 112 106
-2352.7561 3362.8088 502.9474 0.287 -0.512 -0.809 178 84 32
-2352.6802 3375.0173 498.9523 -0.641 -0.665 -0.384 173 78 23
-2270.8882 3297.9233 467.6653 0.297 -0.926 -0.234 161 86 39
-2262.1228 3308.6587 458.1768 0.351 -0.922 -0.161 133 81 57
-2261.1782 3319.4402 454.0457 0.241 -0.943 -0.228 71 29 16
-2255.1140 3322.2124 448.9847 0.241 -0.943 -0.228 39 6 1
-2137.9895 3475.8079 318.9204 0.201 -0.814 -0.545 215 182 175
-2715.0894 5461.6182 73.9935 0.151 -0.434 -0.888 219 182 176
-1968.3975 5339.9121 -399.6306 0.833 -0.080 0.547 238 206 211
-5203.4570 3341.7024 2454.0229 -0.023 -0.418 -0.908 152 150 135
-3994.8008 2577.5667 1873.6736 0.515 -0.206 -0.832 183 184 168
-3562.2527 2339.3188 1654.5343 0.194 -0.621 0.759 174 178 164
-3875.5015 2580.0469 1791.0697 0.531 -0.232 -0.815 175 181 169
-4167.3599 2886.3889 1891.6118 0.298 -0.252 -0.921 154 155 149
-4111.3540 2879.7698 1855.3628 -0.607 -0.555 -0.569 169 170 164
-4176.2432 3010.5635 1857.3417 0.918 -0.348 -0.189 164 167 157
-4165.5518 3011.5168 1849.7014 0.832 -0.383 -0.401 164 165 157
-4304.5928 3157.7598 1897.5013 0.073 -0.508 0.858 129 130 124
-3544.7649 2675.6616 1533.2211 -0.157 -0.903 0.401 102 95 85
-3252.1250 2578.2629 1364.2294 0.392 -0.904 0.171 113 103 89
-3245.0598 2580.2849 1358.7279 0.392 -0.904 0.171 113 102 87
-3238.0012 2582.3049 1353.2316 0.392 -0.904 0.171 117 99 82
-3236.7542 2589.3606 1350.0831 0.398 -0.898 0.186 109 80 58
-3311.0464 2738.6411 1352.5007 0.906 -0.178 -0.385 131 65 39
-3206.2698 2704.1909 1291.8579 0.710 -0.648 -0.274 117 53 26
-3142.7661 2671.5605 1258.9222 -0.225 -0.917 0.330 97 53 20
-3121.0823 2660.0386 1247.7998 -0.236 -0.918 0.318 89 49 14
-3101.1399 2650.0405 1237.3760 -0.103 -0.988 0.119 79 43 9
-3090.8623 2648.9358 1230.6882 -0.003 -0.986 0.168 54 34 12
-3080.5505 2647.7729 1223.9958 0.040 -0.984 0.172 33 28 19
-3073.6577 2649.7759 1218.6187 0.226 -0.970 0.093 34 35 29
-3029.3040 2641.8472 1190.7845 -0.130 -0.974 0.186 28 28 20
-3017.2097 2638.8323 1183.4719 -0.130 -0.974 0.186 22 21 16
-2918.8154 2578.4226 1135.6428 -0.447 -0.861 0.242 44 54 55
-2940.5815 2607.6458 1141.0684 -0.242 -0.812 0.532 51 60 59
-2912.9558 2589.3701 1128.0668 -0.239 -0.806 0.542 43 49 49
-2881.9844 2567.7290 1113.8652 0.716 -0.412 0.564 39 44 47
-2877.4053 2571.5544 1109.4822 0.749 -0.380 0.543 111 117 115
-2872.7478 2575.3071 1105.0690 0.729 -0.396 0.558 187 174 164
-2868.5161 2579.4788 1100.8116 0.718 -0.408 0.564 191 166 151
-2928.7817 2672.4917 1111.9006 0.522 -0.847 -0.100 116 92 72
-2934.2319 2686.5144 1111.0797 0.492 -0.472 0.731 113 86 69
-2805.9905 2652.3105 1034.2681 0.379 0.049 -0.924 201 184 161
-2841.2493 2697.1677 1043.8632 0.529 0.046 -0.847 187 170 146
-2876.5305 2742.2996 1053.3845 -0.131 -0.347 -0.929 194 172 149
-2863.9331 2738.1982 1046.0802 -0.248 -0.466 -0.849 204 177 154
-3020.7925 2976.5566 1076.1567 0.742 -0.669 0.037 73 42 19
-2933.3372 2902.8091 1040.1631 0.680 -0.658 0.323 72 43 21
-2940.4021 2967.9319 1023.8401 0.626 -0.401 0.669 139 80 52
-2929.9746 2976.0464 1014.0531 0.917 -0.110 0.383 147 77 47
-2969.7549 3079.4863 1007.7072 -0.208 -0.732 0.649 148 73 40
-2903.7620 3045.9963 973.3444 0.254 -0.615 0.746 160 76 35
-2889.5764 3040.0496 965.5508 -0.174 -0.750 0.638 170 89 45
-2869.2244 3027.0586 955.8188 -0.174 -0.750 0.638 156 83 46
-2832.5576 3005.3704 937.7277 -0.061 -0.764 0.642 108 51 21
-2814.2747 2994.4495 928.7416 0.418 -0.546 0.726 84 38 9
-2320.7109 2967.5867 599.0593 0.977 0.087 0.196 175 116 72
-2290.8833 3120.8149 528.8035 0.061 -0.986 -0.154 160 133 101
-2363.6560 3370.5916 497.5147 0.591 -0.237 -0.771 184 90 38
-2036.0680 5171.4888 -312.4487 0.725 -0.179 0.665 234 200 198
-1906.6146 5355.5723 -461.0422 0.913 -0.022 0.407 244 207 214
-4028.5239 2604.5032 1877.0848 0.463 -0.274 -0.843 174 173 155
-3235.2656 2140.5144 1485.9716 -0.391 -0.884 0.258 175 181 171
-3411.9187 2570.2866 1466.2916 0.064 -0.693 0.719 86 80 68
-3399.2141 2567.8997 1458.3778 0.177 -0.613 0.770 88 81 71
-3387.7773 2566.5215 1451.0017 0.167 -0.617 0.769 88 81 71
-3369.8713 2559.7800 1440.9524 0.359 -0.628 0.690 89 81 70
-3346.6975 2556.6030 1426.1321 0.430 -0.692 0.580 93 81 69
-3236.3857 2624.9580 1328.2798 0.416 -0.888 0.198 122 60 45
-3259.1482 2653.3054 1334.5853 0.816 -0.555 0.161 131 64 49
-3279.2527 2721.9771 1325.8823 0.962 -0.119 0.247 145 79 53
-3137.9695 2661.8003 1248.8760 -0.214 -0.962 0.171 117 66 35
-3125.5527 2658.8162 1241.3544 -0.202 -0.965 0.165 115 67 35
-3110.4600 2653.3220 1232.8225 -0.167 -0.982 0.089 99 58 26
-3098.7153 2650.8777 1225.5842 -0.108 -0.993 0.036 55 32 12
-3088.1335 2649.4797 1218.7997 -0.108 -0.993 0.036 38 33 24
-3131.1775 2698.0403 1232.3738 0.184 -0.964 0.193 33 35 29
-3025.5608 2632.9490 1181.3840 -0.022 -0.996 0.082 31 28 21
-2929.8640 2583.7126 1131.9971 -0.461 -0.848 0.263 47 57 58
-2940.9453 2602.6455 1133.3879 -0.239 -0.811 0.534 49 57 59
-2915.5344 2586.5308 1121.2684 -0.242 -0.796 0.555 41 49 51
-2879.9507 2560.4756 1105.4386 0.749 -0.381 0.542 36 41 44
-2870.6479 2567.9478 1096.6279 0.718 -0.410 0.563 129 114 105
-2866.1506 2571.8386 1092.2776 0.718 -0.408 0.564 146 122 106
-2826.8489 2633.6548 1045.1609 0.392 -0.908 0.149 217 193 177
-2822.5503 2637.8445 1040.8486 0.199 -0.967 0.157 193 169 153
-2817.1650 2649.5144 1033.3461 0.385 0.031 -0.922 217 201 176
-2816.4097 2657.3530 1030.2653 0.379 0.049 -0.924 205 189 164
-2834.8774 2684.9292 1033.8839 0.360 0.034 -0.932 169 150 123
-2893.5100 2753.9587 1051.4310 -0.131 -0.347 -0.929 168 141 117
-2881.6697 2750.6899 1044.3971 -0.246 -0.465 -0.851 173 137 115
-3007.3760 2917.9062 1075.7312 0.978 -0.204 0.042 144 100 77
-3015.0342 2935.4016 1075.2496 0.832 -0.548 -0.091 120 77 50
-3019.2063 2949.3201 1073.5522 0.803 -0.546 -0.240 124 82 53
-2984.9797 2932.3572 1055.6771 0.308 -0.944 0.114 111 67 40
-2914.4614 2867.1562 1028.7434 0.725 -0.624 0.293 108 66 38
-2894.8684 3039.3071 959.0251 -0.169 -0.745 0.645 170 90 40
-2872.7439 3024.3467 948.7772 -0.178 -0.748 0.640 164 90 45
-2849.4348 3007.9282 938.1956 -0.006 -0.714 0.700 159 88 49
-2835.8401 3002.4355 930.6885 -0.035 -0.730 0.683 148 81 47
-2818.2358 2992.3120 921.9520 -0.040 -0.731 0.682 115 55 23
-2290.0120 2928.4250 581.3491 0.839 -0.013 0.545 157 104 64
-2321.4021 2982.1875 585.2462 0.976 0.129 0.176 107 59 30
-2323.1643 2995.2019 582.1953 0.974 0.111 0.200 68 27 14
-2288.2664 3120.2332 517.4152 0.256 -0.902 -0.347 139 119 87
-2353.0393 3321.3804 495.9500 0.167 -0.430 -0.887 197 103 51
-2365.0742 3351.7031 494.2680 0.595 -0.134 -0.793 195 101 50
-2355.9688 3387.0120 476.4871 -0.734 -0.643 -0.218 186 93 37
-2306.3440 3347.5293 455.4399 -0.684 -0.696 -0.219 166 106 66
-2169.7358 3510.8433 308.5307 0.874 -0.012 -0.486 215 180 174
-2151.7595 3493.2751 301.9747 0.533 -0.608 -0.589 217 182 176
-2187.0466 5632.0576 -373.4577 0.694 -0.243 0.678 238 204 203
-4538.1260 2815.8271 2144.6848 -0.072 -0.416 -0.907 170 162 149
-4539.2734 2825.1819 2142.3899 -0.120 -0.405 -0.907 162 154 141
-4038.0955 2606.5476 1872.0061 0.384 -0.221 -0.897 171 172 154
-3689.0164 2406.6062 1699.3661 -0.459 -0.273 -0.845 172 176 162
-3690.5264 2422.6047 1695.1317 -0.452 -0.269 -0.851 174 178 164
-3197.7866 2635.3096 1288.5361 0.921 -0.248 0.300 153 87 61
-3200.3315 2645.9170 1286.7831 0.911 -0.327 0.252 148 82 56
-3279.0833 2733.6150 1311.7113 0.505 -0.861 0.058 138 69 44
-3231.0762 2733.1807 1279.0613 -0.138 -0.685 0.715 137 70 44
-3140.1455 2658.4663 1241.5403 -0.055 -0.991 0.125 126 65 37
-3132.8806 2660.2234 1235.9994 -0.303 -0.952 -0.041 126 69 40
-3120.5071 2657.2593 1228.5228 -0.297 -0.954 -0.032 106 59 30
-3107.3865 2653.5669 1220.7758 -0.258 -0.965 -0.039 57 32 14
-3095.0723 2650.5806 1213.3469 -0.258 -0.965 -0.039 38 34 25
-3147.1804 2707.4949 1230.2079 0.112 -0.969 0.220 34 35 30
-3014.5872 2617.2749 1169.3314 -0.351 -0.925 -0.145 32 28 23
-2936.4624 2584.7285 1126.6782 -0.477 -0.839 0.261 48 59 61
-2950.5110 2606.4800 1129.1151 -0.262 -0.789 0.555 47 57 58
-2902.8708 2569.0500 1108.8929 -0.271 -0.879 0.393 40 48 51
-2883.6494 2558.7734 1099.1455 0.710 -0.531 0.462 34 41 44
-2877.5984 2561.1506 1094.2297 0.710 -0.531 0.462 49 51 50
-2871.6851 2563.6560 1089.3657 0.692 -0.533 0.486 97 80 72
-2863.7971 2564.2366 1083.7865 0.718 -0.408 0.564 118 92 77
-2827.4941 2628.7759 1037.7454 0.386 -0.914 0.126 153 135 123
-2822.8684 2641.1589 1030.5095 0.655 -0.020 -0.755 195 179 161
-2825.2759 2660.7888 1025.6930 0.385 0.048 -0.922 205 190 162
-2836.6235 2681.0432 1026.7775 0.343 0.028 -0.939 159 137 110
-2911.6921 2766.8042 1049.8275 -0.127 -0.348 -0.929 151 118 98
-2899.7004 2763.4333 1042.7457 -0.236 -0.458 -0.857 145 100 84
-3011.9185 2888.2820 1078.3060 0.938 -0.248 0.241 154 99 87
-3009.1694 2894.7896 1074.2863 0.938 -0.248 0.241 211 150 139
-3006.9731 2901.8896 1070.4491 0.938 -0.251 0.239 186 126 110
-3008.1948 2912.5728 1067.7672 0.974 -0.212 0.076 152 95 73
-3023.1919 2937.6965 1069.7418 0.905 -0.423 0.040 145 91 61
-3018.8455 2952.2285 1061.9897 0.805 -0.588 0.086 136 78 49
-2988.9033 2930.2407 1048.7740 0.308 -0.944 0.114 132 74 46
-2910.8823 2857.2351 1019.5088 0.641 -0.701 0.314 127 70 42
-2926.7122 2883.3506 1021.7261 0.460 -0.719 0.521 120 62 34
-3002.8726 3112.9143 998.1890 0.983 -0.170 0.069 176 79 40
-2894.2375 3031.9043 950.6465 -0.169 -0.745 0.645 168 90 34
-2871.5774 3016.3569 940.2850 -0.172 -0.747 0.642 167 89 40
-2849.9392 3001.8479 930.2800 -0.046 -0.733 0.679 169 93 50
-2833.4143 2993.0312 921.8942 -0.046 -0.733 0.679 168 93 54
-2262.8442 2894.0505 564.7255 0.843 -0.023 0.537 159 110 69
-2390.0693 3113.1504 579.5141 -0.530 -0.802 0.276 62 33 11
-2345.6494 3083.7524 558.8480 0.678 -0.400 0.617 36 12 2
-2286.6738 3054.5845 528.1633 0.242 -0.857 0.455 81 56 46
-2280.7725 3057.0513 523.3202 0.273 -0.840 0.468 98 73 63
-2275.5005 3060.4216 518.6096 0.394 -0.792 0.466 107 82 70
-2299.2361 3105.8389 519.8739 0.695 -0.689 0.207 111 90 74
-2294.9355 3110.7646 515.3149 0.673 -0.713 0.195 119 104 81
-2364.1128 3390.5854 470.4655 -0.710 -0.685 -0.167 185 93 35
-2356.9275 3391.9656 465.1031 -0.734 -0.643 -0.218 179 94 44
-2341.4702 3380.5820 458.2913 -0.693 -0.714 -0.098 189 115 70
-2328.5479 3373.0151 451.9548 -0.688 -0.704 -0.176 186 124 86
-2311.1152 3358.3721 444.8667 -0.651 -0.714 -0.259 165 117 89
-2295.6931 3346.7334 438.1630 -0.651 -0.714 -0.259 82 42 28
-2280.4016 3335.1934 431.5160 -0.651 -0.714 -0.259 34 3 0
-2362.4941 4506.2788 102.1278 0.758 -0.632 0.161 207 169 166
-2371.7920 5664.9248 -272.8908 -0.188 -0.239 -0.953 229 195 193
-4021.0762 2458.3154 1898.5487 -0.063 -0.466 -0.882 173 167 152
-4562.7139 2827.3245 2145.6211 -0.045 -0.429 -0.902 170 162 149
-4566.3501 2838.3706 2144.4414 -0.126 -0.445 -0.887 162 156 142
-3852.3643 2510.5447 1766.2216 0.614 -0.164 -0.772 172 176 162
-4817.4863 3292.2581 2165.3364 -0.598 -0.626 -0.500 142 145 136
-3350.6333 2582.1326 1400.4291 -0.563 -0.816 -0.131 26 16 5
-3334.0303 2592.4539 1385.6906 0.447 -0.893 -0.047 24 14 2
-3331.6270 2598.5427 1382.0353 0.470 -0.881 -0.051 25 13 1
-3250.2197 2626.7844 1317.1777 0.073 -0.678 0.732 145 88 69
-3274.7139 2664.9336 1321.2426 -0.081 -0.595 0.800 164 97 79
-3215.1123 2662.2761 1281.4862 0.989 -0.097 0.111 143 77 51
-3284.6047 2733.1704 1305.3857 0.524 -0.849 0.067 137 70 44
-3231.6577 2711.0950 1276.5978 0.692 -0.718 -0.078 147 61 41
-3022.9309 2619.8093 1164.5216 -0.346 -0.928 -0.140 30 28 23
-2954.2852 2604.7581 1122.7037 -0.248 -0.779 0.575 50 56 58
