ply
format ascii 1.0
element vertex 798
property float x
property float y
property float z
property float nx
property float ny
property float nz
property uchar diffuse_red
property uchar diffuse_green
property uchar diffuse_blue
end_header
-1145.5007 2800.2856 -895.4269 0.740 0.055 0.671 157 80 68
-1142.3611 2803.6016 -899.8479 0.457 -0.200 0.866 181 107 94
-1133.3474 2794.3079 -899.9514 0.455 -0.202 0.867 181 107 93
-1133.3726 2804.4314 -906.7076 0.473 -0.354 0.807 183 109 94
-1132.2661 2812.1731 -912.6638 0.968 -0.195 -0.156 183 109 94
-1138.2207 2835.3276 -923.9803 0.918 -0.127 -0.377 176 102 87
-1129.3883 2826.3574 -924.1733 0.948 -0.150 -0.282 175 103 89
-1117.4417 2820.7515 -928.8018 0.901 -0.197 -0.387 175 106 94
-1141.4089 2884.1101 -954.3855 0.943 -0.032 0.332 158 97 94
-1128.8324 2920.6201 -987.6362 0.908 0.269 0.320 51 23 12
-1048.9288 2912.4597 -1038.2205 -0.392 -0.810 0.436 29 7 8
-1045.8855 2916.5522 -1043.0935 0.985 0.004 0.174 26 8 8
-1045.2362 2926.5342 -1050.2280 0.979 0.005 0.204 17 11 8
-1044.1913 2935.6177 -1057.0388 0.977 0.032 0.212 15 11 8
-1036.0808 2939.0339 -1065.0133 0.953 0.069 0.295 16 11 8
-1032.8450 2942.7881 -1069.7950 -0.494 -0.765 0.413 14 9 6
-1051.8395 3665.8638 -1540.2966 0.807 -0.005 0.591 223 17 55
-3385.7412 2733.6960 710.3832 -0.195 -0.978 0.067 90 53 34
-3278.9033 2762.0051 616.5380 -0.257 -0.896 0.363 89 49 24
-3273.7930 2763.8569 611.7147 -0.122 -0.916 0.382 86 45 23
-3218.5286 2745.1099 585.6038 -0.157 -0.986 0.056 68 35 15
-3208.0654 2742.8706 579.7801 -0.192 -0.978 0.081 56 25 8
-3223.8816 2771.8181 571.4096 0.132 -0.836 -0.533 53 25 13
-3264.6919 2826.0105 563.5841 0.789 -0.518 0.330 71 44 26
-3273.4260 2838.5684 561.2646 0.824 -0.435 0.364 77 49 28
-3271.1831 2842.7385 556.8922 0.821 -0.434 0.370 80 49 27
-3251.6526 2845.4023 541.4239 0.683 -0.359 0.636 89 56 39
-3218.1731 2837.1482 523.5209 0.595 -0.336 0.730 96 59 40
-3258.4958 2923.2468 493.9188 0.225 -0.835 0.501 100 61 44
-3251.7678 2924.0491 488.6677 -0.187 -0.891 0.414 99 62 44
-3076.8677 2911.3586 374.6978 0.822 -0.410 0.395 80 53 48
-3097.0012 2940.8777 368.9672 -0.084 -0.686 0.723 76 64 68
-2644.8162 2804.2256 144.0749 0.598 -0.503 -0.625 108 62 39
-2697.7764 2892.4463 121.8980 0.972 -0.183 0.148 130 108 101
-2766.4204 3025.6907 80.4574 0.569 -0.384 -0.727 117 75 76
-2757.0225 3037.3945 66.0124 -0.155 -0.882 0.446 135 68 59
-2735.7639 3087.2051 17.6595 0.472 -0.716 0.514 137 95 102
-2606.2573 3033.9250 -37.2488 0.591 -0.495 0.636 163 125 138
-2697.2874 3234.7222 -108.3944 0.986 -0.063 -0.152 177 144 155
-2594.3638 3177.4707 -142.0164 0.651 -0.759 0.009 186 152 153
-2567.8103 3156.0547 -146.2260 0.512 -0.855 0.076 186 152 151
-2655.4199 3268.2422 -160.2368 0.850 -0.526 0.005 174 140 141
-2581.9170 3291.0823 -227.0609 0.489 -0.468 0.736 176 145 150
-2573.6594 3289.8403 -232.0101 0.641 -0.484 0.595 198 167 172
-2569.3237 3293.0930 -237.2319 0.621 -0.479 0.620 190 159 164
-2557.3689 3287.5615 -241.8884 0.192 -0.447 0.874 195 166 170
-2550.3438 3287.6912 -246.8960 0.277 -0.358 0.892 195 164 169
-2473.5842 3510.5486 -450.3777 -0.201 -0.978 0.046 214 168 170
-2065.3784 3151.2642 -494.8978 0.605 -0.352 0.714 181 133 129
-2060.9341 3162.4387 -505.5178 0.238 -0.965 0.114 86 46 44
-2000.7231 3113.9514 -515.1130 0.467 -0.672 0.575 85 47 44
-2017.1947 3243.4407 -590.5710 -0.280 -0.935 0.216 84 38 29
-1996.1794 3231.4299 -597.2203 0.277 -0.960 -0.043 117 61 46
-1529.6661 2613.8464 -509.0456 0.523 -0.847 0.089 156 61 31
-1525.9357 2615.6331 -512.8586 0.549 -0.831 0.088 156 61 31
-1523.3396 2619.1155 -517.0164 0.655 -0.754 -0.054 152 57 27
-1518.4989 2619.2480 -520.4957 0.546 -0.836 0.053 152 57 27
-1511.5083 2616.1406 -523.3041 -0.039 -0.993 -0.109 152 57 27
-1505.4707 2614.4407 -526.3906 -0.409 -0.688 0.600 152 57 27
-1489.0658 2619.2637 -541.1203 0.904 -0.154 0.398 172 77 49
-1475.9703 2659.7268 -577.4763 -0.203 -0.964 0.172 168 76 51
-1469.9021 2657.9207 -580.5130 -0.203 -0.964 0.169 173 81 56
-1463.8470 2656.1138 -583.5397 -0.203 -0.964 0.169 173 81 56
-1455.4052 2658.2605 -590.8947 -0.020 -1.000 0.021 175 81 56
-1451.4019 2659.6768 -594.6498 0.095 -0.995 -0.040 175 78 52
-1345.9874 2719.2869 -708.5269 0.968 -0.251 0.003 175 102 74
-1344.4596 2725.1238 -713.5184 0.968 -0.251 0.003 164 99 71
-1225.6981 2681.1631 -767.1620 0.752 0.104 0.651 140 86 73
-1181.5884 2837.5608 -903.1273 0.981 0.110 0.160 150 70 61
-1155.9139 2793.5354 -891.5316 0.464 -0.154 0.872 146 66 57
-1144.1681 2778.6160 -889.7347 0.819 0.097 0.566 140 61 52
-1141.4314 2782.7026 -894.3970 0.819 0.097 0.566 138 61 52
-1138.9307 2787.3135 -899.2462 0.487 -0.191 0.852 157 88 79
-1129.8285 2777.8127 -899.2383 0.465 -0.187 0.865 167 98 89
-1129.7036 2797.5742 -912.6021 0.920 0.108 0.378 186 118 109
-1129.4193 2807.0764 -919.1849 0.925 0.111 0.362 174 106 97
-1134.4949 2828.3096 -929.8951 0.945 -0.147 -0.291 156 88 79
-1131.1101 2831.2151 -934.2177 0.938 -0.144 -0.315 153 86 77
-1131.7616 2853.4114 -948.6735 0.909 -0.087 0.409 153 91 90
-1126.4875 2852.2385 -951.5795 0.910 -0.106 0.400 138 81 79
-1037.3346 2744.8738 -941.8893 0.978 0.123 0.166 79 40 35
-1051.2329 2862.9089 -1011.4545 -0.227 -0.538 0.812 79 50 46
-1048.2496 2866.9126 -1016.2336 -0.252 -0.524 0.814 73 43 39
-1050.7275 2895.3274 -1033.5880 0.886 0.046 0.461 50 20 16
-1049.0697 2902.6931 -1039.6976 0.940 0.064 0.336 41 14 11
-1045.9944 2906.6658 -1044.5203 0.980 0.042 0.192 33 11 7
-1045.0443 2915.8477 -1051.3542 0.980 0.042 0.192 18 12 9
-1022.9073 2907.6951 -1061.3815 -0.381 -0.777 0.501 13 9 6
-1022.3252 3186.3997 -1249.0302 0.816 -0.352 0.459 28 10 10
-990.7883 3331.4683 -1368.5787 0.700 -0.554 -0.451 153 85 92
-1072.2366 3713.9082 -1568.4677 0.855 -0.061 0.515 213 15 50
-607.4146 3225.1184 -1565.6351 0.683 -0.352 -0.640 163 11 24
-512.9299 3004.5022 -1483.5939 0.998 -0.057 0.012 161 107 89
-516.5562 3066.3223 -1522.5865 0.998 0.060 0.021 163 116 98
-3408.2378 2738.3567 712.9113 -0.195 -0.978 0.067 83 48 29
-3396.5593 2735.5938 706.6077 -0.195 -0.978 0.067 84 48 29
-3397.0728 2741.4741 703.0002 -0.315 -0.944 0.095 88 52 32
-3396.5081 2746.6047 699.1446 -0.298 -0.949 0.101 88 51 32
-3371.9604 2740.1523 686.3298 0.039 -0.999 -0.004 89 52 33
-3375.8521 2748.4846 683.4308 -0.003 -0.997 -0.075 92 55 36
-3368.6384 2748.8635 678.1305 -0.003 -0.997 -0.075 92 55 36
-3280.1709 2762.7070 606.9230 -0.122 -0.916 0.382 87 47 25
-3275.6226 2764.9812 602.2083 -0.165 -0.863 0.478 84 43 21
-3239.4705 2754.9514 583.6908 -0.068 -0.997 0.044 76 43 23
-3234.8298 2757.1238 578.9800 -0.072 -0.993 0.089 68 37 19
-3231.6594 2760.4041 574.5502 -0.076 -0.996 0.049 66 37 21
-3264.4419 2819.7590 557.4394 0.794 -0.511 0.329 85 56 39
-3276.2688 2840.5322 551.6984 0.541 -0.064 0.839 84 53 32
-3231.3823 2829.5061 527.7446 0.613 -0.029 0.790 88 57 37
-3228.7151 2833.3308 523.2994 0.259 -0.405 0.877 90 57 38
-3213.0884 2832.9849 512.6042 0.247 -0.411 0.877 103 62 42
-3077.1106 2905.1843 368.8076 0.822 -0.410 0.395 92 65 58
-3074.2991 2909.0703 364.2203 0.820 -0.412 0.398 98 78 77
-3075.5601 2916.3901 360.1646 0.165 -0.742 0.650 81 69 72
-3072.6404 2920.2119 355.5449 -0.273 -0.770 0.577 59 61 64
-3036.7222 2896.1582 346.6506 -0.325 -0.758 0.566 36 57 59
-2693.8372 2888.7002 111.8859 0.966 -0.199 0.163 85 69 60
-2743.4136 2989.6035 78.4942 0.453 -0.451 -0.769 115 69 72
-2681.2092 3075.1963 -22.7434 0.495 -0.569 0.657 150 111 124
-2577.0911 3018.0137 -56.9864 0.574 -0.484 0.660 163 127 141
-2636.3035 3200.1311 -138.4209 0.464 -0.755 -0.464 184 149 156
-2627.0620 3197.8457 -143.3424 0.390 -0.832 -0.394 187 152 156
-2565.5930 3153.7834 -156.6090 0.796 -0.574 -0.191 182 148 149
-2645.7380 3249.7571 -165.2972 0.599 -0.558 -0.574 179 145 146
-2651.6511 3264.2576 -170.9431 0.739 -0.575 -0.353 179 145 146
-2628.2581 3270.4153 -191.4566 0.493 -0.223 0.841 149 134 135
-2581.7144 3282.8728 -232.4096 0.489 -0.468 0.736 144 113 118
-2572.1819 3280.1667 -237.2510 0.492 -0.512 0.704 187 156 161
-2565.0281 3280.1643 -242.2523 0.492 -0.512 0.704 191 160 165
-2553.1328 3274.6946 -246.8817 0.194 -0.452 0.871 194 165 169
-2547.8901 3276.8596 -252.0085 0.277 -0.358 0.892 195 164 169
-2280.5723 3237.7456 -412.5726 0.510 -0.770 -0.384 222 176 178
-2037.0793 3173.5398 -539.5494 0.745 -0.635 0.204 86 48 45
-2266.0723 3501.6086 -600.6976 -0.156 -0.670 0.726 85 49 45
-2014.9672 3231.6501 -594.2109 0.104 -0.742 0.663 99 49 36
-2006.6414 3228.8027 -598.1129 0.134 -0.736 0.663 109 54 38
-1999.6593 3227.8643 -602.3627 0.282 -0.958 -0.054 124 63 44
-1750.4862 2900.7214 -555.9520 0.396 -0.898 0.194 151 67 31
-1551.3871 2624.4260 -508.8205 -0.171 -0.877 0.450 154 62 31
-1538.2504 2612.3879 -509.8875 0.145 -0.869 0.473 156 61 31
-1532.1298 2610.6440 -512.9916 0.140 -0.871 0.471 156 61 31
-1526.7213 2609.9368 -516.2968 0.140 -0.871 0.472 156 61 31
-1519.8260 2607.0012 -519.1390 0.174 -0.863 0.475 152 57 27
-1520.2443 2614.9617 -524.2161 0.203 -0.960 0.195 152 57 27
-1512.8209 2611.2134 -526.8792 0.168 -0.971 0.169 152 57 27
-1481.1340 2622.5857 -556.7103 0.023 -0.908 0.419 168 73 45
-1459.9503 2658.2529 -595.5838 -0.020 -1.000 0.021 170 77 51
-1455.9835 2659.7349 -599.3577 0.019 -1.000 0.008 175 78 52
-1445.7656 2651.2512 -600.7811 0.093 -0.854 0.511 176 78 51
-1441.9741 2652.9805 -604.5990 0.065 -0.968 0.241 176 78 51
-1370.3016 2695.0273 -683.0848 0.597 -0.586 0.547 194 90 65
-1363.5367 2691.7085 -685.5772 0.346 -0.649 0.678 194 89 66
-1358.3264 2691.0361 -688.7676 0.358 -0.645 0.675 201 92 79
-1347.4619 2705.6370 -706.2144 0.930 -0.229 -0.286 179 105 86
-1345.4274 2710.5210 -710.9317 0.945 -0.217 -0.246 155 93 70
-1344.7949 2717.8979 -716.3499 0.961 -0.271 -0.056 127 74 50
-1190.2661 2640.5811 -772.2663 1.000 -0.005 0.007 175 90 81
-1181.8691 2819.1943 -898.6194 0.947 0.112 0.300 167 87 78
-1143.5278 2758.6680 -884.6063 0.812 0.090 0.576 141 63 56
-1140.7192 2762.5195 -889.1684 0.812 0.090 0.576 131 53 46
-1135.3076 2760.8799 -891.8470 0.822 0.098 0.561 127 52 44
-1131.4042 2762.4204 -895.6160 0.317 -0.591 0.742 142 79 72
-1124.3994 2757.3440 -897.0905 0.318 -0.599 0.734 149 88 83
-1119.3701 2756.4463 -900.0023 0.318 -0.599 0.734 163 102 97
-1133.6179 2807.0901 -924.1990 0.938 0.068 0.340 168 107 101
-1131.7572 2813.2192 -929.6347 0.960 0.095 0.263 139 76 71
-1130.5791 2820.8726 -935.6210 0.971 -0.101 -0.218 119 57 52
-1129.0122 2838.0635 -948.3126 0.899 -0.096 0.427 118 58 56
-1100.9692 2807.1833 -947.0947 0.940 -0.157 0.302 81 38 32
-1038.6277 2738.6924 -944.4935 0.986 0.040 0.163 100 53 45
-1045.5153 2796.3909 -978.5963 0.998 -0.048 0.050 108 63 55
-1034.4070 2791.7407 -983.2283 0.937 0.146 0.316 99 62 54
-1048.8995 2869.7461 -1025.7102 0.818 -0.013 0.575 81 43 34
-1046.4030 2874.9565 -1030.9708 0.815 -0.015 0.579 75 38 31
-1045.1487 2883.1936 -1037.4042 0.933 0.068 0.353 66 33 26
-1044.3068 2892.4880 -1044.2623 0.952 0.161 0.259 54 26 19
-1042.0902 2898.5085 -1049.8735 0.974 0.043 0.224 28 18 14
-1040.3296 2905.6824 -1055.9437 0.929 0.057 0.365 23 16 13
-1038.1260 2911.8196 -1061.6245 0.913 0.016 0.407 18 13 9
-1031.1602 2906.2627 -1062.7479 -0.371 -0.904 0.213 16 10 6
-1026.7262 2906.9094 -1066.2849 -0.394 -0.783 0.482 14 9 6
-1024.5974 2913.2793 -1072.0704 -0.219 -0.793 0.568 14 9 6
-1025.3011 2950.5203 -1096.6986 0.456 -0.403 -0.794 10 6 3
-1073.7791 3703.1187 -1570.4492 0.744 0.032 0.668 206 11 45
-857.5414 3266.8206 -1427.3762 -0.223 -0.969 0.105 239 15 57
-642.8002 3325.8445 -1617.3683 0.202 -0.508 -0.837 165 7 22
-522.3679 2991.8223 -1476.2827 0.615 -0.482 0.624 155 93 78
-3419.1023 2745.7622 705.3778 -0.136 -0.949 0.286 75 42 25
-3416.6274 2749.5444 701.0881 -0.123 -0.945 0.305 79 46 27
-3412.2300 2751.9688 696.3753 -0.079 -0.944 0.321 79 45 26
-3413.7021 2769.7480 685.3625 0.469 -0.874 -0.126 84 50 31
-3229.9346 2834.0723 513.4711 0.036 -0.479 0.877 96 59 40
-3212.0916 2826.1104 506.4032 0.203 -0.406 0.891 101 63 42
-3221.1411 2839.0608 503.9521 0.353 -0.411 0.840 103 62 42
-3222.6953 2846.2075 500.1972 0.525 -0.425 0.738 104 61 42
-3202.9185 2884.7034 460.3156 -0.326 -0.766 0.554 93 56 38
-3168.7100 2869.4783 446.7382 -0.496 -0.852 0.167 92 54 34
-3091.4692 2898.3625 373.2379 0.669 -0.477 0.570 95 66 54
-3084.5991 2898.8545 368.1074 0.827 -0.406 0.390 102 73 59
-3077.3525 2899.0249 362.9315 0.822 -0.410 0.395 104 78 69
-3068.5469 2897.8818 357.5563 0.826 -0.408 0.389 105 83 81
-3067.5405 2903.2671 353.2066 0.504 -0.528 0.683 88 75 77
-3061.7681 2904.6609 348.2316 0.348 -0.660 0.666 66 66 68
-3036.3992 2895.7598 336.5444 0.050 -0.763 0.645 16 57 57
-2657.7083 2803.6865 134.4539 0.069 -0.745 -0.664 111 65 42
-2675.7324 2826.7524 131.4191 0.618 -0.645 -0.449 108 62 39
-2742.3367 2954.7297 91.2581 0.370 -0.451 -0.812 191 151 162
-2588.2012 3015.3997 -57.4659 0.595 -0.503 0.627 161 125 141
-2632.1511 3119.6870 -97.4029 0.980 -0.197 -0.001 167 131 143
-2633.6721 3197.4250 -148.9885 0.390 -0.832 -0.394 186 151 155
-2641.0508 3236.8396 -170.5289 0.609 -0.557 -0.565 186 152 153
-2571.3369 3271.2502 -242.5159 0.509 -0.330 0.795 172 141 146
-2562.6741 3269.5103 -247.3870 0.506 -0.337 0.794 193 162 167
-2551.8362 3265.2532 -252.0723 0.194 -0.452 0.871 193 164 168
-2541.9688 3262.0786 -256.8127 0.280 -0.338 0.898 196 165 170
-1957.6028 2910.3181 -426.6581 0.814 -0.516 -0.266 218 168 167
-2108.1418 3116.2703 -461.0139 0.971 -0.111 0.213 217 167 166
-2223.0142 3276.3347 -489.1993 0.584 -0.584 0.564 217 167 166
-2002.7550 3066.9258 -501.1892 0.922 -0.275 0.272 69 28 26
-2042.9119 3173.3516 -545.2232 0.760 -0.605 0.237 86 48 45
-2089.4128 3301.5278 -599.5577 0.066 -0.524 0.849 72 43 37
-2085.2061 3304.8340 -604.7343 -0.017 -0.619 0.785 96 67 61
-2009.2073 3223.9236 -603.0095 0.134 -0.736 0.663 122 63 43
-2001.3604 3221.7434 -607.0126 0.134 -0.736 0.663 130 66 41
-1561.9659 2625.7632 -510.2251 -0.171 -0.877 0.450 155 66 28
-1544.8669 2615.2905 -515.0731 0.087 -0.972 0.219 156 61 31
-1516.3490 2609.6113 -531.1415 0.164 -0.973 0.161 151 57 29
-1509.1409 2620.9375 -543.8457 -0.386 -0.775 0.500 161 66 38
-1502.1664 2617.8242 -546.6076 -0.417 -0.850 0.321 168 73 45
-1506.9557 2632.5403 -553.2296 0.909 -0.103 0.403 172 77 49
-1448.5826 2648.5288 -604.8206 0.093 -0.854 0.511 176 78 51
-1445.9282 2652.0691 -609.0718 -0.079 -0.967 0.244 176 78 51
-1382.5782 2691.8481 -680.2504 0.881 -0.291 0.374 187 83 56
-1378.7012 2693.4968 -684.0745 0.377 -0.573 0.727 187 83 58
-1367.0731 2690.1631 -689.9368 0.546 -0.604 0.581 187 82 59
-1360.0552 2686.3943 -692.2850 0.358 -0.645 0.675 194 85 77
-1347.8147 2698.5369 -709.0563 0.930 -0.232 -0.285 146 81 64
-1346.9708 2705.4756 -714.3448 0.940 -0.212 -0.266 121 70 48
-1346.7386 2713.5264 -719.9593 0.940 -0.212 -0.266 93 52 28
-1242.9042 2671.4512 -763.9736 0.759 0.145 0.635 96 65 60
-1191.6646 2609.5408 -757.8267 0.741 -0.580 -0.339 160 89 70
-1193.4596 2647.5330 -782.3031 0.998 0.007 0.057 170 83 70
-1200.5422 2669.9817 -792.5606 0.925 -0.030 -0.379 170 88 74
-1162.3854 2789.4065 -900.0859 0.863 0.120 0.491 136 61 52
-1135.7787 2743.3879 -887.5000 0.919 0.059 0.389 117 44 35
-1129.9382 2750.5229 -896.4106 0.338 -0.610 0.716 102 47 42
-1123.3075 2746.2266 -898.1313 0.360 -0.603 0.712 110 57 54
-1118.4215 2745.6084 -901.1246 0.360 -0.603 0.712 123 70 67
-1130.0961 2790.4724 -923.3561 0.928 0.076 0.366 133 80 77
-1128.8979 2797.9587 -929.2628 0.949 0.091 0.302 107 51 49
-1124.5620 2829.3989 -953.5834 0.904 -0.094 0.416 86 31 28
-1114.1553 2816.8298 -952.3383 0.782 -0.074 0.619 79 29 26
-1101.8717 2799.9880 -949.5099 0.506 -0.857 0.095 72 29 24
-1094.4473 2793.7991 -950.5031 0.281 -0.578 0.766 66 28 20
-1097.6923 2811.3699 -960.1369 0.179 -0.640 0.747 63 29 19
-1095.9564 2817.9067 -965.7761 0.362 -0.550 0.753 63 31 20
-1095.6731 2827.7561 -972.6444 0.733 -0.279 0.620 68 33 20
-1041.5981 2746.6335 -955.4662 0.973 -0.061 0.225 133 79 68
-1048.2034 2772.1663 -968.1455 0.990 -0.027 -0.137 135 81 70
-1045.7531 2776.9917 -973.1245 0.994 -0.107 -0.014 133 81 70
-1043.0327 2781.2192 -977.8873 0.958 -0.255 -0.133 134 82 70
-1044.8893 2850.3540 -1023.4120 0.828 -0.030 0.560 113 67 56
-1044.1107 2859.5828 -1030.2058 0.820 -0.028 0.571 106 63 53
-1042.7556 2867.4951 -1036.5106 0.951 0.047 0.307 97 57 48
-1040.0264 2872.1497 -1041.5687 0.958 0.157 0.240 85 52 43
-1041.4257 2886.8313 -1050.5348 0.974 0.043 0.224 62 47 43
-1039.1201 2892.6162 -1056.0626 0.928 0.056 0.369 49 38 36
-1037.5988 2900.3552 -1062.3662 0.913 0.016 0.407 37 27 25
-1036.8582 2910.0659 -1069.4598 0.767 0.032 0.641 28 18 16
-1037.2468 2922.6338 -1077.6998 0.874 0.035 0.485 16 8 6
-1031.9873 2933.0493 -1088.4265 0.581 -0.557 -0.594 16 8 6
-1016.3512 2953.3447 -1113.0906 0.774 -0.565 -0.285 12 7 4
-778.7163 2944.2893 -1272.9025 -0.039 -0.891 -0.453 226 14 52
-774.8229 2946.1382 -1276.8734 -0.039 -0.891 -0.453 235 17 57
-772.2131 2952.2595 -1282.8416 0.032 -0.921 -0.389 238 16 57
-858.3570 3288.8120 -1450.6141 -0.154 -0.972 -0.175 240 19 60
-853.3945 3288.9609 -1454.1804 0.552 -0.594 -0.585 241 19 60
-852.8279 3304.1323 -1464.8508 0.568 -0.569 -0.594 241 19 60
-848.0722 3305.0432 -1468.7888 0.612 -0.431 -0.663 239 20 60
-803.2885 3200.8582 -1429.5033 0.525 -0.783 -0.334 234 23 58
-648.7743 3334.5730 -1627.9609 0.157 -0.567 -0.809 162 8 24
-3420.9993 2769.0874 680.6960 0.550 -0.835 0.021 72 43 26
-3358.9482 2752.4939 648.7114 -0.015 -0.997 0.071 82 52 33
-3350.8669 2780.3689 624.1227 0.826 -0.503 -0.254 82 51 32
-3349.8008 2785.2644 620.0505 0.824 -0.505 -0.258 82 51 30
-3250.1450 2843.6123 510.8876 0.054 -0.434 0.899 91 56 36
-3234.7803 2837.6260 504.2443 0.024 -0.491 0.871 96 58 39
-3217.3564 2830.0017 497.2791 0.376 -0.408 0.832 97 58 38
-3212.6536 2832.2456 492.4740 0.577 -0.359 0.733 97 58 38
-3209.1794 2835.4509 487.8721 0.733 -0.341 0.589 99 59 40
-3240.8499 2902.5176 464.3531 0.869 -0.463 0.175 98 61 43
-3093.0483 2893.3335 367.5374 0.674 -0.477 0.563 113 81 66
-3087.0356 2894.5366 362.5269 0.674 -0.475 0.566 117 85 69
-3077.5947 2892.8809 357.0698 0.822 -0.410 0.395 111 84 72
-3067.1533 2890.3723 351.4946 0.830 -0.412 0.375 104 82 75
-3064.4160 2900.5127 342.6910 0.336 -0.662 0.669 71 69 67
-3010.8743 2867.8906 327.5384 -0.322 -0.789 0.523 18 55 52
-2689.3054 2734.6353 193.9203 0.098 -0.866 -0.491 89 55 40
-2661.1956 2794.4258 133.6646 -0.290 -0.936 0.200 106 60 37
-2680.2104 2818.2925 130.6949 -0.236 -0.727 -0.645 110 64 41
-2688.6570 2870.7983 100.8830 0.977 -0.141 0.160 123 88 76
-2777.0383 3015.2881 64.2634 0.186 -0.779 -0.599 141 66 61
-2639.1328 3203.5134 -159.8817 0.479 -0.788 -0.386 188 154 155
-2621.3853 3231.1829 -191.0710 0.519 -0.044 0.854 168 143 143
-2568.2461 3259.8076 -247.5879 0.280 -0.387 0.879 154 125 129
-2558.1233 3256.3887 -252.3217 0.280 -0.387 0.879 192 163 167
-2536.1177 3247.4402 -261.5814 0.281 -0.341 0.897 193 163 167
-2529.8333 3248.3425 -266.5770 0.279 -0.408 0.870 193 163 167
-2235.1582 3240.2502 -466.5482 -0.153 -0.950 0.272 223 173 171
-2002.4421 3214.7532 -611.4815 0.322 -0.651 0.687 135 66 40
-1525.0228 2608.3359 -532.0427 0.451 -0.267 0.852 150 58 30
-1519.1393 2606.9062 -535.1730 0.455 -0.267 0.850 150 58 30
-1509.9657 2600.5413 -537.2418 0.473 -0.227 0.851 150 58 30
-1507.9219 2604.8142 -541.5723 0.370 -0.229 0.900 154 62 34
-1480.1904 2607.1917 -562.5257 -0.019 -0.870 0.493 154 62 34
-1458.6411 2596.4265 -570.2319 0.239 -0.928 0.286 169 76 51
-1456.2552 2607.6938 -579.5569 0.113 -0.993 0.024 168 76 51
-1450.6648 2644.6443 -608.5798 -0.142 -0.959 -0.244 176 78 51
-1447.1096 2646.7412 -612.4846 -0.197 -0.950 -0.242 176 78 51
-1440.0845 2643.3076 -615.0484 -0.124 -0.945 -0.302 176 78 51
-1446.4861 2677.0742 -633.5446 0.983 0.164 -0.083 182 84 57
-1448.7485 2688.6689 -639.8508 0.983 0.164 -0.083 182 84 57
-1470.3274 2739.8142 -659.5807 0.981 0.042 -0.189 180 79 52
-1380.7185 2681.1536 -682.1773 0.876 -0.295 0.382 182 78 52
-1366.6351 2681.8281 -692.4562 0.510 -0.611 0.605 181 78 57
-1348.9568 2701.2188 -717.9679 0.940 -0.212 -0.266 89 46 27
-1348.7302 2709.2517 -723.5878 0.940 -0.212 -0.266 75 45 22
-1348.5521 2717.4155 -729.2631 0.481 -0.287 0.828 67 43 23
-1224.4985 2637.8777 -761.6819 0.812 0.186 0.553 152 96 79
-1191.8466 2602.1555 -760.1602 0.606 -0.795 0.000 162 87 67
-1194.4785 2641.5637 -785.1208 0.952 -0.024 -0.306 166 78 65
-1196.9487 2655.0586 -792.5744 0.932 -0.021 -0.361 165 82 69
-1138.7596 2611.8584 -803.7747 0.998 0.064 0.003 162 79 63
-1110.1552 2625.6934 -833.1274 0.370 -0.376 -0.849 159 84 75
-1136.7406 2727.1245 -883.5587 0.869 0.116 0.480 127 59 50
-1132.8317 2728.5488 -887.2528 0.873 0.114 0.474 103 39 31
-1145.2610 2774.1179 -909.5709 -0.027 -0.705 0.709 58 14 9
-1123.4508 2737.7893 -900.0770 0.347 -0.589 0.730 66 24 20
-1116.7189 2733.2275 -901.6693 0.340 -0.622 0.706 79 36 32
-1120.8562 2801.8599 -945.4514 0.771 -0.095 0.629 80 26 23
-1117.2389 2804.1599 -949.5378 0.771 -0.095 0.629 81 30 26
-1113.2188 2805.5818 -953.3077 0.776 -0.083 0.626 81 33 30
-1102.1500 2791.4512 -951.4175 0.542 -0.821 0.180 77 35 30
-1095.2836 2786.5010 -952.8395 0.364 -0.577 0.731 67 27 22
-1096.6453 2799.8022 -960.9343 0.286 -0.640 0.713 67 29 21
-1095.3875 2807.3499 -966.9435 0.242 -0.632 0.737 68 31 21
-1093.1846 2812.8281 -972.2045 0.362 -0.640 0.678 76 36 25
-1083.3522 2801.1531 -971.1219 0.877 -0.348 0.331 120 63 49
-1072.7692 2787.6689 -969.3328 0.892 0.026 0.452 131 72 58
-1068.2909 2787.9265 -972.6306 0.904 0.033 0.427 143 83 71
-1065.3613 2791.7065 -977.2437 0.861 0.000 0.508 150 90 78
-1056.5276 2781.9802 -976.7897 0.930 0.068 0.362 152 91 79
-1049.1233 2775.4470 -977.5104 0.980 -0.190 -0.050 152 92 79
-1044.7568 2775.8643 -980.8387 0.993 -0.118 -0.015 152 92 80
-1040.7067 2787.5835 -991.6315 0.999 -0.030 0.033 145 91 79
-1024.8960 2761.2368 -984.7415 0.843 0.078 0.532 144 91 79
-1028.6251 2780.5767 -995.2916 0.698 0.135 0.703 143 90 77
-1040.1655 2840.3730 -1027.9034 0.908 0.090 0.410 133 79 67
-1037.8179 2845.8132 -1033.2395 0.932 0.098 0.349 124 74 63
-1037.7010 2856.6462 -1040.6870 0.958 0.157 0.240 117 73 63
-1037.3342 2935.9446 -1094.8622 0.462 -0.561 -0.687 22 8 11
-1044.6740 2966.0247 -1110.1975 0.574 -0.372 -0.729 19 6 9
-1050.6832 2993.0359 -1124.3739 0.495 -0.416 -0.763 16 5 4
-1049.1500 3001.3347 -1131.0857 0.547 -0.399 -0.736 16 5 4
-1047.9440 3010.5195 -1138.1720 0.528 -0.576 -0.624 14 6 4
-1040.2131 3003.2371 -1138.6110 0.617 -0.647 -0.448 14 7 5
-1020.8464 3187.6584 -1277.5138 0.343 -0.562 0.752 23 10 9
-1041.4498 3377.8259 -1392.4530 0.355 -0.338 0.871 101 75 74
-1037.1901 3543.0085 -1507.7405 0.651 0.053 0.757 156 9 28
-780.5697 2952.4607 -1285.1316 0.064 -0.935 -0.348 230 16 54
-3419.4983 2728.9568 696.8292 0.553 -0.365 0.749 56 37 26
-3410.1331 2727.8547 691.0608 0.561 -0.365 0.743 56 36 24
-3340.8347 2772.7720 612.1474 0.521 -0.801 -0.293 73 49 32
-3131.6355 2906.4609 375.2252 0.527 -0.053 0.848 99 59 41
-3100.0210 2886.6003 366.7716 0.512 -0.519 0.685 114 74 55
-3091.8101 2885.9849 361.4746 0.607 -0.525 0.597 129 90 70
-3081.1792 2883.3518 355.8704 0.671 -0.485 0.561 130 90 72
-2995.1638 2848.3965 319.8446 0.199 -0.771 0.605 24 50 41
-2989.5925 2849.8264 314.9892 -0.325 -0.760 0.563 17 54 47
-2694.1013 2869.4600 95.8478 0.167 -0.472 -0.866 134 91 80
-2770.9495 2982.0894 72.4649 -0.324 -0.823 -0.468 152 100 82
-2769.7043 2987.6904 67.7743 -0.369 -0.811 -0.454 141 85 67
-2759.2068 2984.4180 62.6993 -0.447 -0.832 -0.330 143 76 62
-2570.5735 3246.4805 -247.5410 0.306 -0.291 0.906 32 12 9
-2557.5903 3247.8943 -257.5457 0.303 -0.295 0.906 179 160 156
-2547.2319 3244.1763 -262.2196 0.303 -0.295 0.906 200 181 178
-2533.4370 3236.4927 -266.5793 0.281 -0.341 0.897 179 159 156
-2522.3953 3231.9160 -271.1426 0.263 -0.407 0.875 176 155 152
-2107.5798 3124.6807 -486.7551 0.597 -0.752 0.280 216 157 158
-2101.3708 3124.8557 -491.1976 0.544 -0.772 0.329 216 159 160
-2064.5400 3134.7668 -523.6073 -0.406 -0.912 0.065 83 40 44
-1535.4945 2602.4053 -528.5313 -0.225 -0.641 0.734 141 57 30
-1519.4406 2600.5068 -538.4130 0.438 -0.275 0.856 142 59 32
-1508.6577 2591.7551 -539.9460 0.488 -0.267 0.831 142 59 32
-1460.0121 2606.5278 -583.9010 0.141 -0.990 0.018 152 64 38
-1447.7900 2632.9397 -610.4413 0.334 -0.874 -0.352 168 72 47
-1453.3102 2649.3860 -617.8253 -0.197 -0.950 -0.242 170 72 47
-1411.1261 2590.0796 -606.7094 0.103 -0.958 -0.269 170 72 47
-1432.3750 2647.0896 -630.8338 0.988 0.026 0.151 181 83 58
-1385.1997 2673.0574 -681.4076 0.895 -0.305 0.327 192 83 59
-1382.4410 2676.5447 -685.7090 0.895 -0.305 0.327 184 80 59
-1357.0897 2674.3860 -701.8864 0.991 -0.127 -0.036 132 54 56
-1349.6761 2669.8845 -703.9751 0.992 -0.123 0.021 118 50 50
-1359.9626 2695.8828 -714.5613 0.929 -0.298 -0.221 102 51 45
-1351.7858 2690.0825 -716.2949 0.977 -0.138 -0.163 73 37 24
-1349.8744 2695.1179 -721.0633 0.988 -0.144 -0.061 63 42 25
-1348.9243 2701.8547 -726.3237 0.986 -0.155 -0.063 56 45 27
-1350.5505 2713.1367 -732.8934 0.471 -0.293 0.832 52 46 30
-1195.9371 2576.9790 -747.5932 0.530 -0.423 0.735 159 87 73
-1191.2618 2576.5908 -750.5834 0.526 -0.423 0.737 162 86 72
-1187.3252 2577.5735 -753.9952 0.526 -0.424 0.737 163 86 71
-1209.6533 2627.9563 -772.8440 -0.072 -0.489 0.869 163 85 71
-1175.3307 2597.1187 -775.6895 0.991 0.012 -0.132 151 68 57
-1137.8031 2593.3081 -799.2170 0.999 0.018 -0.042 173 94 84
-1138.2394 2602.8938 -805.4570 0.999 0.018 -0.042 157 81 68
-1144.3816 2734.4209 -890.9705 0.958 0.121 0.261 87 42 37
-1143.0593 2741.2788 -896.5727 0.925 0.074 0.372 61 21 15
-1118.4652 2728.2288 -904.7877 0.339 -0.621 0.707 30 14 3
-1120.2717 2801.6670 -953.6641 0.893 0.109 0.437 59 24 21
-1115.6897 2801.8584 -956.9850 0.961 0.073 0.266 72 36 35
-1113.0420 2806.2910 -961.8545 0.981 0.061 0.183 83 42 43
-1104.5499 2797.8472 -962.0029 0.418 -0.648 0.637 87 40 43
-1101.3160 2800.9756 -966.3903 0.238 -0.647 0.724 95 44 46
-1096.1273 2799.7668 -969.1777 0.238 -0.647 0.724 105 49 50
-1092.0945 2801.1187 -972.9084 0.296 -0.594 0.748 119 59 58
-1080.6283 2785.7866 -970.4251 0.889 -0.305 0.341 159 84 72
-1069.3696 2770.7812 -968.0203 0.857 0.001 0.515 160 84 69
-1064.9758 2771.1733 -971.3472 0.873 -0.028 0.487 160 84 69
-1060.0774 2770.4097 -974.2363 0.868 -0.062 0.493 161 85 70
-1053.2821 2765.2974 -975.4777 0.902 0.082 0.424 163 87 72
-1033.9020 2772.9153 -994.1719 0.914 0.099 0.393 169 92 74
-1031.5952 2799.5061 -1013.9306 0.876 0.042 0.481 170 91 74
-1032.1783 2811.7048 -1021.8525 0.886 0.047 0.461 168 91 75
-1032.1641 2822.5740 -1029.2825 0.958 0.155 0.242 167 90 76
-1031.4521 2831.8557 -1036.1146 0.959 0.156 0.237 158 85 73
-1030.5514 2840.7522 -1042.8151 0.949 0.150 0.277 128 68 62
-1032.6532 2914.0483 -1091.3889 0.876 0.026 0.482 56 21 34
-1046.6616 2960.4609 -1113.3201 0.637 -0.309 -0.706 46 14 27
-1049.0513 2978.3435 -1123.8641 0.620 -0.311 -0.720 36 7 12
-1046.9683 2985.1853 -1129.9851 0.565 -0.375 -0.735 34 7 10
-1033.5273 3534.1272 -1514.0908 0.588 -0.059 0.807 161 11 33
-3341.1057 2778.3813 598.3378 0.721 -0.542 -0.432 67 44 28
-3344.7273 2786.7256 595.1367 0.733 -0.533 -0.422 67 44 28
-3353.1021 2798.6018 592.8191 0.792 -0.522 -0.316 68 45 29
-3363.0024 2811.6509 590.7585 0.756 -0.573 -0.316 67 45 28
-3357.3672 2813.2500 585.7446 -0.225 -0.974 0.013 70 43 28
-3352.8525 2815.6792 580.9410 -0.237 -0.971 -0.041 74 43 29
-3304.2151 2802.5171 556.1481 0.020 -0.994 -0.109 82 42 32
-3291.3228 2798.6155 549.8590 0.046 -0.996 -0.072 82 43 33
-3147.8459 2876.4653 396.7527 0.783 0.120 0.611 103 58 42
-3097.5698 2878.2788 360.5564 0.607 -0.525 0.597 104 63 45
-3091.5950 2879.5015 355.5645 0.607 -0.525 0.597 118 77 59
-3052.6646 2890.3894 321.0365 0.186 -0.755 0.628 27 50 40
-2694.7834 2825.4409 116.7427 -0.111 -0.891 -0.440 110 65 42
-2788.5586 2998.9272 63.0321 -0.369 -0.811 -0.454 142 85 65
-2793.1038 3017.0010 53.8044 0.179 -0.787 -0.590 149 76 62
-2592.2029 3175.9155 -194.7858 0.404 -0.191 0.894 145 110 109
-2553.5327 3235.4268 -262.4584 0.304 -0.341 0.890 148 130 126
-2543.5427 3232.1177 -267.1359 0.304 -0.341 0.890 188 170 166
-2533.5891 3228.8208 -271.7963 0.304 -0.341 0.890 184 165 161
-2084.3250 3136.3215 -520.7391 -0.203 -0.948 0.247 73 19 19
-2080.4695 3139.6470 -525.6986 -0.363 -0.930 0.057 80 29 29
-2073.6111 3138.9292 -529.9748 -0.403 -0.913 0.062 89 47 50
-2058.2024 3169.6592 -561.7493 0.844 -0.442 0.304 63 26 30
-2007.1471 3142.5005 -578.6301 0.583 -0.630 0.513 69 31 28
-2053.7434 3216.4370 -596.9104 0.596 -0.668 0.445 111 69 60
-2044.9230 3213.0217 -600.7019 0.373 -0.790 0.486 117 69 57
-2156.3430 3378.8955 -636.9276 0.684 -0.544 0.486 121 68 52
-1468.0596 2611.9797 -589.8055 0.022 -0.992 0.123 133 46 19
-1475.9393 2677.9563 -629.5469 0.333 -0.727 -0.600 170 72 47
-1347.6860 2658.9294 -705.6713 0.998 -0.052 -0.018 103 44 45
-1353.0927 2684.7021 -719.5768 0.977 -0.138 -0.163 69 38 29
-1311.9292 2646.2346 -721.8297 0.719 -0.108 0.686 50 34 37
-1213.7750 2569.3257 -737.3565 0.787 -0.482 0.385 74 38 30
-1213.7704 2577.5356 -742.9868 0.809 -0.456 0.371 95 51 40
-1208.9321 2576.8987 -745.9138 0.767 -0.486 0.420 118 70 55
-1205.4358 2578.7256 -749.5967 0.378 -0.464 0.801 136 82 65
-1200.4819 2577.8530 -752.4427 0.378 -0.464 0.801 155 83 68
-1195.3102 2576.5583 -755.1509 0.463 -0.422 0.779 158 82 68
-1190.9685 2576.7939 -758.3309 0.478 -0.413 0.775 159 82 68
-1213.1772 2626.7939 -777.1602 -0.076 -0.498 0.864 158 80 67
-1206.3796 2622.5754 -778.9948 -0.076 -0.498 0.864 144 66 53
-1197.2769 2613.9614 -779.4193 0.570 -0.391 0.723 144 66 53
-1134.9812 2571.3293 -793.5095 0.476 -0.560 0.678 159 82 72
-1132.6476 2592.6870 -809.7701 0.983 -0.012 0.184 151 77 64
-1142.5852 2722.1123 -891.5679 0.961 0.118 0.249 70 32 27
-1142.2432 2730.9487 -897.8621 0.931 0.073 0.357 50 17 10
-1121.5757 2726.1301 -908.9280 0.261 -0.811 0.524 25 16 4
-1118.4103 2729.1150 -913.1745 0.465 -0.689 0.556 30 15 4
-1114.7101 2730.9739 -917.0210 0.509 -0.612 0.605 34 12 4
-1122.4401 2767.1704 -936.4557 0.964 0.046 0.263 46 16 10
-1121.1884 2774.4460 -942.3126 0.964 0.046 0.263 49 18 13
-1114.1998 2789.5056 -957.4928 0.963 0.072 0.260 83 46 43
-1110.1498 2790.8149 -961.2059 0.956 0.076 0.283 97 54 54
-1098.0593 2774.4402 -958.3885 0.512 -0.415 0.752 113 63 64
-1093.4265 2774.3862 -961.5724 0.512 -0.415 0.752 121 65 66
-1087.7609 2772.0295 -963.8959 0.507 -0.417 0.755 132 70 72
-1081.2662 2767.7947 -965.5087 0.469 -0.456 0.756 143 75 76
-1070.4933 2753.9460 -963.5067 0.788 -0.002 0.615 161 84 69
-1063.3254 2748.0637 -964.4583 0.888 0.032 0.458 162 83 66
-1058.3695 2747.1069 -967.2481 0.915 0.030 0.402 162 83 66
-1054.9525 2749.6143 -971.3421 0.746 -0.005 0.666 163 84 67
-1043.8347 2734.6206 -968.7950 0.931 0.161 0.327 164 85 68
-1040.9305 2738.2422 -973.2963 0.902 0.077 0.425 166 85 68
-1038.3002 2742.5103 -978.0503 0.903 0.074 0.423 166 85 68
-1035.8286 2747.1677 -982.9608 0.921 0.082 0.380 168 87 70
-1028.2444 2782.1016 -1012.1768 0.905 0.049 0.423 172 89 71
-1026.0602 2787.6550 -1017.5016 0.905 0.049 0.423 172 89 73
-1024.8369 2795.5244 -1023.7456 0.894 0.047 0.446 171 90 73
-1024.5481 2805.6768 -1030.9048 0.905 0.058 0.421 166 86 73
-1037.9972 2928.6182 -1105.8173 0.983 0.184 -0.024 55 19 32
-1037.1760 2938.3401 -1113.0514 0.979 0.200 -0.029 50 17 23
-1033.5651 2941.1846 -1117.5114 0.980 0.199 -0.023 48 16 23
-1026.9570 2972.5605 -1143.6102 0.583 -0.520 -0.624 14 7 5
-767.3475 3002.8704 -1344.8719 0.776 -0.441 -0.451 215 17 50
-4470.7920 3438.1946 918.3610 0.008 -0.985 -0.173 56 37 27
-3368.0122 2724.9419 643.6111 0.612 -0.778 -0.142 56 38 24
-3360.3298 2724.9692 638.2593 0.476 -0.835 -0.277 56 37 23
-3357.1846 2728.2329 633.8301 0.476 -0.835 -0.277 55 33 19
-3354.3752 2731.7434 629.4642 0.488 -0.826 -0.281 56 34 20
-3343.2407 2745.9336 611.9703 0.653 -0.631 -0.419 57 35 21
-3343.8696 2785.8442 584.9440 0.789 -0.522 -0.325 61 38 22
-3356.7656 2801.0513 583.4323 0.938 -0.335 0.095 61 38 22
-3356.8499 2818.3997 571.5531 0.953 -0.293 0.081 72 38 26
-3277.2197 2776.3538 545.2063 -0.072 -0.997 -0.020 74 40 28
-3264.8728 2772.8213 539.0660 -0.109 -0.994 -0.022 79 45 32
-3248.9102 2766.5496 532.3005 -0.110 -0.885 0.452 78 45 32
-3218.4543 2795.1379 491.4861 0.293 -0.940 0.173 79 50 34
-3220.7644 2802.7185 487.8736 0.279 -0.953 0.118 83 51 36
-3130.8066 2886.9407 367.4713 0.647 0.012 0.763 99 57 41
-3035.1279 2820.7439 346.6021 0.162 -0.413 0.896 92 51 33
-3024.2358 2817.7920 341.0721 0.184 -0.408 0.894 104 66 47
-3009.1267 2811.3391 335.0238 0.184 -0.408 0.894 107 65 46
-2994.4216 2805.1799 329.0537 0.274 -0.353 0.894 89 53 35
-3043.8584 2882.8704 309.9129 0.182 -0.723 0.666 23 52 46
-2739.9648 2743.4968 194.8555 -0.490 -0.714 0.500 30 54 39
-2686.3093 2817.5664 106.6402 0.184 -0.833 -0.522 111 66 43
-2808.9114 3018.3887 53.5626 -0.434 -0.846 -0.309 143 78 60
-2799.2224 3015.9932 48.4849 0.193 -0.788 -0.585 154 82 67
-2596.0435 3188.0652 -210.9651 0.793 -0.161 -0.588 166 136 134
-2598.2229 3198.2754 -216.4781 0.806 -0.162 -0.569 173 143 141
-2603.1023 3211.5134 -222.2000 0.777 -0.396 -0.489 179 149 147
-2552.0618 3225.9377 -267.5576 0.466 -0.364 0.806 110 92 88
-2544.2925 3225.1470 -272.4068 0.466 -0.364 0.806 174 156 152
-2529.3411 3216.1638 -276.6046 0.122 -0.664 0.738 189 171 167
-2523.9360 3218.0186 -281.6331 0.592 -0.485 0.643 184 164 160
-2258.8140 3186.6436 -444.0903 0.664 -0.738 -0.121 222 168 166
-2264.7991 3202.5869 -450.9063 0.616 -0.732 -0.292 222 168 166
-2254.4834 3197.9431 -454.8719 0.589 -0.765 -0.259 222 168 166
-2185.1301 3193.4832 -499.9477 0.778 -0.543 -0.315 192 133 125
-2095.9651 3143.8337 -527.6814 0.926 -0.306 0.220 76 26 25
-2095.7576 3152.0793 -533.4994 0.860 -0.369 0.352 93 46 45
-1538.6877 2593.5068 -535.8565 -0.052 -0.292 0.955 138 58 31
-1470.4725 2608.7112 -593.6735 0.022 -0.990 0.140 127 40 13
-1462.1053 2625.9187 -611.3225 0.840 -0.517 0.164 145 57 30
-1456.9365 2625.4524 -614.5898 0.869 -0.452 0.201 168 73 47
-1453.6860 2627.9849 -618.5888 0.849 -0.501 0.172 168 72 47
-1465.0046 2653.4712 -628.2690 0.910 -0.385 0.155 170 72 47
-1386.8854 2644.9790 -676.6555 0.875 -0.022 0.483 190 86 55
-1382.8719 2646.2849 -680.3403 0.932 -0.016 0.362 187 86 58
-1367.8970 2645.2678 -690.0359 0.766 0.083 0.637 165 83 69
-1346.4110 2641.1477 -702.1162 1.000 -0.024 -0.010 96 36 41
-1208.6667 2560.7075 -742.3862 0.627 -0.691 0.359 102 58 45
-1202.7487 2566.2451 -750.3050 -0.406 -0.734 0.544 143 89 71
-1181.7159 2551.9990 -755.1030 0.115 -0.712 0.692 148 76 61
-1196.8810 2588.5925 -769.7557 -0.245 -0.730 0.638 148 75 60
-1208.0258 2617.9072 -782.1907 -0.066 -0.501 0.863 134 60 46
-1199.7859 2610.9421 -783.1182 0.663 -0.333 0.670 134 60 46
-1159.7461 2594.4880 -799.5914 0.319 -0.481 0.817 131 61 48
-1137.0374 2567.5918 -796.8480 0.600 -0.455 0.658 142 70 59
-1135.4910 2698.9456 -888.3073 0.949 0.141 0.281 51 18 11
-1139.0886 2715.8325 -897.4299 0.947 0.146 0.288 37 10 2
-1127.6414 2720.6208 -908.6714 0.350 -0.604 0.716 25 18 4
-1122.5494 2719.5339 -911.4582 0.350 -0.612 0.710 27 16 4
-1117.9966 2719.5649 -914.6402 0.327 -0.620 0.713 31 14 4
-1131.1541 2757.1499 -931.3688 0.235 -0.593 0.770 36 11 4
-1125.8635 2755.7383 -934.0701 0.235 -0.593 0.770 48 18 12
-1120.5858 2754.3306 -936.7652 0.235 -0.593 0.770 61 27 23
-1116.5388 2755.5415 -940.4079 0.236 -0.593 0.770 69 34 29
-1115.0945 2762.3608 -946.1030 0.087 -0.888 0.452 72 37 27
-1112.8693 2767.5334 -951.2070 0.935 -0.004 0.353 84 47 38
-1108.9722 2769.1025 -954.9921 0.937 0.031 0.348 99 59 53
-1098.3909 2766.1357 -960.2961 0.512 -0.424 0.747 128 73 71
-1093.7770 2766.1050 -963.4778 0.512 -0.424 0.747 137 75 74
-1085.4529 2757.8640 -963.5858 0.501 -0.480 0.720 148 80 80
-1050.6952 2690.9014 -941.6368 0.774 -0.334 0.538 155 84 81
-1044.8969 2687.8811 -943.5837 0.766 -0.310 0.563 163 83 68
-1059.3287 2730.0779 -962.6012 0.806 0.058 0.590 164 83 66
-1055.2762 2731.0940 -966.1136 0.807 0.056 0.588 164 83 66
-1054.0548 2738.4924 -972.0524 0.739 -0.011 0.674 165 84 67
-1048.4503 2736.0122 -974.2364 0.735 -0.008 0.679 166 85 68
-1042.3823 2732.4443 -975.9936 0.671 0.064 0.739 166 85 68
-1038.4980 2733.8220 -979.6382 0.671 0.064 0.739 166 85 68
-1034.7965 2735.6187 -983.4440 0.773 0.068 0.631 168 87 70
-1033.1877 2742.2397 -989.1168 0.922 0.088 0.378 173 90 72
-1031.4990 2748.7197 -994.7481 0.922 0.088 0.378 173 90 72
-1030.7152 2757.3457 -1001.2277 0.978 0.014 0.207 175 90 70
-1029.5244 2765.0833 -1007.3787 0.978 0.014 0.207 175 90 70
-1029.0519 2774.5583 -1014.2266 0.991 0.038 0.128 174 88 71
-1026.9011 2780.1523 -1019.5689 0.979 0.028 0.201 173 90 72
-1023.2834 2782.3142 -1023.5679 0.893 0.047 0.447 173 90 74
-1020.9499 2787.5310 -1028.7775 0.893 0.047 0.447 171 89 74
-1018.9644 2804.4856 -1041.8224 0.729 0.189 0.658 153 83 74
-1017.5422 2812.0220 -1047.9956 0.668 0.171 0.724 142 79 73
-1014.1407 2814.8291 -1052.2885 0.683 0.171 0.710 123 65 64
-1009.2685 2814.0781 -1055.1541 0.684 0.171 0.710 93 39 43
-1017.8195 2868.6885 -1086.7958 0.975 0.221 0.030 68 28 38
-1029.9398 2910.0942 -1106.8735 0.983 0.183 -0.025 63 28 35
-1027.7827 2916.4258 -1112.7278 0.977 0.210 0.035 61 29 35
-1033.1821 2965.5430 -1142.7775 0.646 -0.447 -0.619 31 19 19
-1030.8802 2971.8203 -1148.6949 0.590 -0.514 -0.623 24 17 15
-1020.7172 2994.9050 -1171.6349 0.304 -0.952 -0.021 21 11 9
-1013.2504 2988.0356 -1172.0913 0.571 -0.708 -0.417 21 11 9
-1040.6749 3219.4607 -1312.2991 0.973 0.133 -0.189 44 33 29
-1056.6034 3443.4648 -1455.3806 0.291 -0.678 -0.675 64 33 31
-1052.9587 3448.7388 -1461.5398 0.284 -0.710 -0.644 51 23 20
-1049.1276 3453.5010 -1467.4762 0.494 -0.536 -0.685 48 18 18
-1049.1782 3469.7400 -1478.6151 0.512 -0.537 -0.670 48 19 16
-1041.6724 3512.9915 -1513.5875 0.397 -0.687 -0.609 124 11 24
-1045.0822 3540.0354 -1529.8296 0.362 -0.686 -0.631 156 14 34
-665.6212 3380.4897 -1683.4652 0.842 -0.170 -0.512 158 29 36
-4438.4526 3422.3506 893.7426 0.897 -0.349 0.270 62 44 34
-4420.2363 3416.6772 885.0347 0.813 -0.432 0.391 61 43 31
-4376.7935 3393.2937 871.0759 0.139 -0.955 0.264 58 40 28
-4351.4097 3382.4731 860.9558 0.033 -0.968 0.248 57 39 27
-3371.2490 2726.9724 634.3842 0.423 -0.777 -0.466 57 38 24
-3368.2104 2730.3203 629.9651 0.433 -0.771 -0.467 54 35 20
-3361.6362 2731.1465 624.8375 0.468 -0.845 -0.260 55 33 19
-3358.3623 2734.3328 620.3667 0.468 -0.845 -0.260 55 33 19
-3357.2986 2739.1130 616.3271 0.481 -0.838 -0.257 55 33 19
-3279.0391 2766.0947 543.4407 0.023 -0.999 0.038 63 36 21
-3270.1672 2765.1653 537.9332 0.069 -0.997 -0.015 65 38 23
-3263.2991 2765.7195 532.7895 0.069 -0.997 -0.015 68 41 26
-3259.7610 2768.7610 528.2360 -0.087 -0.867 0.490 69 41 27
-3234.1353 2772.3081 508.0228 -0.110 -0.957 0.270 72 40 25
-3212.2458 2772.8860 492.4507 0.059 -0.929 -0.366 76 44 29
-3218.5469 2783.4348 489.5309 0.153 -0.973 -0.172 76 44 29
-3230.7178 2798.5120 487.5515 0.270 -0.954 0.128 76 44 29
-3225.8503 2800.5930 482.7400 0.279 -0.953 0.118 79 48 30
-3217.1956 2799.7654 477.3125 0.294 -0.943 0.155 84 51 34
-3206.1926 2797.1169 471.5153 0.389 -0.917 0.089 83 50 33
-3105.7444 2771.1865 419.8018 0.403 -0.768 0.499 96 59 40
-3013.5208 2802.8596 333.9949 0.274 -0.353 0.894 95 57 38
-3000.7341 2798.3093 328.2753 0.274 -0.353 0.894 97 56 36
-2959.6099 2788.1216 306.8074 0.788 -0.585 -0.192 67 49 40
-2827.1172 2795.6665 209.7561 0.983 -0.010 0.181 10 44 50
-2842.7073 2815.3838 206.9413 0.841 -0.008 0.540 12 42 42
-2823.6721 2804.8506 201.0236 -0.321 -0.698 0.640 21 42 35
-2700.3691 2830.5432 97.8052 0.045 -0.793 -0.608 111 63 43
-2809.2544 3018.7168 43.2847 0.177 -0.826 -0.535 161 87 73
-2653.2839 3173.0247 -171.4289 0.269 -0.053 0.962 184 148 148
-2600.8054 3185.6687 -216.5399 0.806 -0.162 -0.569 177 147 145
-2604.7234 3205.6089 -227.5993 0.838 -0.185 -0.514 187 157 155
-2556.7649 3215.4714 -267.6559 0.597 -0.392 0.700 29 11 7
-2550.7207 3216.6294 -272.6453 0.122 -0.664 0.738 81 63 59
-2540.7322 3213.3162 -277.2801 0.122 -0.664 0.738 157 139 135
-2530.7805 3210.0154 -281.8980 0.122 -0.664 0.738 193 175 171
-2514.2424 3199.1860 -285.8805 -0.040 -0.723 0.689 188 168 164
-2507.2922 3199.2329 -290.7304 0.142 -0.673 0.725 196 165 165
-2497.3086 3195.7959 -295.2762 -0.052 -0.773 0.632 202 162 165
-2251.0208 3168.8474 -447.3770 0.704 -0.689 -0.175 222 168 166
-2252.7778 3179.3782 -453.4341 0.654 -0.726 -0.215 222 168 166
-2190.2122 3191.9690 -505.5004 0.764 -0.555 -0.330 183 126 117
-2142.1460 3146.1379 -507.1565 0.651 -0.728 0.214 151 105 99
-2097.8145 3146.7268 -538.2924 0.862 -0.413 0.295 98 59 55
-2160.0203 3347.4751 -633.8564 0.692 -0.565 0.449 121 68 52
-2154.9150 3349.6980 -638.9308 0.692 -0.565 0.449 126 66 47
-1476.4672 2610.9451 -598.8535 0.056 -0.973 0.224 137 50 23
-1463.7821 2598.9158 -599.3361 0.627 -0.699 -0.343 145 58 31
-1454.1482 2591.5112 -600.8987 0.097 -0.833 0.544 145 58 31
-1471.9824 2634.2144 -618.0372 -0.182 -0.709 0.682 146 57 31
-1444.5298 2606.5645 -617.9651 0.770 -0.334 0.543 168 72 47
-1463.3645 2643.7166 -630.5753 0.887 -0.458 0.059 170 72 47
-1396.3586 2621.7581 -661.8516 -0.281 -0.937 0.209 176 80 55
-1391.6832 2621.9341 -665.2142 -0.283 -0.793 0.540 176 80 55
-1383.7244 2616.7168 -667.1266 -0.279 -0.790 0.546 175 79 53
-1385.8549 2635.9463 -678.9342 0.875 -0.022 0.483 182 88 60
-1282.3949 2653.5464 -762.8074 -0.621 -0.707 0.339 50 29 31
-1182.3066 2545.6172 -757.6243 0.125 -0.698 0.705 140 73 56
-1220.3279 2624.6387 -785.8597 -0.075 -0.539 0.839 139 72 55
-1213.2677 2619.9761 -787.5324 -0.079 -0.521 0.850 125 58 41
-1200.4396 2604.4480 -785.6972 0.663 -0.333 0.670 125 58 41
-1169.5238 2596.9399 -801.9401 0.270 -0.368 0.890 117 53 39
-1168.4655 2603.5017 -807.2067 0.325 -0.436 0.839 117 53 38
-1148.2999 2573.1724 -800.2324 0.562 -0.575 0.594 123 57 43
-1138.2906 2562.3069 -799.6642 0.590 -0.484 0.647 129 63 49
-1122.8412 2692.5366 -900.3398 0.938 0.060 0.342 28 15 4
-1123.2468 2712.3889 -913.7732 0.405 -0.508 0.760 35 15 6
-1118.1095 2711.1755 -916.4960 0.343 -0.603 0.720 41 14 8
-1122.4399 2749.4673 -939.9474 0.235 -0.593 0.770 90 46 45
-1117.1779 2748.0701 -942.6295 0.235 -0.593 0.770 99 52 50
-1111.9635 2746.7517 -945.3331 0.233 -0.589 0.774 87 48 35
-1094.5507 2719.1038 -938.3030 0.041 -0.983 0.179 99 56 45
-1109.0408 2760.2993 -956.7183 0.873 0.103 0.477 114 67 57
-1104.7041 2760.8867 -960.1300 0.939 0.150 0.308 125 72 64
-1101.0558 2762.9692 -964.0977 0.920 0.126 0.372 129 68 62
-1091.7826 2752.7268 -963.4496 0.513 -0.409 0.755 138 71 65
-1055.0157 2681.8691 -939.9845 0.781 -0.376 0.498 149 76 72
-1050.2577 2681.1611 -942.7935 0.803 -0.532 0.267 155 78 73
-1046.9208 2683.5891 -946.7839 0.808 -0.529 0.258 163 83 68
-1060.0847 2722.8008 -964.7476 0.607 -0.363 0.707 164 83 66
-1056.5864 2725.0378 -968.7179 0.600 -0.381 0.704 164 83 66
-1055.9061 2733.6145 -975.1145 0.579 -0.365 0.729 165 84 67
-1043.3575 2715.4668 -971.2757 0.703 -0.050 0.709 168 85 69
-1039.5492 2716.9619 -974.9483 0.703 -0.050 0.709 167 84 68
-1032.9091 2722.1846 -983.1591 0.776 0.069 0.627 169 86 70
-1022.4666 2718.6826 -987.9782 0.853 0.145 0.502 175 90 70
-1027.6318 2761.8542 -1014.2221 0.993 0.039 0.113 172 86 69
-987.3782 2784.0649 -1057.4683 0.801 0.166 0.575 76 32 41
-1019.0851 2873.1467 -1097.0305 0.979 0.200 0.028 71 35 43
-1021.0910 2889.5952 -1107.0032 0.977 0.211 0.025 69 37 43
-1029.4966 2933.8555 -1131.7532 0.981 0.196 -0.000 63 42 47
-1035.7883 2961.4998 -1146.4894 0.796 -0.403 -0.451 54 42 42
-1034.6768 2970.7473 -1153.6483 0.805 -0.378 -0.458 44 37 35
-1032.4707 2977.2971 -1159.7024 0.601 -0.507 -0.619 33 29 26
-1025.8470 2984.8909 -1169.5396 0.551 -0.798 -0.246 22 13 10
-1022.5297 2988.7041 -1174.4733 0.551 -0.798 -0.246 21 11 9
-996.3524 2933.6665 -1154.5969 -0.251 -0.665 0.704 20 10 8
-993.9657 2939.6560 -1160.3889 0.010 -0.758 0.652 20 10 8
-988.4684 2937.6013 -1162.7800 0.053 -0.769 0.636 21 11 9
-1052.6003 3297.1653 -1366.7236 0.981 0.094 0.171 43 22 19
-1044.7408 3334.3396 -1397.8525 0.800 -0.538 -0.265 67 46 43
-1087.5372 3653.3989 -1588.6034 0.942 0.061 -0.331 155 14 33
-1103.4124 3718.9475 -1622.8822 0.938 0.061 -0.340 180 15 43
-1112.3506 3764.0471 -1647.8428 0.943 0.010 -0.332 192 13 47
-667.8500 3372.0359 -1685.1411 0.850 -0.160 -0.502 159 37 42
-3351.9617 2723.9585 613.0402 0.463 -0.432 0.774 61 39 25
-3253.0603 2752.1804 525.0143 -0.109 -0.917 0.384 58 37 20
-3249.4341 2755.1289 520.4597 -0.061 -0.904 0.423 58 37 20
-3281.1570 2807.6167 506.0129 0.929 -0.328 0.170 67 34 19
-3228.0454 2784.6909 485.1531 0.134 -0.979 -0.155 70 39 21
-3234.1208 2795.0969 482.1409 0.381 -0.920 0.092 70 37 20
-3229.5337 2797.3909 477.3750 0.387 -0.918 0.082 74 41 24
-3219.1289 2795.2285 471.6734 0.383 -0.919 0.091 80 47 28
-3207.4919 2792.1003 465.7885 0.348 -0.925 0.151 81 46 27
-3194.1072 2793.4048 455.6198 0.646 -0.378 0.663 83 48 29
-3136.3640 2766.0444 434.6298 -0.097 -0.891 0.443 82 49 30
-3123.7363 2761.9778 428.7105 -0.093 -0.895 0.436 88 53 33
-3110.9451 2757.7549 422.7860 -0.093 -0.895 0.436 92 55 36
-3109.6614 2762.5098 418.5997 0.016 -0.868 0.496 92 55 33
-3103.1367 2763.1667 413.6282 0.323 -0.831 0.454 92 54 33
-3140.1250 2815.6970 402.7964 0.664 -0.668 0.337 99 61 40
-3133.5134 2816.3740 397.7508 0.694 -0.650 0.311 103 64 42
-3127.6890 2817.6714 392.8196 0.632 -0.624 0.460 106 64 42
-3121.5027 2818.6772 387.8403 0.619 -0.629 0.471 106 64 42
-3114.3201 2824.8352 378.5982 0.922 -0.245 0.299 107 66 44
-3105.4805 2823.7065 373.2627 0.496 -0.367 0.787 108 66 44
-3087.3818 2815.1084 366.6994 -0.222 -0.938 0.265 108 66 44
-3089.4866 2852.8735 341.9640 0.597 -0.015 0.802 93 55 34
-3041.5054 2825.6770 327.6171 0.433 -0.724 0.537 94 53 33
-3034.9141 2826.2805 322.6364 0.438 -0.762 0.478 93 52 36
-2797.9326 2728.4856 226.4406 0.460 -0.508 -0.728 12 44 48
-2821.7817 3010.0574 47.6624 0.301 -0.934 -0.194 153 96 74
-2839.0391 3033.3296 43.4662 -0.453 -0.848 -0.274 159 92 75
-2816.2866 3018.5498 37.9689 0.180 -0.803 -0.569 168 94 79
-2378.2122 2865.2273 -158.8981 0.215 -0.908 0.359 191 152 153
-2595.1816 3171.9175 -221.4330 0.842 -0.144 -0.520 190 160 158
-2554.0442 3204.6614 -272.6150 0.594 -0.333 0.732 33 15 11
-2549.2625 3207.2219 -277.7006 0.390 -0.496 0.776 32 17 12
-2539.3435 3203.9844 -282.3203 -0.040 -0.723 0.689 107 89 85
-2527.9893 3199.0925 -286.7862 -0.040 -0.723 0.689 184 166 162
-2516.6892 3194.2241 -291.2308 -0.040 -0.723 0.689 194 175 171
-2505.7375 3189.7146 -295.6831 0.138 -0.670 0.729 196 165 165
-2494.9558 3185.3630 -300.1275 -0.042 -0.731 0.681 203 163 166
-2229.6208 3142.2810 -453.8940 0.325 -0.847 0.420 222 168 166
-2191.3997 3193.9055 -516.1522 0.778 -0.543 -0.315 177 122 113
-2140.1665 3135.5408 -511.1333 0.656 -0.731 0.189 128 87 82
-2128.4592 3128.5991 -514.4217 0.619 -0.756 0.214 91 54 49
-2106.0801 3149.6687 -544.5240 0.840 -0.458 0.290 81 51 44
-2095.3811 3160.9971 -559.7858 0.622 -0.623 0.475 69 50 48
-2142.4678 3323.5574 -639.9399 0.398 -0.650 0.647 132 66 41
-1532.1849 2570.5642 -540.0939 -0.160 -0.711 0.685 131 51 24
-1486.8624 2590.1931 -585.0767 0.782 -0.071 0.619 137 56 33
-1479.9668 2609.3342 -603.1246 0.055 -0.966 0.252 155 68 41
-1480.4634 2617.5815 -608.5010 0.764 -0.383 0.520 155 68 41
-1401.3613 2539.5129 -609.1051 0.022 -0.640 0.768 174 76 51
-1400.9935 2622.0833 -666.6264 -0.281 -0.937 0.209 166 70 45
-1395.5176 2620.9680 -669.6431 -0.290 -0.862 0.415 165 71 45
-1276.1930 2634.7749 -761.8070 -0.602 -0.726 0.333 47 26 28
-1222.0972 2554.0117 -743.2348 0.428 -0.860 -0.280 56 25 21
-1184.0082 2541.3176 -760.7932 0.123 -0.687 0.716 118 59 39
-1187.2638 2555.5500 -768.4109 0.083 -0.713 0.696 119 58 39
-1185.8934 2561.2605 -773.3198 0.459 -0.579 0.674 122 61 42
-1198.7750 2593.6482 -786.8666 0.614 -0.457 0.644 122 61 42
-1132.0850 2509.3748 -774.5768 -0.096 -0.920 -0.380 101 44 27
-1136.2634 2525.5969 -782.9357 -0.075 -0.918 -0.388 102 44 28
-1152.7897 2565.6257 -799.2594 -0.116 -0.828 -0.549 112 55 38
-1150.2584 2569.2371 -803.5161 0.069 -0.895 -0.441 112 55 38
-1139.5386 2557.0330 -802.4714 0.590 -0.484 0.647 113 53 37
-1132.8818 2604.4502 -839.9651 0.891 0.137 0.434 126 54 40
-1116.1986 2698.5850 -916.7994 0.764 -0.534 0.362 72 38 34
-1112.7361 2700.8455 -920.7638 0.764 -0.534 0.362 89 48 46
-1107.8568 2700.1169 -923.6356 0.651 -0.664 0.367 104 56 56
-1102.7500 2698.8875 -926.3176 0.627 -0.668 0.401 121 71 70
-1099.6892 2701.9978 -930.5931 0.055 -0.985 0.165 130 79 76
-1094.6165 2700.8154 -933.2841 0.180 -0.972 0.148 122 77 60
-1093.4485 2708.0020 -939.0768 0.107 -0.990 0.088 124 77 59
-1105.7200 2744.2307 -955.7098 0.876 0.100 0.472 127 75 59
