ply
format ascii 1.0
element vertex 800
property float x
property float y
property float z
property float nx
property float ny
property float nz
property uchar diffuse_red
property uchar diffuse_green
property uchar diffuse_blue
end_header
-66.2153 3671.8589 -530.7898 0.515 -0.550 0.657 255 141 157
-0.2465 3292.9822 -538.2864 -0.248 -0.855 -0.455 255 142 148
-2900.6523 5675.5088 1570.6028 0.242 -0.349 -0.905 76 54 36
-2837.2686 5806.6309 1500.8739 0.983 -0.183 0.016 28 21 11
-2188.9788 6221.1011 906.4197 0.962 -0.152 0.227 35 26 19
-1932.0886 5676.7676 761.6537 0.661 -0.717 0.221 79 39 39
-1848.1420 5688.5332 690.0475 0.740 -0.202 0.641 138 81 65
-1765.0244 5768.2607 610.4254 0.453 -0.483 0.749 75 56 50
-1748.0558 5741.9526 599.6270 -0.448 -0.840 0.308 68 49 43
-814.2479 7145.1548 -359.9349 -0.234 -0.961 -0.145 190 105 85
-4.0559 3729.4624 -598.8136 -0.668 -0.742 0.059 255 161 160
98.2504 3525.2104 -658.0718 -0.128 -0.943 0.309 254 116 132
106.4386 3520.2668 -664.2759 0.345 -0.852 -0.394 254 133 146
-4406.6562 5109.6060 2883.2556 0.464 -0.359 0.810 224 221 206
-4313.6187 5028.2188 2816.2974 0.999 -0.032 0.006 225 221 206
-4426.1602 5250.2080 2881.1777 -0.458 -0.826 0.328 225 214 200
-2840.5618 5996.9556 1461.6980 0.273 -0.296 -0.915 26 20 15
-2831.2576 6002.1333 1453.2649 0.252 -0.331 -0.909 26 20 15
-1928.2190 5670.4463 743.5768 0.824 -0.554 0.119 80 41 35
-1899.8485 5736.9990 711.2403 0.215 -0.358 0.909 149 91 70
-1771.5447 5763.7192 600.7751 0.511 -0.858 -0.056 69 51 45
-1765.2695 5775.7114 593.9786 -0.150 -0.729 -0.668 63 45 38
-1662.1777 5820.3149 502.2024 0.516 -0.380 0.768 18 8 2
-1583.6912 5809.9048 438.1182 0.769 -0.355 0.531 230 185 169
-1589.7529 5872.6729 434.9850 0.704 -0.455 -0.545 233 188 172
-1566.6870 5817.2437 422.9829 0.802 -0.303 -0.515 232 188 171
-1502.4756 5705.1997 384.0586 0.843 -0.406 0.353 224 178 162
-1415.3551 5932.1030 281.8198 0.966 -0.215 0.143 243 205 195
-1342.8933 5678.3022 254.5073 0.640 -0.222 0.735 240 206 195
-1270.2322 6139.7515 133.7302 0.825 -0.141 0.547 90 40 29
106.3091 3506.0886 -670.4904 0.622 -0.659 0.422 254 141 151
-4453.1870 5137.0063 2900.9321 0.232 -0.453 0.861 223 219 207
-2931.9829 5702.8242 1559.3224 0.986 -0.031 -0.162 79 54 35
-2948.2002 6110.6763 1518.6816 -0.545 -0.827 0.137 64 49 35
-2960.7610 6164.7310 1521.9635 0.261 -0.225 -0.939 61 46 32
-1862.4834 5558.0503 688.1158 0.007 -0.461 0.887 98 69 56
-1778.0361 5759.0894 591.1203 0.793 -0.608 -0.038 60 46 38
-1590.7932 5845.7642 423.7227 0.519 -0.533 0.668 215 175 155
-1581.6617 5847.1021 415.9426 0.491 -0.562 0.665 226 187 166
-1448.5348 5716.2095 322.4821 0.975 -0.214 -0.056 250 210 193
-1443.5785 5734.3984 315.9410 0.991 -0.083 -0.107 239 200 191
-1436.5911 5743.7832 308.8778 0.985 -0.113 -0.127 244 204 196
-1420.1440 5711.0542 299.5294 0.986 -0.072 -0.151 248 208 200
-1433.2885 5936.8315 280.5009 0.988 -0.089 -0.128 242 204 196
-1237.4209 6619.6006 26.7910 0.269 -0.573 0.774 209 116 110
-1232.8682 6651.8032 18.7257 0.235 -0.628 0.742 207 117 109
-14.8740 3999.3447 -643.2156 -0.431 -0.838 0.334 251 169 164
-12.4495 3701.4949 -605.6945 -0.619 -0.773 0.140 253 153 156
-10.7408 3282.3713 -551.4783 -0.218 -0.818 -0.533 253 119 133
94.7219 3512.5225 -669.8352 -0.575 -0.818 -0.008 255 126 142
-4432.6675 5099.3296 2871.4192 0.291 -0.439 0.850 222 218 207
-4433.3706 5249.5562 2851.7144 -0.533 -0.789 0.305 224 216 203
-4168.1938 4999.6943 2665.0125 -0.525 -0.797 0.298 140 109 81
-2803.6191 5651.0977 1442.6296 -0.432 -0.601 -0.672 29 17 6
-1993.1359 5794.2212 749.5247 0.009 -0.745 0.667 44 31 20
-1783.8602 5752.1274 581.2338 0.793 -0.608 -0.038 47 37 28
-1587.9891 5803.6636 411.4409 0.660 -0.046 0.750 201 164 146
-1608.9895 5926.5430 412.3031 0.710 0.056 0.702 200 164 145
-1189.7546 5967.7993 58.2108 0.445 -0.380 -0.811 202 121 116
-1284.1204 6788.8247 25.7729 -0.075 -0.530 0.845 217 120 118
-1201.9927 6655.8477 -24.5422 -0.057 -0.491 0.869 210 123 114
-758.1759 6814.3867 -414.9102 -0.183 -0.967 -0.178 203 116 96
-14.2704 3277.4143 -555.6393 -0.458 -0.761 -0.460 251 108 126
-4423.5107 5075.5410 2849.6584 0.310 -0.433 0.846 216 212 201
-4188.0029 5011.9619 2662.8999 -0.525 -0.797 0.298 138 108 80
-3776.6257 5427.9043 2264.2844 0.859 -0.509 0.048 79 52 33
-2934.4434 5741.2373 1522.1578 0.903 -0.209 -0.376 32 19 6
-2882.9771 5753.1802 1477.7959 -0.385 -0.538 -0.750 27 17 7
-3020.4507 6200.3613 1530.4834 -0.565 -0.825 0.014 64 47 31
-2975.7393 6129.1636 1503.1493 -0.558 -0.825 0.089 72 55 39
-2990.7283 6214.9141 1503.8123 0.263 -0.229 -0.937 61 44 28
-1952.4991 5672.3013 716.5277 0.788 -0.567 0.239 36 24 12
-1868.9531 5591.0542 658.3378 0.122 -0.394 0.911 40 23 13
-1741.7374 5448.8574 572.2707 0.429 -0.288 0.856 50 40 31
-1802.3469 5722.1729 585.0376 0.797 -0.601 -0.065 48 38 29
-1783.2716 5825.1519 555.0576 -0.091 -0.683 -0.724 26 18 11
-1775.4547 5831.9829 547.6306 -0.091 -0.683 -0.724 32 25 17
-1770.4299 5848.8975 541.1360 0.397 -0.914 0.084 38 31 23
-1568.7827 5809.2168 379.2020 0.712 0.059 0.700 178 144 128
-1405.7767 5826.4434 241.5263 0.550 0.043 0.834 242 223 216
-1285.5149 5638.4717 167.5194 0.977 -0.092 0.193 51 36 31
-1276.8809 6153.2036 89.6458 0.021 -0.992 -0.121 63 42 36
-1257.1099 6096.7412 80.9901 0.123 -0.877 -0.465 68 42 34
-1243.8424 6074.8770 72.9803 0.112 -0.992 -0.059 98 55 48
-1230.8879 6054.3071 65.0526 -0.160 -0.973 0.169 172 105 97
-1219.8949 6044.2354 57.3110 -0.161 -0.973 0.167 200 127 120
-1150.7343 6467.5249 -58.2440 -0.346 -0.918 -0.193 211 124 114
-1135.1320 6490.3096 -74.3251 -0.144 -0.524 0.840 211 124 114
-1122.4957 6470.3721 -82.0757 -0.145 -0.525 0.839 210 123 113
-17.4863 3283.8950 -561.6163 -0.358 -0.786 -0.504 252 100 121
-4400.6270 5035.3149 2818.9517 0.198 -0.629 0.751 200 196 185
-4461.9868 5258.5513 2838.6294 -0.526 -0.795 0.303 223 217 203
-3763.4771 5392.9819 2240.8931 0.879 -0.469 0.089 79 52 33
-3770.0361 5421.9038 2242.2898 0.831 -0.545 0.112 74 47 28
-2886.9895 5577.5288 1488.6396 0.639 -0.173 -0.750 67 45 24
-2907.7395 5643.4717 1496.6278 0.581 -0.188 -0.792 41 21 4
-2934.6289 5722.6377 1507.8577 0.520 -0.396 -0.756 31 18 6
-2919.5112 5714.9707 1496.3983 0.772 -0.242 -0.588 29 19 7
-2637.3730 6223.4126 1191.5321 0.630 -0.575 -0.523 30 20 11
-2627.1475 6226.7139 1182.5956 0.623 -0.582 -0.523 30 20 11
-1931.6404 5582.0381 696.1683 0.778 -0.555 0.295 34 19 8
-1909.5171 5634.6704 670.4800 -0.013 -0.467 0.884 35 21 10
-1854.9170 5551.3496 636.8624 0.682 -0.475 0.556 40 26 17
-1819.9690 5857.7515 565.0997 -0.108 -0.862 0.495 20 10 1
-1805.8375 5842.5571 555.5090 -0.192 -0.979 0.065 21 12 3
-1796.3270 5843.5078 547.4934 -0.103 -0.862 0.496 27 19 11
-1782.5533 5829.2227 538.0723 0.196 -0.727 0.658 32 25 17
-1771.5109 5824.5078 529.5782 0.196 -0.727 0.658 39 32 24
-1764.1772 5833.0586 522.3055 0.187 -0.915 0.358 43 36 28
-1546.5325 5614.4458 372.4449 0.703 0.043 0.710 61 35 24
-1540.8724 5628.3403 365.8129 0.714 0.060 0.698 65 39 28
-1529.3154 5769.3096 336.5443 0.680 0.091 0.728 126 96 83
-1449.4126 5742.5635 274.0525 0.682 0.066 0.728 194 163 156
-1431.9369 5705.6802 264.7193 0.651 0.060 0.756 206 176 168
-1330.4613 5568.2246 199.8102 0.894 -0.282 -0.349 180 163 156
-1320.8035 5605.1704 186.6448 0.900 -0.272 -0.340 54 37 30
-1317.9940 5633.5923 180.3464 0.896 -0.279 -0.345 56 39 32
-1270.3098 6077.1660 78.8680 0.394 -0.435 -0.810 58 37 31
-1304.9861 6754.6831 12.9783 0.270 -0.250 0.930 228 136 135
-1285.0646 6697.8711 4.4016 0.268 -0.258 0.928 225 134 132
-1189.6666 6601.6499 -61.2296 -0.102 -0.489 0.867 209 125 115
-98.2890 3816.4470 -576.7999 0.676 -0.282 -0.680 255 146 150
-20.7509 3289.1052 -567.4119 -0.358 -0.786 -0.504 249 91 114
-4268.2412 4989.7676 2698.6204 0.693 -0.684 -0.228 220 214 200
-4480.4937 5268.1792 2834.7542 -0.526 -0.793 0.306 224 218 204
-3750.8059 5377.7729 2215.2949 0.662 -0.697 -0.274 68 43 23
-2918.3052 5646.6333 1488.1332 0.581 -0.188 -0.792 49 29 11
-2918.2356 5693.4170 1481.4332 0.638 -0.244 -0.730 31 21 9
-2908.1599 5792.0864 1459.0853 -0.355 -0.546 -0.759 31 21 11
-2668.7285 6249.6660 1195.9614 0.269 -0.810 -0.522 47 37 28
-2631.8730 6273.7534 1162.0393 -0.304 -0.942 -0.143 36 27 22
-2619.3037 6271.2329 1151.9948 -0.304 -0.942 -0.143 35 26 21
-2595.3684 6269.0776 1132.4916 -0.315 -0.948 -0.052 35 26 21
-2559.8481 6206.9653 1111.9133 0.313 -0.912 -0.266 24 15 10
-1947.6056 5731.2227 672.7589 0.025 -0.530 0.847 33 17 9
-1906.0315 5692.1938 643.8930 0.441 -0.571 -0.693 33 18 11
-1870.9431 5641.0435 622.1157 0.503 -0.578 -0.642 37 20 12
-1768.1841 5425.5151 567.6716 0.771 -0.228 0.595 34 18 10
-1802.8616 5838.6650 537.7122 -0.103 -0.862 0.496 30 22 15
-1787.1830 5817.7007 527.7129 0.200 -0.737 0.646 31 24 16
-1772.1041 5798.5791 517.9484 0.195 -0.728 0.658 34 27 19
-1757.4827 5780.8218 508.3686 0.199 -0.727 0.657 37 30 22
-1744.1254 5767.3662 499.2243 0.152 -0.879 0.453 44 37 29
-1721.2068 5718.9790 487.1266 0.200 -0.979 -0.031 44 37 29
-1734.7726 5803.2363 486.3909 0.069 -0.961 0.268 44 37 29
-1727.6946 5812.5869 479.2055 -0.150 -0.556 0.817 45 38 30
-1633.5323 5672.9854 421.0962 0.722 -0.419 0.551 72 65 57
-1621.0880 5660.9800 412.5017 0.699 -0.432 0.569 70 61 54
-1336.1177 5561.4844 190.7828 0.894 -0.282 -0.349 84 65 59
-1288.0677 5581.6665 148.1505 0.980 -0.073 0.188 48 33 28
-1272.0286 6095.5913 61.9091 0.385 -0.424 -0.820 57 33 24
-1261.0299 6086.3682 54.1160 0.208 -0.646 -0.734 85 45 37
-1299.0817 6616.4946 10.3408 0.162 -0.423 0.891 231 149 145
-1282.8602 6580.7021 1.9975 0.282 -0.404 0.870 234 146 144
-1240.5173 6622.5649 -38.9897 0.059 -0.884 -0.463 225 140 135
-1226.8112 6599.5635 -47.0674 0.044 -0.876 -0.481 220 135 128
-213.6162 5242.8555 -692.9757 0.631 -0.774 -0.048 255 32 79
-102.3923 3770.5278 -575.9851 0.948 -0.116 0.296 255 146 153
-97.4462 3818.3499 -586.8683 0.963 -0.094 0.254 255 155 156
-24.1154 3290.8320 -572.6608 -0.359 -0.793 -0.493 252 88 115
43.8941 3179.2800 -613.1083 0.924 -0.177 -0.338 251 89 118
-3760.7522 5359.1104 2208.9902 0.783 -0.617 0.079 67 40 21
-3090.9272 6289.3867 1521.2361 -0.421 -0.907 0.001 42 25 9
-3072.1611 6302.2095 1503.8781 -0.223 -0.975 -0.022 61 44 28
-3058.5159 6299.3369 1493.0165 -0.223 -0.975 -0.022 61 44 28
-3080.4990 6374.4453 1500.3457 -0.034 -0.732 -0.680 60 44 28
-3024.1570 6304.8330 1463.8300 0.667 -0.434 0.606 46 32 21
-2628.8208 6070.9932 1170.8732 0.572 -0.635 -0.519 47 37 28
-2636.4070 6146.1543 1166.2975 0.095 -0.984 0.151 49 39 30
-2637.3857 6177.1528 1162.6337 0.124 -0.935 -0.333 49 39 30
-2663.1934 6299.9517 1166.2423 0.371 -0.252 0.894 49 39 30
-2493.8313 6013.1602 1067.6656 -0.060 -0.603 0.796 32 23 18
-2373.1335 5954.3853 976.4041 0.268 -0.413 0.870 21 14 8
-1821.0038 5840.1938 536.6130 -0.103 -0.862 0.496 29 19 10
-1809.3922 5833.8252 527.9365 -0.103 -0.862 0.496 39 31 23
-1796.4440 5822.6099 518.8546 0.190 -0.728 0.658 37 30 22
-1776.9746 5788.0532 507.7515 0.195 -0.728 0.658 35 28 20
-1762.3452 5770.3291 498.2195 0.199 -0.727 0.657 35 28 20
-1747.8358 5752.7759 488.7619 0.153 -0.883 0.444 44 37 29
-1643.4607 5646.7578 417.8057 0.518 -0.341 0.785 69 62 54
-1559.1669 5569.9482 359.2298 -0.230 -0.811 0.537 64 48 45
-1358.0686 5589.3853 190.2424 0.380 -0.361 -0.852 75 54 49
-1345.7740 5573.2524 182.4102 0.473 -0.360 -0.804 80 59 54
-1343.8384 5646.1782 170.2883 0.563 -0.314 -0.765 67 46 41
-1343.4154 5685.9102 164.2062 0.556 -0.325 -0.765 64 45 39
-1279.6700 6095.9375 52.3671 0.779 -0.623 -0.075 55 35 24
-1265.5564 6070.1162 44.4295 0.756 -0.353 0.552 62 27 17
-1256.3438 6609.8433 -41.0588 0.188 -0.834 -0.519 229 144 137
-35.4913 3739.8606 -635.8438 -0.586 -0.762 0.276 253 139 151
35.7403 3155.9158 -610.4526 0.896 -0.244 -0.372 255 84 114
-4339.0366 5035.3442 2716.4348 0.798 -0.496 -0.341 212 206 190
-3108.7000 6306.3413 1514.9161 -0.413 -0.911 0.008 48 31 15
-3055.3157 6324.6982 1468.1755 0.717 -0.430 0.549 51 36 24
-3023.9961 6282.8789 1448.4629 0.660 -0.440 0.609 46 32 21
-2753.4517 6239.5918 1231.5712 0.022 -0.455 0.890 30 23 17
-2645.2815 6061.1899 1168.4679 0.166 -0.921 0.353 40 30 21
-2598.4106 6171.2080 1113.6652 0.407 -0.225 0.885 47 38 33
-2380.1453 5949.9014 966.0074 0.598 -0.800 0.042 25 18 12
-2340.4089 5929.7920 936.1672 0.506 -0.586 -0.633 25 18 12
-2320.2117 5962.5562 914.6987 -0.496 -0.771 0.400 25 18 12
-1862.5392 5888.0874 547.9709 -0.379 -0.917 -0.124 34 24 15
-1841.6587 5850.2144 536.2936 -0.087 -0.876 0.474 43 33 24
-1830.1436 5844.3940 527.6452 -0.087 -0.876 0.474 50 40 31
-1811.9875 5815.2495 516.9363 -0.098 -0.862 0.497 54 46 38
-1795.0476 5789.9902 506.6613 0.210 -0.721 0.661 46 39 31
-1781.8328 5777.5537 497.5803 0.195 -0.728 0.658 37 30 22
-1767.7734 5761.9175 488.2715 0.187 -0.737 0.650 33 26 18
-1743.6724 5710.1377 475.9753 0.548 -0.829 0.111 44 37 29
-1648.4426 5637.1826 408.0920 0.486 -0.360 0.796 63 56 48
-1659.8390 5715.2236 406.0554 0.703 -0.627 -0.336 62 55 47
-1653.3440 5726.2554 399.0790 0.703 -0.627 -0.336 63 56 48
-1519.8055 5492.1260 323.2124 -0.168 -0.811 0.560 63 52 52
-1356.9545 5800.5303 143.6278 0.934 -0.242 -0.265 50 34 30
-1344.8802 5786.0576 135.7865 1.000 -0.001 0.027 49 34 29
-1283.7632 6077.4712 42.6373 0.916 -0.394 -0.070 55 34 24
-1269.8068 6052.5630 34.7726 0.762 -0.323 0.561 57 23 13
-1307.1615 6626.6099 -18.5553 -0.048 -0.886 -0.461 217 140 134
-1300.1832 6643.7407 -26.8246 -0.015 -0.867 -0.498 213 130 125
-1268.1155 6631.3984 -51.4757 0.222 -0.823 -0.522 209 124 117
-1189.1866 6511.2920 -98.9964 -0.116 -0.493 0.862 220 133 123
-45.3087 3960.6875 -668.9575 -0.519 -0.809 0.275 255 156 158
25.6723 3178.0408 -612.7968 0.219 -0.838 -0.500 254 61 94
30.4128 2788.3530 -559.5831 0.801 -0.596 0.055 255 121 141
-2911.0312 5599.4019 1438.7604 0.998 -0.042 0.041 35 22 9
-2957.2766 5788.9390 1448.6404 0.970 -0.185 -0.160 35 25 15
-3051.1592 6294.0542 1450.7802 0.715 -0.431 0.551 51 36 25
-3028.2917 6324.8530 1427.3538 0.040 -0.518 0.855 34 20 9
-2884.4597 6084.9395 1344.5724 0.389 -0.324 0.862 30 16 7
-2838.0676 6007.0088 1317.9534 0.393 -0.335 0.857 30 16 7
-2630.8582 5922.4922 1159.8170 -0.062 -0.589 0.806 24 17 12
-2601.5935 5905.6387 1138.2152 -0.105 -0.559 0.823 35 25 19
-2638.3159 6162.1792 1130.2728 0.510 -0.393 0.765 49 39 33
-2614.1919 6130.4990 1115.1140 0.293 -0.316 0.902 49 39 33
-2441.5657 5945.8027 1000.3873 0.319 -0.911 0.260 59 52 48
-2392.5317 5959.7715 957.9081 0.618 -0.778 0.113 43 36 31
-1869.1646 5528.8770 590.8629 -0.404 -0.830 0.385 33 16 7
-1883.9482 5899.7837 547.8160 0.762 -0.390 0.518 32 21 12
-1863.6735 5864.5244 536.3616 0.050 -0.926 0.373 43 32 23
-1818.4806 5810.3735 507.1898 -0.098 -0.862 0.497 65 57 49
-1798.8654 5775.8838 496.1642 0.049 -0.981 0.188 53 46 38
-1653.1871 5626.7852 398.3398 -0.295 -0.813 0.502 59 52 44
-1666.4420 5711.3979 396.6619 0.718 -0.691 -0.086 58 51 44
-1657.8862 5714.6084 389.1346 0.633 -0.766 -0.111 58 51 45
-1618.5339 5743.7822 352.3683 0.155 -0.640 0.753 73 64 66
-1411.9514 5530.1128 213.9789 0.491 -0.434 -0.756 59 52 38
-1391.9336 5677.9316 175.4763 0.249 -0.457 -0.854 70 52 47
-1369.5969 5740.4214 147.7684 0.943 -0.261 0.205 64 47 42
-1393.5955 5895.3384 144.4742 0.896 -0.375 0.237 55 38 33
-1289.2382 6066.4644 33.0134 0.916 -0.394 -0.070 58 33 25
-1286.7954 6254.1138 3.0602 0.893 0.063 -0.446 181 131 116
-1311.3624 6494.3130 -12.4640 0.745 0.037 -0.666 157 93 83
-1261.7030 6662.9917 -78.4945 -0.024 -0.877 -0.480 201 118 110
-240.9187 5398.6543 -731.2661 0.339 -0.155 -0.928 255 34 79
-4239.5845 5016.4858 2603.1777 -0.491 -0.795 0.356 140 117 92
-3413.2268 6218.5181 1741.6086 0.730 -0.681 -0.058 106 71 39
-2958.7808 5894.4658 1416.7479 0.964 -0.112 -0.239 63 47 32
-3075.2786 6298.3281 1451.5217 0.358 -0.742 0.567 45 28 15
-2685.4561 6227.4917 1141.5380 0.236 -0.358 0.904 19 15 11
-2399.9426 5956.3125 947.6581 0.523 -0.836 -0.165 34 30 28
-2054.7783 5871.4907 676.5275 -0.394 -0.842 0.369 42 25 17
-2001.7712 6165.2427 588.5042 0.788 -0.490 0.373 32 17 10
-1915.7897 5912.4556 555.9920 0.777 -0.282 0.562 38 23 16
-1777.8777 5742.5942 468.2196 -0.006 -0.997 0.073 34 23 19
-1686.5765 5758.1318 390.7597 0.801 -0.595 -0.058 48 43 39
-1674.0392 5746.6851 382.1765 0.471 -0.878 0.086 48 43 39
-1643.7831 5739.3286 358.3980 0.010 -0.770 0.637 62 54 53
-1590.6614 5678.1636 323.9448 0.013 -0.731 0.683 72 64 63
-1541.0182 5626.9644 290.8464 -0.372 -0.849 0.375 75 63 63
-1515.3705 5596.6704 274.3273 -0.420 -0.819 0.392 75 63 63
-1483.9287 5578.5337 251.2035 -0.407 -0.858 0.312 58 46 46
-1441.9260 5552.0752 220.6498 -0.511 -0.794 0.329 38 28 24
-1428.6166 5533.0308 212.5802 -0.516 -0.791 0.329 43 33 29
-1418.8137 5567.2095 199.3477 0.542 -0.391 -0.744 56 47 43
-1392.3005 5687.2251 159.3895 0.204 -0.863 0.463 65 52 50
-1382.9468 5685.4551 151.9621 0.204 -0.863 0.463 74 59 57
-1293.0122 5768.2612 65.4552 -0.365 -0.774 -0.517 62 36 32
-1291.0991 5803.4614 58.5590 -0.294 -0.788 -0.541 62 37 32
-1296.2557 6063.6123 23.4657 0.739 -0.669 -0.078 59 32 24
-1319.0839 6831.3818 -73.8432 -0.049 -0.515 -0.856 188 106 94
-1256.4082 6761.9126 -114.9006 0.114 -0.494 -0.862 182 104 91
-500.1774 4543.2446 -401.5590 -0.355 -0.877 0.324 175 97 73
-459.3479 4670.2241 -454.3478 -0.550 -0.704 0.449 161 85 59
-4352.0688 5013.4326 2679.0696 0.965 -0.234 0.123 216 210 198
-4368.7090 5131.3101 2674.6436 -0.500 -0.787 0.360 201 178 156
-2945.1267 5749.4272 1410.3806 0.910 -0.387 -0.150 34 21 12
-3113.7322 6253.7256 1471.4652 0.849 -0.346 -0.399 76 58 44
-2717.7249 6255.1826 1145.9481 0.343 -0.300 0.890 16 12 9
-2694.6575 6227.1924 1131.2966 0.287 -0.360 0.888 16 12 9
-2668.6194 6191.5596 1115.3781 0.268 -0.363 0.892 16 12 9
-2639.1042 6146.9243 1097.9851 0.273 -0.363 0.891 16 12 9
-2437.9807 5976.1958 958.9837 -0.015 -0.867 0.498 32 26 24
-2417.5747 5951.1768 946.0621 0.496 -0.848 -0.190 35 28 28
-2347.6316 5966.6479 886.2337 -0.185 -0.688 0.701 26 24 32
-2321.2292 5923.8101 871.1218 -0.218 -0.698 0.682 18 16 24
-2267.3997 6297.1855 769.5887 -0.113 -0.377 -0.919 43 29 26
-1936.1633 5725.0420 585.3286 -0.258 -0.781 0.568 39 26 18
-1928.7659 5732.8921 578.0470 -0.255 -0.774 0.580 32 19 11
-1920.9572 5902.6528 545.5731 -0.146 -0.920 0.364 40 25 18
-1813.9701 5773.8633 477.4606 0.267 -0.964 -0.020 55 44 40
-1784.2305 5737.5845 458.6005 -0.005 -0.996 0.084 35 24 20
-1797.7881 5995.4233 430.1570 -0.436 -0.765 -0.475 44 39 35
-1666.4840 5725.0352 363.8062 0.025 -0.756 0.655 48 43 39
-1642.6611 5706.0063 347.1583 0.023 -0.745 0.667 55 47 44
-1485.1930 5590.8472 235.4866 -0.165 -0.890 0.425 57 45 45
-1440.2075 6412.6016 72.3887 0.955 0.074 0.286 60 37 33
-1429.3018 6407.7065 64.1818 0.827 0.028 0.562 59 32 29
-1343.1100 6861.8687 -76.3362 -0.099 -0.528 -0.844 193 111 99
-464.3199 4666.3345 -461.1724 0.352 -0.489 0.798 166 92 65
-112.6051 3687.7715 -599.8657 0.453 -0.227 -0.862 254 159 153
-67.6915 3955.7627 -677.8979 0.841 -0.399 -0.365 253 164 157
22.5538 2882.6477 -587.2972 -0.057 -0.542 -0.839 255 118 136
-4351.2451 4999.9116 2663.3967 0.967 -0.234 0.103 217 211 199
-4518.6333 5252.5767 2761.3201 -0.307 -0.916 0.258 226 220 208
-3072.4707 6249.7500 1419.8103 0.710 -0.420 0.566 56 39 26
-3047.0950 6221.3799 1403.4177 0.755 -0.369 0.541 43 30 21
-2472.8918 5987.1260 968.9572 -0.015 -0.860 0.511 42 32 33
-2450.4780 5957.3843 955.2076 -0.305 -0.951 0.049 42 32 33
-2429.3721 5930.7378 942.0485 -0.270 -0.961 0.058 42 32 33
-2404.4041 5950.6860 918.4616 0.396 -0.880 -0.264 37 26 30
-2407.4697 5987.7070 915.2077 0.418 -0.851 -0.317 37 26 31
-2326.4939 5914.7354 860.1613 -0.218 -0.698 0.682 21 14 26
-2226.5427 6023.5190 761.2319 0.545 0.042 -0.837 32 18 15
-2316.5857 6484.1548 763.3127 -0.498 -0.763 0.413 50 37 32
-2175.6445 6191.0806 693.3774 -0.506 -0.827 0.245 53 36 29
-1936.0911 5892.6929 543.3885 -0.096 -0.973 0.212 33 18 11
-1816.6621 5756.0557 466.7229 0.400 -0.916 0.017 55 44 40
-1804.3031 5746.7773 458.0318 0.122 -0.990 0.068 41 30 26
-1788.9600 5726.9277 448.5402 0.257 -0.962 0.090 35 24 20
-1770.9425 5697.4121 438.3611 0.288 -0.951 -0.116 40 29 25
-1494.5555 5599.3896 226.9424 -0.153 -0.893 0.424 66 55 53
-1394.1067 6242.1978 44.3976 0.799 0.033 0.601 54 26 22
-440.7782 4530.7891 -470.8626 0.415 -0.399 0.818 169 97 72
-352.3192 4722.8159 -573.3364 -0.443 -0.752 0.487 164 88 62
-344.3633 4689.0132 -574.5949 -0.461 -0.747 0.479 165 88 62
-336.5400 4655.9761 -575.8640 -0.578 -0.760 0.296 164 87 61
-49.2606 3513.4141 -633.4654 0.745 -0.618 0.252 246 77 113
-4358.3608 4996.0269 2652.7700 0.918 -0.388 0.081 217 211 199
-3735.8792 6064.2954 1974.0717 0.875 -0.284 0.391 150 102 62
-2955.7158 5829.3306 1372.2991 0.507 -0.329 -0.796 64 48 33
-3004.4285 6134.2988 1363.9728 0.107 -0.657 0.746 42 29 20
-2903.1692 6229.1284 1266.0511 0.573 -0.380 -0.727 19 14 8
-2452.5020 5939.8813 942.7062 -0.272 -0.960 0.063 52 35 38
-2439.3604 5934.0293 932.8692 -0.264 -0.962 0.065 52 35 38
-2421.1838 5914.9019 921.0076 -0.248 -0.968 0.051 42 25 28
-2278.4426 6244.7407 751.9555 0.635 0.021 -0.772 55 41 38
-2294.7776 6325.4829 752.5667 -0.011 -0.390 -0.921 55 41 38
-2259.0151 6317.9614 724.4677 -0.153 -0.634 0.758 58 41 35
-2008.5200 5872.3911 589.7732 -0.600 -0.764 0.237 51 38 30
-1859.6010 5842.7603 472.4992 -0.113 -0.993 0.031 66 53 50
-1845.2662 5827.3716 463.1929 -0.049 -0.984 -0.169 55 44 40
-1771.5780 5672.6377 427.3108 0.320 -0.945 -0.070 40 29 25
-1674.4097 5768.4556 332.5834 -0.058 -0.916 0.398 44 36 33
-1362.7212 6095.1533 25.6664 0.807 0.032 0.589 48 21 14
-1312.4537 5936.4756 9.5887 0.819 -0.567 -0.086 44 16 12
-1301.5898 6069.9751 -20.4167 0.785 -0.602 -0.142 58 28 9
-1309.4117 6691.9155 -112.3491 0.620 -0.082 0.780 198 116 104
-334.3969 4633.7368 -585.4198 -0.346 -0.730 0.590 165 87 59
-278.4293 5408.1899 -753.7079 -0.051 -0.886 -0.460 254 38 87
-134.3143 3641.7100 -592.4252 0.851 -0.487 -0.195 255 151 151
-61.5641 3529.8384 -634.3162 0.797 -0.392 0.459 249 106 133
17.6571 3294.9836 -662.0613 -0.078 -0.382 -0.921 253 84 107
11.0477 2921.0117 -597.5177 -0.188 -0.653 -0.734 254 104 124
-4378.7329 4898.1709 2668.0618 0.655 -0.337 0.676 226 220 208
-4262.2520 5010.1162 2554.8538 -0.569 -0.783 0.252 133 111 90
-3724.6255 6049.7036 1948.4532 0.904 -0.279 0.323 138 90 50
-3718.5176 6061.7686 1941.5231 0.900 -0.287 0.327 131 83 43
-2993.8667 5792.9712 1392.0767 -0.397 -0.686 -0.610 33 20 11
-2976.1282 5852.6187 1368.0028 0.517 -0.329 -0.790 67 51 36
-3127.5596 6220.4429 1432.8265 0.892 -0.367 -0.264 69 51 37
-2858.5371 6000.8120 1248.0724 0.602 -0.208 -0.771 34 30 21
-2847.3811 6001.8530 1238.7830 0.545 -0.832 -0.103 34 29 23
-2883.4731 6109.1982 1251.0763 0.644 -0.109 -0.757 34 29 23
-2564.2180 6005.1924 1006.6972 0.465 -0.553 0.691 13 7 7
-2491.7781 6018.6938 945.2952 -0.026 -0.983 0.184 60 37 43
-2439.8428 6026.9780 901.4974 -0.432 -0.857 -0.281 49 27 35
-2408.0654 5971.7241 884.3759 -0.415 -0.845 0.337 47 26 42
-2390.0449 6010.8169 863.3689 -0.182 -0.587 0.789 45 25 42
-2053.2285 5922.9609 602.0388 -0.348 -0.689 0.636 54 40 33
-2056.3916 6198.4194 560.4365 -0.429 -0.902 -0.052 35 20 13
-1900.9100 5956.0840 472.1702 -0.613 -0.719 0.326 71 59 55
-1655.2257 5810.8247 294.5698 0.215 -0.785 0.581 49 41 38
-1450.0708 5615.6953 158.1115 0.762 -0.300 -0.574 78 68 67
-1446.9811 5641.0474 151.5180 0.763 -0.301 -0.573 82 72 71
-1384.7417 5642.8477 100.3344 0.953 -0.263 0.148 58 44 44
-1363.5164 6015.1577 23.2524 0.948 0.017 0.317 52 24 20
-1357.6958 6032.4404 15.7203 0.844 0.075 0.532 52 25 18
-1299.4958 6019.9644 -29.8699 0.787 -0.528 -0.320 56 26 7
-361.0536 4690.7324 -584.0260 0.575 -0.817 -0.049 170 94 68
13.7752 3800.1448 -747.6668 0.114 -0.685 -0.720 253 56 86
-4299.2959 5043.2695 2562.7297 -0.533 -0.814 0.230 131 109 88
-3752.0312 6056.1494 1951.0751 0.538 -0.674 -0.507 155 107 67
-3723.4775 6052.3862 1928.3735 0.641 -0.755 0.142 145 97 57
-3728.8367 6084.1616 1927.5787 0.926 -0.277 0.255 140 92 52
-2973.8110 5804.3096 1356.6442 -0.311 -0.693 -0.650 61 45 31
-3083.3315 6184.0254 1384.2788 0.027 -0.496 0.868 58 40 28
-2843.4785 5972.3765 1222.8805 0.569 -0.446 -0.691 34 29 23
-2869.6631 6057.0420 1230.4833 0.659 -0.150 -0.737 34 29 23
-2544.5186 5879.1670 993.9492 0.092 -0.984 0.154 17 11 11
-2558.5071 5941.0747 995.2970 0.172 -0.985 -0.028 20 14 14
-2569.0723 5994.9702 995.1536 0.455 -0.558 0.694 22 16 16
-2544.5051 5989.1909 976.0350 0.123 -0.728 0.675 43 37 37
-2511.3359 5961.2959 953.4918 0.139 -0.756 0.640 65 54 55
-2448.3665 6026.1709 891.5211 -0.430 -0.862 -0.269 76 46 57
-2414.2800 5965.0464 873.6360 -0.409 -0.848 0.336 58 32 48
-2406.7439 5973.8872 866.0443 -0.418 -0.843 0.338 58 31 51
-2391.4619 5962.0742 855.4890 -0.347 -0.788 0.509 58 32 51
-2255.6682 6320.7905 686.2435 -0.029 -0.772 -0.635 52 35 28
-2242.0120 6312.8647 676.3831 -0.028 -0.779 -0.626 51 34 27
-2223.5869 6290.3135 665.0088 0.010 -0.738 -0.675 51 34 27
-1960.7714 6061.6865 487.6245 0.954 -0.300 -0.026 72 57 50
-1857.2566 6056.2866 403.9842 0.672 -0.740 -0.024 43 37 33
-1503.5695 5438.8545 215.6707 0.940 -0.231 0.252 55 44 42
-1442.9437 5592.3457 141.1941 0.560 -0.361 0.746 77 67 66
-1433.8054 5591.4106 133.8848 0.560 -0.361 0.746 81 69 69
-1380.6815 5591.9639 90.4196 0.943 -0.286 0.173 55 41 41
-1292.4344 5945.0190 -39.0831 0.736 -0.641 -0.216 54 24 5
-1281.9032 5937.7593 -46.5005 0.737 -0.673 -0.061 61 26 6
-89.5033 3904.5659 -689.2416 0.978 -0.206 0.034 253 164 152
-61.0928 3153.8477 -590.2806 -0.271 -0.947 0.170 254 64 109
-4367.6089 4954.1274 2616.0383 0.655 -0.609 0.448 213 207 195
-4546.0762 5250.1909 2712.6777 -0.474 -0.866 0.157 224 219 206
-3720.5276 6007.2109 1914.7164 -0.500 -0.848 0.177 162 114 74
-3127.0603 6178.1694 1402.6755 0.919 -0.357 -0.167 58 40 26
-3079.4580 6155.1577 1367.6649 0.027 -0.496 0.868 45 27 15
-2998.9558 6060.6509 1317.6307 0.144 -0.435 0.889 42 29 20
-2971.8513 6027.9585 1300.9286 0.144 -0.436 0.888 42 29 20
-2876.3228 6050.9731 1219.2504 0.657 -0.149 -0.739 34 29 23
-2553.8811 5853.5825 988.9515 -0.428 -0.623 -0.655 13 7 7
-2563.9851 5960.1143 979.6085 -0.112 -0.585 -0.803 36 30 30
-2529.1970 5984.0811 947.2922 -0.419 -0.908 0.003 63 51 53
-2437.9080 5975.5386 874.2778 -0.186 -0.976 0.115 94 59 72
-2297.3137 6385.3838 692.0230 -0.032 -0.971 0.237 39 22 15
-2285.2429 6382.7012 682.6249 -0.032 -0.971 0.237 39 22 15
-2012.2456 6034.2158 517.5702 0.607 0.020 -0.795 41 26 19
-1919.0308 5962.3057 453.4430 -0.575 -0.758 0.307 72 59 56
-1866.9336 6026.0137 400.4570 0.294 -0.564 0.772 38 28 23
-1811.7313 5936.8535 370.1664 0.778 -0.560 -0.285 42 37 33
-1369.0713 5547.0820 73.6061 0.617 -0.248 0.747 61 46 44
-1410.0023 5942.2480 41.7636 0.052 -0.919 -0.392 64 43 40
-1267.8071 5827.0381 -55.1498 0.584 0.003 -0.812 70 36 16
-1266.2225 5912.2280 -70.4999 0.618 0.080 -0.782 207 145 134
-1345.7257 6535.9985 -108.6213 0.045 -0.522 0.852 230 140 133
-1345.4197 6588.3159 -117.5044 -0.012 -0.459 0.889 222 139 128
-869.7361 5578.1963 -338.6153 0.086 -0.483 0.871 168 91 79
-4392.8286 5116.5317 2592.4229 -0.498 -0.817 0.291 161 141 117
-3045.6321 5723.9180 1394.1421 -0.107 -0.914 -0.391 39 23 11
-3017.5864 5690.9927 1376.8217 -0.117 -0.887 -0.447 36 22 11
-3048.7273 5871.9673 1371.8893 0.023 -0.868 -0.497 33 20 11
-3088.1555 6101.9009 1365.5109 0.911 -0.281 -0.303 36 19 5
-3074.1838 6123.4990 1350.5238 -0.036 -0.536 0.843 35 17 6
-2898.8513 6054.1089 1219.4097 0.603 -0.117 -0.789 34 29 23
-2567.6553 5865.7378 981.3277 -0.321 -0.656 -0.683 11 6 5
-2425.9521 5921.3462 856.6733 -0.014 -0.989 0.147 91 56 66
-2364.6194 6457.3447 717.0607 -0.124 -0.437 0.891 24 10 3
-2311.4436 6400.5605 683.2758 0.022 -0.963 0.270 28 12 5
-2311.0249 6432.7603 677.5472 -0.132 -0.978 0.164 28 12 5
-2295.4456 6453.5737 661.3825 -0.210 -0.974 0.082 38 22 15
-1965.7872 5989.4038 470.7007 0.583 -0.742 -0.329 72 57 50
-1882.7869 5880.1538 421.4168 -0.482 -0.842 0.242 48 37 33
-1866.2933 5995.3042 388.7231 0.291 -0.570 0.768 38 28 23
-1469.3789 5420.7788 161.7583 0.178 -0.868 0.463 48 37 36
-1437.7837 5992.4907 40.3769 -0.054 -0.986 0.160 67 45 41
-1415.4154 5975.7173 24.9753 0.148 -0.918 -0.368 71 49 45
-1401.3701 5953.5708 17.2478 -0.523 -0.842 -0.129 71 48 43
-1353.7725 5947.4766 -20.4781 -0.235 -0.959 -0.158 66 38 33
-1266.0399 5647.0391 -41.6235 0.309 -0.460 0.833 62 33 26
-1350.6875 6519.2041 -118.6542 0.045 -0.522 0.852 209 121 113
-934.1533 6974.0771 -533.8347 0.554 -0.766 -0.327 169 87 68
-160.0126 3697.7056 -615.7817 -0.180 -0.573 -0.800 254 134 144
-4.3293 3736.8667 -749.0641 0.553 -0.529 -0.644 255 54 89
230.1095 5868.6689 -1296.6084 0.702 -0.485 0.521 237 138 140
-4365.0659 4973.6782 2576.7173 0.744 -0.610 0.273 219 211 198
-4343.1548 4963.1382 2560.6960 0.735 -0.625 0.264 221 213 200
-3304.1672 6120.5405 1519.8912 0.419 -0.180 0.890 85 56 29
-3066.9951 5747.9746 1390.3177 -0.115 -0.920 -0.374 41 25 13
-3045.4902 5728.3369 1376.1698 -0.116 -0.906 -0.407 38 24 13
-3006.4292 5673.3101 1353.7555 -0.119 -0.915 -0.386 37 24 15
-3073.3918 5903.0322 1369.2150 0.410 -0.835 -0.368 31 18 9
-3105.6704 6067.7822 1367.5044 0.555 -0.458 -0.694 35 24 15
-3135.2578 6154.4233 1376.8561 0.733 -0.650 -0.203 35 24 15
-2984.8328 5964.8384 1286.7509 0.019 -0.497 0.868 27 19 11
-2908.2415 6028.1421 1213.7604 0.607 -0.199 -0.770 27 23 14
-2612.3245 6007.6484 976.7185 -0.272 -0.882 -0.386 24 25 14
-2585.5322 6052.6187 947.3138 -0.383 -0.809 -0.446 58 57 46
-2420.6179 5912.9678 836.9619 0.267 -0.837 0.478 68 48 50
-2409.2412 5911.4697 827.9691 0.267 -0.837 0.478 68 48 51
-2397.8882 5909.9746 818.9950 0.267 -0.837 0.478 69 49 51
-2339.2742 6456.0757 678.7206 -0.103 -0.965 0.242 25 14 3
-1981.0608 6012.5088 462.8097 0.565 -0.757 -0.328 37 24 18
-1892.8796 5887.1050 412.4089 -0.485 -0.840 0.242 31 22 17
-1873.1112 5990.7471 378.7608 -0.010 -0.883 0.469 34 25 20
-1775.3492 5785.8418 334.0585 0.845 -0.535 0.002 53 46 40
-1430.0366 5558.4463 91.9646 0.642 -0.593 0.486 86 54 66
-1421.8650 5561.4302 84.8166 0.642 -0.593 0.486 87 56 68
-1410.0350 5548.4146 77.4091 0.590 -0.595 0.545 85 55 66
-1461.4268 6022.4248 38.7747 -0.009 -0.997 0.077 70 46 40
-1442.8180 6067.7949 15.9538 0.829 -0.337 -0.446 76 50 44
-1344.6453 6496.6465 -136.5851 0.116 -0.451 0.885 193 120 99
-159.1406 3694.5522 -624.8385 -0.129 -0.626 -0.769 254 149 145
92.5980 3284.2322 -759.8474 0.967 -0.120 -0.225 239 118 126
117.3599 3630.0806 -838.6390 0.975 -0.117 -0.187 224 114 119
-4423.8281 5128.7471 2580.7395 -0.307 -0.871 0.384 179 162 140
-3866.5996 6043.9038 1971.1764 0.781 -0.406 0.474 162 119 85
-3074.4597 5721.2041 1383.7922 -0.204 -0.973 -0.109 71 45 20
-3170.6797 6106.2480 1395.6799 0.346 -0.768 -0.539 31 18 9
-3142.0959 6097.8223 1373.9314 0.917 -0.169 -0.361 33 23 14
-3136.5237 6111.4858 1367.0599 0.917 -0.173 -0.360 33 23 14
-3108.3684 6103.6372 1345.5598 0.924 -0.267 -0.273 29 19 10
-2907.3735 5879.2710 1221.0162 0.109 -0.442 0.890 26 22 13
-2912.4978 6016.8755 1201.5168 0.606 -0.194 -0.772 26 22 13
-2692.6833 6153.9155 999.5641 -0.248 -0.790 -0.561 17 17 5
-2670.1528 6127.0049 985.9061 -0.226 -0.811 -0.539 25 24 12
-2604.7249 6049.8965 946.0648 -0.406 -0.817 -0.410 47 46 34
-2582.7402 6023.2002 932.8129 0.238 -0.890 -0.390 55 53 41
-2496.5945 5973.9502 871.3682 -0.078 -0.872 0.482 74 49 42
-2487.1414 5977.9233 863.0134 -0.076 -0.882 0.465 74 49 42
-2472.4680 5968.4072 852.7415 -0.071 -0.883 0.465 74 49 44
-2414.4529 5902.3955 817.0082 0.054 -0.825 0.562 62 44 42
-1798.4379 5805.5142 333.7346 0.404 -0.370 0.837 51 44 38
-1455.3436 5448.7900 116.6255 0.110 -0.852 0.511 56 40 40
-1439.7533 5569.2354 83.2652 0.550 -0.537 0.640 90 58 68
-1466.5894 5803.0674 64.8417 -0.291 -0.686 0.667 91 61 70
-1432.6534 5899.3394 20.7490 0.116 -0.628 0.770 82 54 47
-1435.2360 6085.1030 -9.0933 0.595 -0.801 0.071 87 53 46
-1352.8865 6497.6519 -146.8533 -0.025 -0.481 0.876 194 123 100
-1356.7002 6908.2124 -214.3454 0.714 0.057 0.698 205 111 94
-195.1706 3844.2712 -630.2121 -0.153 -0.986 0.070 248 31 76
-157.8717 3660.3008 -628.8525 -0.315 -0.949 -0.017 254 155 150
-82.3038 3160.1018 -604.1816 0.504 -0.862 -0.047 253 69 110
-79.8145 2997.1213 -578.1808 0.776 -0.315 0.547 254 63 107
-15.0328 3290.2925 -681.1591 0.826 -0.521 -0.214 255 75 104
105.4143 3489.4363 -813.1472 0.975 -0.117 -0.187 215 95 103
-4309.1846 5040.5532 2485.7754 -0.463 -0.886 -0.011 144 108 91
-2085.7178 2562.6443 1115.7761 0.770 -0.635 -0.069 111 76 56
-3089.7720 5733.0415 1377.0071 -0.114 -0.988 -0.107 71 45 20
-3074.4812 5749.0498 1361.8276 -0.122 -0.922 -0.369 38 24 13
-2683.0430 6025.5850 996.4562 0.573 -0.498 0.652 17 12 6
-2656.1826 6042.9443 971.6661 0.234 -0.530 0.815 20 15 5
-2647.1667 6048.5933 963.3762 0.271 -0.561 0.782 27 22 12
-2658.2878 6103.5283 962.8167 0.297 -0.537 0.790 32 27 16
-2629.5383 6060.9004 946.9472 0.643 -0.539 0.545 39 34 23
-2296.5459 5763.8809 728.8657 -0.510 -0.855 0.089 28 9 14
-1872.1575 5931.4692 355.7758 0.221 -0.572 0.790 33 24 19
-1464.4058 5493.3013 101.7073 0.112 -0.851 0.513 65 47 47
-1438.2087 5494.3735 80.2925 0.579 -0.491 0.651 87 60 64
-1357.3094 5644.3398 -11.3905 0.258 -0.645 0.720 89 58 53
-1405.8085 5911.7988 -18.6898 0.693 -0.519 0.500 91 57 51
-1375.9288 5814.9072 -26.0205 0.309 -0.940 0.141 90 52 44
-1369.9493 6290.2192 -113.6791 0.636 0.062 -0.769 226 187 161
-1360.3450 6494.4546 -157.0455 0.083 -0.369 0.926 210 142 116
-1342.8584 6840.8179 -231.5618 0.704 0.054 0.708 200 109 88
-1327.7014 6813.0649 -239.0085 0.697 0.050 0.715 199 109 88
-186.6858 3714.9773 -623.8210 0.693 -0.421 0.586 251 70 105
-176.6675 3695.4707 -628.5403 0.741 -0.462 0.487 255 134 145
-120.7143 4170.0269 -756.5620 0.052 -0.493 -0.868 255 159 161
-95.7527 3730.0881 -700.1388 0.040 -0.525 -0.850 255 92 126
-85.7749 3140.7300 -605.5406 0.762 -0.460 0.456 253 69 110
-14.0418 2907.8850 -623.0991 -0.243 -0.904 -0.352 254 112 130
205.9699 5618.0566 -1273.5703 0.566 -0.499 0.656 243 119 125
94.3198 3358.8123 -789.4716 0.975 -0.117 -0.187 216 84 97
-4459.3667 5146.2876 2571.5366 -0.448 -0.856 0.256 203 188 167
-2111.0674 2572.5723 1125.8914 0.756 -0.613 0.228 124 88 66
-3858.5908 6039.8599 1927.7139 0.738 -0.430 -0.521 142 98 63
-3681.6038 5919.7964 1805.7103 0.443 -0.784 0.435 151 105 71
-3642.2251 5896.6064 1777.9434 -0.295 -0.933 0.208 144 98 64
-3102.4609 5762.7212 1364.8611 -0.101 -0.922 -0.373 41 25 13
-3085.8901 5753.1719 1353.1395 -0.173 -0.871 -0.460 38 24 13
-2692.3386 6053.2607 981.7471 0.561 -0.756 -0.337 19 12 5
-2648.5525 6029.8828 950.4471 0.271 -0.561 0.782 31 20 12
-2659.2820 6083.6152 949.6429 0.297 -0.537 0.790 36 25 16
-2644.9319 6076.3550 939.3141 0.297 -0.537 0.790 38 27 18
-2630.6382 6069.1230 929.0258 0.297 -0.537 0.790 43 31 23
-2328.7224 5856.2598 722.3259 -0.172 -0.677 -0.715 27 10 12
-1862.2874 5870.0181 342.5100 0.209 -0.565 0.798 33 24 19
-1811.8616 5763.7529 320.4700 0.423 -0.354 0.834 44 37 31
-1782.6364 5729.1230 302.9374 0.410 -0.363 0.837 55 48 42
-1746.6036 5635.9404 290.2332 0.886 -0.243 -0.394 54 47 41
-1465.1403 5503.2930 85.9207 -0.106 -0.990 0.093 73 53 51
-1471.6257 5964.5366 9.7449 0.515 -0.028 -0.856 116 71 71
-1373.0690 6466.9785 -158.6920 0.036 -0.437 0.899 225 162 139
-1324.2001 6416.0435 -189.2397 0.320 -0.243 0.916 203 117 97
-1315.1249 6810.4497 -266.2067 0.723 0.075 0.687 210 108 90
-1301.6616 6851.1392 -284.2824 0.722 0.074 0.687 212 109 91
-93.1130 3138.1436 -606.6520 0.276 -0.513 0.813 255 76 117
-90.7154 2876.4570 -562.3965 0.906 -0.380 -0.188 253 69 110
77.4651 3123.3330 -742.0503 0.989 -0.099 -0.108 216 75 90
-4474.4297 5151.6909 2565.2295 -0.512 -0.846 0.148 213 198 177
-4444.0518 5131.2319 2544.3469 -0.509 -0.848 0.149 168 144 126
-2085.3533 2557.1028 1099.1898 0.828 -0.560 0.010 110 75 55
-3910.4158 5870.2583 1981.0869 0.479 -0.272 0.835 77 43 18
-3915.3655 5899.1152 1979.9252 0.950 -0.209 0.234 75 39 15
-3156.5188 5780.7632 1388.0518 -0.292 -0.925 0.243 89 60 30
-3128.5591 5749.3750 1371.0773 -0.189 -0.978 -0.085 82 52 24
-3112.1919 5740.3828 1359.4631 -0.138 -0.980 -0.143 75 47 22
-2734.8376 6078.0049 994.2388 0.907 -0.285 0.308 9 4 0
-2731.3711 6097.0972 988.0240 0.907 -0.281 0.313 13 6 2
-2716.3528 6088.7393 977.3860 0.900 -0.309 0.308 28 20 13
-2543.5015 5969.5010 859.0704 0.693 -0.720 -0.041 57 34 26
-2474.0203 5932.7314 809.5153 -0.109 -0.973 0.205 50 30 24
-2314.1692 5908.9849 684.6253 -0.384 -0.833 -0.398 51 7 10
-2289.4707 5870.2358 671.6019 -0.431 -0.802 -0.415 55 4 10
-2147.6848 5618.4136 602.0927 -0.363 -0.896 0.254 56 8 9
-1574.7689 5554.5142 150.6867 0.435 -0.376 -0.818 57 47 46
-1524.0895 5568.7041 107.2075 -0.082 -0.949 0.303 71 53 51
-1476.1798 5519.2500 77.3472 0.238 -0.814 0.530 74 53 49
-1050.2290 4427.9658 -71.6058 0.121 -0.859 0.498 155 118 107
-1398.1838 6402.6367 -143.6376 0.371 -0.783 0.500 178 132 109
-1388.2762 6402.2622 -151.5745 0.371 -0.783 0.500 209 156 135
-1371.6259 6417.6982 -167.7861 0.037 -0.317 0.948 172 109 86
-1309.0101 6613.9175 -253.4603 0.371 -0.206 0.905 210 91 79
-135.8049 4330.5659 -792.9100 0.082 -0.544 -0.835 253 162 158
-113.1767 3781.6853 -713.0345 0.938 -0.087 0.335 251 132 137
-28.0988 3343.8210 -703.4622 0.044 -0.997 0.057 252 68 100
-24.2340 3331.2170 -704.3304 0.076 -0.989 0.123 253 80 108
-4460.9668 5138.9268 2539.1445 -0.520 -0.845 0.125 172 152 133
-4426.7568 5113.7485 2516.1106 -0.520 -0.847 0.112 145 117 100
-3900.7307 5859.3218 1956.7614 0.808 -0.569 0.154 87 51 27
-3912.8113 5899.4644 1959.2349 0.812 -0.583 -0.036 82 46 21
-3929.2534 5946.7944 1963.9248 0.805 -0.569 0.169 90 50 22
-3916.8167 5969.6836 1949.7469 0.681 -0.471 0.561 113 70 36
-3899.6565 5985.1187 1933.1095 0.698 -0.497 0.515 126 83 49
-3270.3286 5959.0083 1430.2089 -0.206 -0.903 -0.378 92 63 33
-3194.2598 5835.5005 1391.2211 -0.437 -0.745 -0.503 88 59 29
-3149.6521 5772.1099 1366.7214 -0.172 -0.984 -0.044 81 51 23
-3128.1038 5776.2085 1348.5977 0.245 -0.969 0.028 42 26 13
-3109.2473 5762.3364 1335.9003 0.177 -0.984 0.033 39 25 14
-2509.1641 5971.9956 813.8843 -0.205 -0.883 0.423 57 34 26
-2495.0264 5964.0063 803.9276 -0.199 -0.884 0.423 50 30 22
-2465.1531 5915.4883 788.6191 -0.164 -0.720 0.674 48 31 28
-2452.6035 5911.1704 779.2787 -0.156 -0.722 0.674 42 27 24
-2398.7690 5855.3535 745.9645 0.129 -0.989 -0.075 28 13 10
-2383.2188 5842.6021 735.7309 0.193 -0.979 -0.072 28 13 10
-2318.3970 5897.1597 673.5623 -0.060 -0.702 0.710 68 12 13
-1901.3978 5982.7036 321.7070 0.202 -0.705 0.680 31 24 18
-1572.0548 5550.6592 134.3072 0.368 -0.359 -0.858 59 47 47
-1418.2921 6413.8198 -146.0644 0.375 -0.560 0.739 182 141 117
-1406.9640 6406.5024 -153.8764 0.373 -0.781 0.502 195 148 126
-1394.4526 6392.9897 -161.5209 0.371 -0.783 0.500 217 164 144
-1376.5200 6718.5220 -234.9489 0.671 0.030 0.741 194 96 79
-1307.6930 6561.1401 -261.9599 0.644 0.035 0.764 202 68 61
-140.5924 4360.5781 -804.7844 0.062 -0.568 -0.821 255 161 157
-121.9703 3770.0984 -712.8526 0.860 -0.164 0.482 254 136 141
-4514.0176 5173.7725 2557.9912 -0.515 -0.847 0.129 215 202 180
-4447.4038 5126.0220 2513.1001 -0.520 -0.847 0.112 145 117 100
-3911.9546 5798.2920 1958.5421 0.693 -0.690 0.210 104 66 43
-3910.3555 5816.4155 1953.9298 0.713 -0.668 0.212 107 71 47
-3896.0903 5814.7300 1942.7500 0.707 -0.676 0.206 110 74 50
-3910.1038 5857.5781 1946.1769 0.791 -0.602 -0.104 112 76 52
-3912.9746 5883.0601 1943.8148 0.790 -0.611 -0.063 115 78 53
-3933.5295 5936.7588 1950.5197 0.805 -0.569 0.169 110 70 40
-3915.9177 5929.9917 1937.5765 0.797 -0.563 0.220 107 66 34
-3914.6021 5949.1924 1932.9950 0.826 -0.563 0.028 114 71 37
-3908.2307 5960.3794 1925.8115 0.837 -0.547 -0.019 118 75 40
-3901.4680 5970.9780 1918.4209 0.837 -0.547 -0.019 123 80 46
-3896.1755 5983.9888 1911.7719 0.751 -0.488 -0.445 120 77 45
-3357.2258 6035.4131 1468.2748 0.556 -0.519 -0.649 99 68 40
-3103.9026 5733.4863 1319.6324 0.043 -0.999 0.026 39 25 14
-2739.1785 6044.8267 968.7792 0.520 -0.198 0.831 33 26 20
-2612.1558 5984.9512 877.4592 0.068 -0.894 -0.443 136 106 104
-2608.8638 6004.3516 871.2493 -0.060 -0.883 -0.465 136 107 104
-2582.1086 5993.5586 851.6807 -0.036 -0.895 -0.445 104 81 73
-2549.9929 5996.8003 825.2203 -0.321 -0.921 0.221 87 65 54
-2517.5171 5970.7339 803.8461 -0.307 -0.894 0.326 76 53 45
-2503.4946 5963.0952 793.9537 -0.197 -0.902 0.385 69 50 42
-2443.7932 5893.9438 758.5549 -0.114 -0.906 0.408 51 33 29
-2420.1008 5860.5366 745.6012 0.128 -0.992 -0.014 46 28 24
-2402.9966 5843.9438 734.8691 0.200 -0.977 -0.073 30 12 8
-2393.3018 5846.5537 726.5824 0.200 -0.977 -0.073 30 12 10
-2335.5046 5891.4912 671.7905 0.001 -0.873 0.488 79 26 22
-2311.0305 5882.7188 653.6883 -0.063 -0.706 0.705 94 19 22
-2246.0544 5761.8286 623.5319 -0.718 -0.673 -0.178 115 15 30
-1892.7959 5925.7725 308.9492 -0.495 -0.849 0.185 25 18 12
-1581.3724 5593.6089 119.0600 0.876 -0.295 0.383 61 49 48
-1620.0156 6088.9980 59.3148 0.509 -0.652 -0.562 120 76 66
-1581.5919 6010.2021 42.8221 0.908 -0.400 -0.121 148 80 76
-1420.1506 6383.0581 -155.5932 0.324 -0.619 0.715 215 175 150
-1275.2560 6444.2705 -283.5179 0.662 0.041 0.749 191 51 46
-36.3450 2936.2849 -637.8624 -0.486 -0.826 -0.287 255 93 118
-4568.5337 5209.8984 2577.4912 -0.515 -0.847 0.129 229 220 196
-4321.5356 4992.7285 2419.2002 -0.503 -0.785 0.362 145 108 92
-3989.1501 5902.1616 1983.0045 -0.604 -0.785 -0.141 105 67 41
-3907.7791 5816.6997 1933.4419 0.135 -0.978 0.159 127 91 65
-3919.5061 5855.8687 1935.5974 0.792 -0.603 -0.095 134 98 72
-3919.1936 5876.2803 1931.5553 0.790 -0.611 -0.063 144 105 79
-3920.9468 5900.0674 1928.5472 0.808 -0.564 0.173 137 96 66
-3903.0334 5892.7393 1915.5032 0.806 -0.464 0.369 131 89 57
-3909.9290 5924.8750 1915.0797 0.419 -0.877 0.234 130 87 53
-3900.2400 5952.0156 1902.2477 0.813 -0.573 -0.101 124 81 47
-3893.5845 5962.7549 1894.9010 0.813 -0.573 -0.101 106 63 29
-3893.8523 5984.7261 1891.0355 0.807 -0.581 -0.106 99 56 22
-3378.4846 6009.5884 1471.9816 0.759 -0.429 -0.491 112 76 46
-3355.2205 5989.2505 1457.0507 0.792 -0.418 -0.445 105 72 44
-3364.3250 6030.0176 1456.8005 0.563 -0.520 -0.642 99 68 40
-3379.6985 6082.9771 1459.3274 0.105 -0.625 -0.773 92 60 35
-3286.4897 5976.1113 1404.2207 -0.420 -0.666 -0.616 88 58 30
-3146.3503 6188.0337 1252.1671 0.509 -0.684 0.522 29 21 12
-2730.4243 6002.7954 952.1008 0.500 -0.226 0.836 24 17 10
-2660.9946 5999.6875 896.8456 0.514 -0.250 0.820 153 122 120
-2420.0032 5893.8057 722.7158 0.110 -0.778 -0.619 33 11 6
-2386.4412 5834.0825 706.8187 0.097 -0.995 -0.011 34 11 6
-2305.5864 5873.5063 634.4767 -0.056 -0.707 0.705 117 24 29
-1655.7241 5852.8184 115.7276 0.599 -0.533 0.597 61 49 48
-1660.9119 5910.2163 109.2391 0.784 -0.152 0.601 69 52 50
-1653.2185 5917.7808 101.6475 0.752 -0.200 0.628 70 51 48
-1636.4437 6083.6343 57.3546 0.404 -0.670 -0.622 118 87 81
-1633.2321 6110.6162 49.7606 0.419 -0.662 -0.622 143 88 77
-1565.3567 6240.6851 -28.9790 0.840 -0.112 -0.531 127 47 56
-1445.2277 6322.2598 -140.7321 0.195 -0.479 0.856 130 102 75
-1434.8436 6367.4170 -157.4695 0.386 -0.781 0.491 187 151 125
-1424.3243 6364.0718 -165.3073 0.325 -0.821 0.470 169 129 104
-1350.7538 6492.2559 -248.2767 0.664 0.027 0.748 124 27 11
-1302.8558 6392.0508 -268.1835 0.593 0.013 0.805 201 60 56
-119.1926 3378.4883 -660.3373 -0.299 -0.946 -0.123 251 102 124
-39.2653 2942.3101 -643.6018 -0.464 -0.774 -0.431 255 93 118
114.0428 4553.8872 -1066.1975 0.990 -0.117 -0.080 236 108 118
-4340.1211 5002.8223 2415.2512 -0.503 -0.785 0.362 132 109 90
-3150.0969 6175.4082 1239.2767 0.509 -0.684 0.522 49 36 26
-3115.4280 6231.6816 1200.8594 0.040 -0.498 -0.866 37 23 13
-2750.7639 6002.2397 951.2021 0.482 -0.351 0.803 25 15 7
-2496.7827 5929.1323 761.0203 0.556 -0.583 0.592 119 95 74
-2470.7927 5974.8237 731.5613 0.567 -0.560 0.604 65 23 6
-2455.8308 6079.7490 699.8193 0.849 0.126 0.513 79 10 2
-2379.7136 5935.2998 665.8630 0.984 -0.120 -0.131 87 11 3
-2346.7036 5904.2441 645.1978 -0.401 -0.824 -0.401 102 18 9
-2311.6951 5895.9058 618.6562 -0.681 -0.639 -0.357 137 26 40
-2278.0527 5861.4951 598.1141 -0.672 -0.646 -0.363 140 23 42
-1781.5396 5723.8477 225.3323 -0.469 -0.883 0.010 42 35 29
-1714.8080 5655.4131 184.6192 0.208 -0.978 -0.011 42 32 30
-1607.1008 5530.8530 121.5587 0.123 -0.846 -0.518 55 44 42
-1599.4607 5536.3472 114.3913 0.123 -0.846 -0.518 59 48 44
-1587.1326 5523.9067 106.8318 0.080 -0.983 -0.168 68 53 51
-1649.5818 5836.0396 98.2853 0.820 -0.104 0.563 77 53 49
-1562.6643 5752.5742 44.1905 -0.028 -0.739 0.673 149 112 104
-1544.7167 6244.9443 -62.7976 -0.049 -0.643 0.764 160 118 100
-1444.6750 6328.4507 -158.8247 0.828 -0.228 0.512 182 136 112
-1440.9579 6358.1479 -167.3931 0.386 -0.781 0.491 191 144 121
-145.5327 3983.7375 -761.0755 -0.207 -0.637 -0.743 254 151 156
-4491.2651 5140.6230 2493.1794 -0.523 -0.794 0.311 157 140 124
-3377.0911 5993.1099 1437.7072 0.793 -0.416 -0.445 116 85 57
-3449.0151 6200.3232 1455.9309 0.112 -0.638 -0.762 98 68 44
-3164.0715 6158.5728 1235.4397 0.090 -0.677 0.731 63 49 38
-3137.0696 6128.1460 1219.5833 0.090 -0.627 -0.774 64 50 39
-3129.9006 6241.4731 1192.2673 0.044 -0.494 -0.868 37 23 12
-3125.7793 6285.1406 1180.6523 -0.183 -0.692 0.699 39 25 16
-2793.8616 6054.0249 958.5427 0.823 -0.544 0.161 29 19 10
-2747.5295 5973.5278 936.7191 0.482 -0.351 0.803 27 17 8
-2478.4773 6028.9087 710.4815 0.706 0.092 0.703 90 34 23
-2379.0146 5910.3779 653.3020 0.983 -0.133 -0.123 94 17 5
-2377.5598 5935.1934 647.4127 0.984 -0.135 -0.115 98 20 8
-2299.2664 5867.5405 597.5212 -0.672 -0.647 -0.361 107 16 23
-1616.6799 5539.1870 112.7895 0.109 -0.847 -0.520 45 34 30
-1607.9332 5540.5532 105.5173 0.123 -0.846 -0.518 51 40 36
-1651.9962 5815.5820 88.4982 0.831 -0.101 0.547 87 60 56
-1584.3531 5734.7461 49.6541 -0.040 -0.743 0.669 141 112 107
-1572.0385 5722.6543 42.0829 -0.042 -0.744 0.667 154 121 114
-1651.3282 6241.3862 6.9229 0.569 -0.714 -0.408 197 107 104
-1634.8114 6214.2949 -1.1625 0.537 -0.697 -0.476 195 95 95
-1597.3696 6181.8794 -25.0099 -0.418 -0.866 -0.275 245 136 139
-1549.8126 6232.0547 -72.6855 -0.027 -0.639 0.769 199 161 138
-1528.4536 6224.5127 -88.3735 0.005 -0.534 0.846 117 84 59
-1503.6584 6245.4438 -112.2353 0.888 0.009 0.459 207 158 139
-1428.6272 6354.9131 -193.2216 0.016 -0.796 0.605 240 156 145
-1300.1367 6240.8975 -274.5319 0.612 0.010 0.791 204 85 83
-155.0584 3998.8301 -765.8185 -0.211 -0.624 -0.752 255 152 161
-126.3406 3371.2935 -669.4074 -0.323 -0.885 -0.336 252 76 112
-121.7519 3301.5918 -659.8204 -0.475 -0.633 -0.612 254 66 109
-4568.3496 5203.9004 2525.1782 -0.523 -0.794 0.311 200 184 168
-3926.0295 5796.2964 1896.9189 0.181 -0.861 0.475 170 126 99
-3390.0771 5998.8232 1428.8994 0.791 -0.411 -0.454 116 85 57
-3171.0857 5931.7207 1266.5305 0.927 -0.356 -0.119 33 19 8
-3165.1648 6165.9487 1216.6743 0.384 -0.739 0.554 66 52 41
-2127.7820 6455.5889 330.4994 -0.263 -0.884 -0.386 52 41 35
-2031.5254 6210.3306 300.6911 -0.406 -0.838 0.365 29 18 12
-2013.1462 6184.3237 290.9888 -0.365 -0.848 0.385 19 10 3
-1812.0182 5775.7710 208.6886 -0.290 -0.945 -0.154 40 33 27
-1693.8496 5592.6411 149.3736 -0.546 -0.837 0.048 42 32 30
-1663.6642 5516.6650 139.8458 0.229 -0.847 -0.480 44 33 31
-1654.8324 5517.8306 132.5519 0.202 -0.943 -0.264 48 37 33
-1649.6031 5532.2119 125.5960 0.200 -0.937 -0.286 51 37 34
-1652.7506 5752.7822 85.6292 -0.234 -0.899 0.370 74 56 51
-1652.5153 5788.0234 78.6527 0.798 -0.145 0.585 100 72 67
-1642.7678 5786.9150 71.0638 0.806 -0.137 0.576 115 84 79
-1652.3695 6212.2437 -3.1769 0.527 -0.731 -0.433 185 115 105
-1615.7012 6183.7427 -27.0386 -0.382 -0.864 -0.330 223 120 121
-1588.6010 6194.4639 -50.7963 0.527 -0.757 -0.386 231 170 152
-1578.1060 6191.7119 -58.6672 0.553 -0.753 -0.358 221 164 145
-1558.1283 6233.4229 -82.6928 0.031 -0.604 0.797 244 201 177
-1453.0326 6339.0825 -187.1699 0.199 -0.668 0.717 239 117 119
-1440.5548 6326.2407 -194.6843 0.226 -0.718 0.658 232 112 113
-1428.8516 6316.9248 -202.2579 0.046 -0.312 0.949 227 105 107
-1351.6487 6319.8008 -264.6097 0.150 -0.439 0.886 222 94 99
-320.7065 4071.5540 -656.7836 0.961 -0.258 0.101 252 33 76
-249.9122 3904.6365 -681.3002 0.888 -0.369 0.273 251 23 72
-210.6519 3594.4980 -652.9880 0.952 -0.173 0.253 253 150 156
-174.4215 4326.3101 -822.9500 -0.000 -0.779 -0.627 255 159 160
-56.9769 3368.8076 -732.5266 0.709 -0.202 -0.676 253 70 101
-48.4457 2943.6167 -657.4555 -0.519 -0.755 -0.400 255 104 125
-3732.3425 5954.0742 1693.0425 0.837 -0.084 0.541 126 84 59
-3389.0137 5955.1172 1418.4407 0.687 -0.660 -0.305 125 88 55
-3381.1714 5963.6787 1410.5043 0.670 -0.679 -0.302 116 85 57
