ply
format ascii 1.0
element vertex 799
property float x
property float y
property float z
property float nx
property float ny
property float nz
property uchar diffuse_red
property uchar diffuse_green
property uchar diffuse_blue
end_header
-4305.6382 2638.2754 1579.9384 0.831 -0.549 0.089 123 106 82
-4341.2197 2670.1931 1589.9923 0.705 -0.464 0.536 124 107 82
-4268.4033 2765.9946 1537.9579 0.962 0.225 0.153 110 105 98
-4222.8389 2791.5208 1512.1184 -0.330 -0.944 0.002 46 65 66
-3627.3708 2660.8191 1265.0864 0.521 0.551 -0.652 122 173 198
-3491.0449 2641.8850 1206.3855 0.683 0.538 -0.493 84 36 24
-3520.3875 2683.4810 1211.6942 0.698 0.545 -0.465 69 44 37
-3754.3086 2910.7383 1274.3896 0.950 0.164 -0.267 78 138 177
-2955.7334 2584.0239 972.6653 0.526 0.434 -0.731 106 71 54
-2970.3357 2605.8008 975.0969 0.526 0.434 -0.731 94 59 41
-2845.5564 2963.6509 848.1129 0.997 0.039 0.073 181 94 42
-2371.6833 3034.9683 617.2913 0.973 0.180 0.144 147 91 48
-2457.7568 3207.8601 622.9304 0.637 -0.327 0.698 120 85 74
-2320.3979 3139.2983 573.4467 0.649 -0.439 0.621 126 101 61
-2300.9309 3156.8113 561.1169 1.000 0.010 0.028 153 117 82
-2321.4871 3206.2949 560.8639 0.919 0.394 0.028 136 84 52
-2252.4707 3452.8120 481.1412 -0.049 -0.192 -0.980 20 19 16
-2255.9915 3470.0649 479.3840 0.464 -0.821 0.332 21 19 15
-2895.4885 5077.5215 458.2283 -0.410 -0.829 -0.380 189 148 134
-2127.7173 4535.5674 212.6292 0.374 -0.080 -0.924 158 113 92
-2639.1372 5728.3164 213.8240 0.982 -0.187 0.036 143 97 73
-2431.9062 5483.9077 166.6937 0.963 0.269 -0.008 130 86 59
-2238.7522 5636.7925 48.4339 -0.596 -0.427 -0.680 66 51 30
-2115.9819 5435.8091 31.4832 0.309 0.006 -0.951 149 128 109
-2154.0425 5574.4946 21.8251 0.131 -0.073 -0.989 165 142 126
-1940.3632 5148.7607 7.1476 0.183 -0.955 0.232 159 140 132
-1924.8176 5148.0166 0.1775 0.284 -0.936 0.209 227 208 202
-4362.6396 2604.8406 1601.7457 0.267 -0.963 0.020 57 44 27
-4351.4819 2608.9175 1595.8567 0.256 -0.966 0.020 57 40 22
-4300.8892 2631.9802 1568.2542 0.843 -0.532 0.074 125 107 85
-4240.6777 2799.2261 1507.9281 -0.363 -0.920 -0.148 25 42 42
-4241.1226 2843.5557 1499.4183 0.692 -0.376 -0.617 124 151 174
-3638.5896 2665.1003 1259.7448 0.521 0.551 -0.652 122 174 199
-3517.5537 2677.5901 1202.0991 0.699 0.541 -0.467 68 44 36
-3780.6885 2937.4053 1271.0211 0.622 -0.011 -0.783 110 166 202
-3779.4973 2969.4138 1264.1870 0.767 -0.326 -0.554 78 97 106
-3857.9827 3097.5630 1274.7888 0.072 0.104 -0.992 186 153 136
-2865.4541 2530.8503 933.5904 0.997 0.020 0.072 91 54 38
-2877.5415 2729.3555 900.0879 0.694 -0.713 -0.101 71 45 27
-2844.7605 2958.0969 840.1833 0.997 0.039 0.073 180 94 43
-2707.7446 2970.7856 775.2120 -0.246 -0.443 -0.862 182 89 38
-2274.5081 2888.8403 593.7672 0.848 -0.504 0.162 177 106 56
-2318.2158 3130.7444 566.1535 0.741 -0.367 0.562 121 96 61
-2300.1685 3160.8918 551.9990 0.880 0.454 -0.144 137 92 63
-2315.9146 3192.9392 552.8803 0.854 0.475 -0.211 117 66 37
-2244.6274 3446.3113 470.5766 0.183 -0.943 0.279 20 19 15
-2129.2754 4462.9297 218.1711 0.798 -0.527 0.294 165 120 99
-2162.5198 4647.9106 196.9740 0.559 -0.296 -0.774 154 108 84
-1952.5397 5206.5586 -8.5710 0.416 0.047 -0.908 227 208 202
-1976.7495 5290.3711 -14.0042 0.093 -0.141 -0.986 220 201 194
-1782.6340 4893.2671 -24.4714 -0.025 -0.726 -0.687 209 198 196
-1960.6523 5478.5146 -58.3221 0.799 -0.454 0.395 223 213 212
-4361.4072 2506.8677 1609.7765 0.620 -0.520 0.587 38 28 16
-4307.9263 2507.6792 1585.3214 0.733 0.119 -0.670 47 34 18
-4375.4351 2587.7576 1600.1469 0.894 -0.106 0.434 39 26 10
-4376.5835 2598.9622 1598.4519 0.890 -0.142 0.433 41 28 12
-4358.7310 2599.1812 1590.2987 0.092 -0.978 -0.189 40 27 11
-4289.6836 2664.2100 1546.0685 0.386 -0.671 0.633 92 83 64
-3481.5571 2627.4912 1186.2273 0.689 0.538 -0.486 85 36 26
-3858.1497 3104.6416 1262.9084 -0.546 -0.829 -0.122 182 150 135
-3842.4727 3172.8782 1242.2880 0.271 -0.930 0.248 186 151 132
-2921.7590 2765.8733 904.5541 0.765 -0.607 0.215 56 37 19
-2754.2114 2763.2551 828.9608 0.720 -0.582 0.378 42 21 7
-2804.9026 3027.1018 799.7925 -0.522 -0.621 -0.585 178 93 39
-2375.8652 3092.6331 591.9313 0.505 -0.667 0.549 54 29 15
-2369.9524 3095.7593 588.6270 0.758 -0.368 0.538 69 44 29
-2264.9976 3458.1416 469.2610 -0.383 -0.907 0.178 19 19 17
-2242.3542 3436.2446 463.3067 -0.373 -0.926 0.049 20 21 16
-2410.1233 5429.1167 145.2783 0.989 0.146 0.002 137 93 68
-2304.8848 5748.2749 34.3344 -0.633 -0.496 -0.595 93 76 56
-2180.0701 5567.9111 13.3157 0.346 0.043 -0.937 152 129 113
-1960.2559 5192.4775 -12.2684 0.388 0.039 -0.921 194 175 169
-1983.5819 5273.4434 -17.6892 0.392 0.050 -0.919 223 204 197
-1994.7924 5323.2505 -22.4498 0.111 -0.166 -0.980 218 199 192
-1897.2450 5187.1880 -39.8457 -0.154 -0.915 -0.372 206 192 192
-1886.9305 5179.6943 -43.0488 -0.160 -0.908 -0.387 214 202 202
-1923.2677 5360.8853 -62.3862 0.997 0.074 -0.003 223 213 212
-4352.4761 2550.3579 1586.4325 0.746 0.421 -0.516 46 33 17
-4375.9307 2595.2095 1588.1165 0.886 -0.134 0.444 46 33 17
-4365.9502 2599.9810 1582.6498 0.092 -0.978 -0.189 47 33 17
-4367.3672 2611.3584 1581.0258 0.238 -0.971 -0.013 53 36 17
-4260.1836 2632.3613 1528.3379 0.133 -0.828 0.545 129 116 94
-4277.4121 2760.5691 1510.6075 0.957 0.253 0.141 32 28 19
-4280.1797 2773.1951 1509.3461 0.958 0.250 0.141 28 24 15
-4274.2866 2780.3765 1505.2494 0.958 0.248 0.142 29 25 14
-3846.6018 2848.0745 1298.2214 0.938 -0.001 -0.347 78 39 23
-3774.0918 2934.9392 1248.1116 0.924 0.272 -0.270 133 180 208
-3893.3220 3116.2324 1265.9723 0.148 0.007 -0.989 168 135 118
-3747.9753 3080.8669 1207.2372 0.859 -0.218 0.464 175 140 121
-3744.0791 3089.0266 1203.8494 0.859 -0.218 0.464 175 140 121
-2824.7759 2470.7634 910.9199 0.932 -0.065 0.355 94 59 40
-2872.4414 2668.5222 893.1156 0.558 -0.590 0.583 53 34 18
-2895.6040 2727.9026 891.7748 0.497 -0.832 0.245 53 39 23
-2874.0308 2717.7625 884.0308 0.536 -0.778 0.326 52 37 22
-2805.6609 2692.7568 858.0688 0.979 0.156 0.128 45 28 20
-2805.9443 2702.5520 856.2468 0.902 -0.096 0.420 48 31 23
-2477.7307 2821.5522 684.0198 0.819 0.346 -0.457 165 83 33
-2372.3044 3082.6453 584.3235 0.525 -0.653 0.546 42 22 7
-2337.3904 3091.0657 566.8467 0.996 -0.077 0.034 109 88 74
-2319.7864 3413.2676 494.7270 0.650 -0.013 -0.760 30 10 3
-2574.7109 5490.4692 196.5059 0.681 0.236 -0.693 160 114 88
-2245.8467 5567.7847 32.2843 -0.455 -0.803 -0.386 100 85 66
-2252.9485 5606.2798 27.8336 -0.486 -0.778 -0.397 101 84 64
-2209.1157 5519.9390 25.1881 -0.513 -0.768 -0.384 101 84 64
-2014.8402 5361.1875 -31.1225 0.111 -0.166 -0.980 216 197 190
-1933.4220 5188.4531 -33.5755 0.935 -0.175 -0.309 189 170 163
-1902.4307 5166.6338 -43.2562 -0.371 -0.919 0.137 145 132 131
-1848.5386 5042.6172 -42.9524 0.838 -0.398 -0.374 175 163 163
-1849.3390 5064.4409 -46.9354 0.846 -0.401 -0.351 204 192 192
-1820.4016 5025.7920 -52.3357 0.228 -0.126 -0.965 175 164 162
-1809.5339 5015.9448 -55.2933 0.252 -0.226 -0.941 219 208 206
-1864.6715 5206.4263 -68.2672 0.994 0.109 0.008 237 227 226
-4355.2109 2559.0229 1575.2654 0.903 -0.072 0.424 83 70 54
-4352.9180 2589.0671 1568.2112 0.751 -0.426 0.504 102 88 72
-4337.8628 2601.3220 1558.9680 0.744 -0.434 0.508 110 92 69
-4311.7993 2638.6741 1539.7328 0.900 -0.371 0.230 107 89 64
-4272.2266 2636.1299 1522.4017 0.781 -0.491 0.385 125 111 89
-4295.3481 2746.4153 1510.7258 0.328 0.039 -0.944 38 31 21
-4324.7979 2808.6135 1511.5391 0.371 -0.029 -0.928 31 27 16
-4316.2837 2814.2422 1506.5728 0.033 -0.997 -0.076 33 26 18
-3839.0566 2838.6582 1286.5289 0.869 0.199 -0.453 78 39 23
-3936.5752 3145.4856 1269.0093 -0.079 -0.992 0.103 169 136 119
-3711.4346 3080.7029 1180.4894 0.934 -0.351 -0.067 156 121 102
-2859.4700 2633.9907 885.9090 0.804 -0.550 0.225 59 44 34
-2864.7437 2685.9780 877.8689 0.700 -0.549 0.457 45 34 24
-2830.6638 2673.8044 864.9439 0.793 -0.536 0.289 44 34 23
-2830.1360 2701.8396 859.0880 0.633 -0.696 0.338 39 22 14
-2824.5195 2706.1729 855.6876 0.630 -0.696 0.346 39 22 14
-2813.0679 2705.0439 850.7511 0.633 -0.695 0.341 46 28 20
-2748.8784 2730.1765 816.7758 0.986 -0.024 0.166 84 42 19
-2746.6846 2747.2732 812.3608 0.852 -0.341 0.398 101 53 29
-2309.2361 3391.7031 486.0072 0.777 -0.131 -0.615 31 4 0
-2326.1819 3463.3271 479.2944 0.932 -0.065 0.357 9 10 5
-2290.0823 3446.2700 466.4375 -0.029 -0.928 0.373 19 20 15
-2588.9729 5507.3828 188.1656 0.677 0.231 -0.698 161 115 91
-2208.5659 5546.1309 8.8998 0.822 -0.376 0.427 130 113 93
-2192.3967 5527.1714 5.4094 0.814 -0.403 0.419 146 129 109
-1982.1763 5161.4170 -16.0726 0.072 -0.202 -0.977 154 132 118
-1965.2980 5157.7104 -22.9393 -0.009 -0.460 -0.888 122 103 96
-1970.4535 5210.9175 -31.2771 0.193 -0.142 -0.971 189 172 164
-1937.2407 5204.4697 -44.9585 0.932 -0.184 -0.311 173 157 150
-1936.1990 5221.9092 -48.9229 -0.349 -0.911 0.218 197 184 179
-1849.6648 5031.7754 -49.8350 0.783 -0.514 -0.352 192 183 182
-1851.4883 5056.2534 -53.9180 0.853 -0.395 -0.342 200 189 188
-1817.9855 5024.9302 -62.7455 0.228 -0.260 -0.938 215 204 202
-1859.1968 5156.7212 -70.5753 0.894 -0.374 0.248 230 220 218
-1874.7808 5219.5093 -76.1315 0.989 -0.021 0.145 234 224 223
-4354.0610 2596.8574 1556.4595 0.875 -0.162 0.456 131 115 95
-4343.5557 2601.2539 1550.8545 0.874 -0.365 0.322 139 123 100
-4327.5127 2612.8916 1541.3022 0.772 -0.416 0.481 130 113 88
-4293.7710 2624.5022 1523.8066 0.749 -0.657 0.087 101 84 60
-4257.9253 2613.6323 1509.8994 0.709 -0.473 0.524 109 92 68
-4248.4355 2628.8796 1502.5624 0.804 0.016 -0.595 112 101 83
-4316.9653 2723.7185 1514.2151 0.402 0.059 -0.914 48 39 22
-4308.8125 2729.4919 1509.3893 0.375 0.056 -0.925 41 33 17
-4317.0063 2756.2310 1507.6771 0.302 0.017 -0.953 37 31 21
-4352.1587 2811.0889 1512.4017 -0.029 -0.197 -0.980 34 30 21
-4195.9390 2766.3704 1451.2578 0.500 -0.529 -0.686 17 23 14
-4122.4478 2837.4524 1403.9163 0.882 0.149 -0.447 17 46 69
-3526.0984 2648.9807 1174.0890 0.930 -0.137 0.341 87 38 27
-3521.0591 2655.1965 1170.5723 0.931 -0.131 0.342 81 40 27
-3529.6782 2671.4629 1171.1628 0.991 -0.120 -0.055 70 46 38
-3535.5037 2685.7412 1170.8999 0.988 -0.151 0.039 96 98 101
-3757.1270 2892.2214 1228.7964 0.697 0.054 -0.715 106 171 210
-3996.6758 3199.5403 1274.4081 -0.381 -0.901 0.208 164 132 117
-3687.2368 3112.7639 1152.9310 0.848 -0.529 0.024 177 142 122
-2746.9392 2389.0691 876.5643 -0.229 -0.954 0.195 131 94 76
-2739.1409 2391.0640 872.6596 -0.207 -0.960 0.190 94 57 39
-2876.3975 2598.4604 892.4802 0.796 -0.602 0.063 45 22 6
-2819.1362 2697.0103 846.8886 0.735 -0.517 0.440 38 24 15
-2777.7600 2696.2871 828.4512 0.870 -0.131 0.476 40 17 6
-2503.3484 2889.8806 666.1649 0.697 -0.659 0.283 173 99 48
-2375.4324 3065.1763 573.3633 0.561 -0.606 0.564 104 99 77
-2332.4209 3453.9036 475.6528 -0.345 -0.935 -0.084 9 10 5
-2318.8171 3446.0681 471.1232 0.948 -0.005 0.318 9 10 5
-2279.6714 3424.4302 457.9055 -0.345 -0.906 0.246 19 20 15
-2273.9832 3427.8625 454.6584 -0.352 -0.907 0.231 26 27 22
-2228.1619 5537.8447 8.5673 0.868 -0.319 0.379 103 84 62
-2207.3989 5507.9160 5.2777 0.967 0.199 0.160 110 94 71
-2210.1045 5535.4688 0.9365 0.965 0.214 0.150 129 112 90
-2216.5425 5593.5864 -7.8924 0.951 0.264 0.162 155 134 115
-1967.7361 5150.1699 -30.2155 0.127 -0.456 -0.881 155 134 127
-1978.1423 5216.7998 -38.9789 0.356 -0.134 -0.925 141 122 115
-1955.8165 5218.9673 -49.4431 0.531 -0.518 -0.671 145 125 118
-1897.7555 5186.0410 -68.8797 -0.016 -0.141 -0.990 134 125 120
-1890.5643 5186.9043 -72.2834 0.000 -0.121 -0.993 119 110 105
-4331.8408 2580.6196 1539.1270 0.859 -0.136 0.494 123 111 94
-4322.0322 2585.3582 1533.7766 0.725 -0.392 0.566 128 114 95
-4296.8584 2612.4141 1517.0226 0.853 -0.504 0.138 121 106 86
-4281.2485 2613.6367 1509.7904 0.856 -0.476 0.203 110 96 75
-4252.0806 2606.7278 1498.1423 0.793 -0.017 -0.609 119 104 84
-4254.1353 2618.3909 1496.6947 0.788 -0.023 -0.616 127 119 100
-4283.7104 2646.6311 1504.1960 0.543 0.083 -0.835 111 104 88
-4287.4800 2659.4697 1503.2770 0.545 0.078 -0.835 72 66 52
-4302.5674 2689.8767 1503.8567 0.696 -0.587 0.414 37 29 15
-4358.8374 2756.6882 1515.4740 0.965 -0.240 0.105 33 27 14
-4350.7266 2773.5085 1508.4315 0.963 -0.245 0.112 36 33 23
-3612.0989 2618.0286 1209.5098 0.628 -0.556 -0.545 113 171 203
-3532.3440 2669.6738 1163.3451 0.979 -0.147 0.141 70 46 38
-3770.6763 2898.2771 1223.5861 0.689 0.064 -0.722 109 170 208
-3705.3328 3100.4744 1153.3160 0.952 -0.287 -0.104 144 109 90
-2818.6804 2664.0867 845.1732 0.568 -0.722 0.395 40 22 13
-2515.9717 2899.2148 662.0187 0.930 -0.352 -0.104 173 99 48
-2370.2566 3053.2910 565.5548 0.685 -0.444 0.577 71 59 34
-2360.8247 3051.8936 561.6183 0.692 -0.431 0.578 107 98 75
-2340.3003 3036.4377 555.5721 0.993 0.062 0.096 110 102 82
-2380.4497 3261.0503 527.9523 0.761 0.553 -0.339 103 50 22
-2326.7014 3415.5818 472.5436 0.834 0.327 -0.445 31 7 0
-2342.7639 3450.4197 472.6601 0.857 0.316 -0.407 14 7 3
-2316.3569 3447.7988 461.3771 -0.039 -0.998 0.052 9 10 5
-2252.5444 3389.8457 444.5874 -0.348 -0.913 0.213 27 28 23
-2202.7771 3480.4580 403.9316 -0.309 -0.913 -0.265 80 74 63
-2193.4983 3490.1377 397.8157 -0.135 -0.871 -0.472 180 166 156
-2707.5684 5770.2666 165.0870 0.538 0.188 -0.822 158 112 89
-2752.4956 5885.8662 161.7282 0.406 0.101 -0.908 153 107 84
-2832.4041 6098.3516 154.3585 0.409 0.122 -0.904 153 107 84
-2893.3484 6273.2173 146.1386 0.330 0.070 -0.941 155 109 85
-2199.4199 5494.8550 -6.3752 0.965 0.212 0.153 135 113 92
-1978.5167 5164.0366 -38.0745 0.414 -0.163 -0.895 174 149 144
-2004.6591 5291.5312 -52.2519 0.349 -0.186 -0.919 178 154 149
-1976.8514 5259.7900 -58.2519 0.057 -0.575 -0.816 145 122 116
-1900.3552 5198.9043 -80.1214 -0.007 -0.157 -0.988 93 84 77
-4320.1021 2560.1167 1527.4740 0.783 -0.240 0.573 131 119 103
-4291.4092 2574.5732 1511.7328 0.778 -0.258 0.573 120 110 92
-4282.7378 2579.8750 1506.7853 0.780 -0.253 0.572 118 108 89
-4265.4229 2621.7114 1490.5242 0.792 0.012 -0.610 67 61 46
-4273.6260 2637.1094 1491.0360 0.790 0.036 -0.612 50 46 32
-4327.5039 2690.7803 1504.0896 0.375 0.034 -0.927 36 33 22
-4323.1782 2698.8594 1500.5118 0.595 0.037 -0.803 39 35 23
-3726.4631 2715.2622 1231.1982 -0.446 -0.843 -0.299 101 129 140
-3537.2222 2669.5132 1156.1936 0.990 -0.144 -0.002 67 43 34
-3778.1763 2899.7903 1216.5641 0.689 0.064 -0.722 111 158 201
-3676.2573 2951.3298 1160.6123 0.854 -0.049 0.518 153 124 108
-3592.9153 2971.6921 1119.3075 0.981 0.154 0.119 153 120 101
-2805.4302 2619.9578 840.1441 0.302 -0.087 -0.949 29 16 5
-2812.4048 2635.5852 840.0615 0.660 -0.573 0.485 34 18 6
-2759.7266 2642.9827 815.0714 0.790 -0.423 0.443 94 46 24
-2348.1519 3030.6018 552.4695 0.742 -0.292 0.604 69 49 25
-2337.7747 3027.9028 548.3954 0.994 0.057 0.098 77 61 40
-2343.7510 3077.2554 540.9807 0.601 -0.799 0.007 63 54 45
-2303.3030 3410.6157 454.8755 0.992 0.119 0.048 9 10 5
-2268.3655 3489.4888 423.1962 0.694 0.455 -0.558 14 14 12
-2199.5586 5501.6973 -18.3943 0.887 -0.217 0.407 151 126 106
-1999.9464 5165.4526 -38.6981 0.413 0.050 -0.909 160 130 119
-1995.4718 5193.6006 -46.4407 0.444 -0.146 -0.884 187 159 155
-1981.5386 5257.8145 -65.7643 -0.172 -0.447 -0.878 177 151 144
-1898.0525 5178.4673 -86.7713 -0.155 -0.339 -0.928 93 84 77
-4268.8726 2620.3440 1481.8094 0.812 0.013 -0.583 38 35 25
-4279.7554 2637.3315 1483.1509 0.813 0.009 -0.582 34 34 23
-4330.4771 2689.0447 1495.0457 0.568 0.160 -0.807 34 34 26
-3615.5947 2899.6895 1134.3447 0.927 0.164 0.337 147 120 103
-2807.9763 2609.0540 835.4738 0.599 -0.724 0.344 36 14 0
-2805.1011 2615.6914 832.8333 0.597 -0.703 0.387 46 18 0
-2795.5562 2616.2756 828.4751 0.775 -0.522 0.357 56 23 2
-2746.0159 2626.2046 804.4384 0.889 -0.276 0.367 132 62 28
-2499.6812 2871.3794 644.6830 0.908 -0.000 0.419 170 96 47
-2494.6604 2875.6379 641.5786 0.921 0.037 0.388 170 96 47
-2175.5803 2742.5364 527.2537 0.820 0.567 -0.079 173 103 51
-2218.6831 2804.8516 533.5870 0.821 0.566 -0.077 167 97 45
-2330.8911 3003.6323 542.5621 0.898 -0.008 0.440 65 35 8
-2329.8821 3012.6443 540.2623 0.968 0.240 -0.074 62 37 12
-2330.7212 3024.0161 538.2980 0.970 0.235 -0.062 64 44 32
-2354.6765 3085.7485 536.2494 0.447 -0.739 -0.504 114 108 100
-2343.8276 3082.4182 532.1168 0.310 -0.949 0.064 99 92 89
-2284.3862 3089.5679 504.2549 0.748 0.166 -0.642 88 80 72
-2305.3298 3127.8196 505.6939 0.874 0.336 -0.351 109 100 88
-2248.1152 3245.8672 456.0329 0.599 -0.799 -0.060 167 82 30
-2208.1299 3511.1589 383.7653 -0.157 -0.875 -0.457 186 176 167
-2918.2556 6250.7710 136.1193 0.412 0.132 -0.902 162 117 96
-2231.1062 5564.7812 -28.0224 -0.559 -0.632 -0.537 153 126 107
-4350.2236 2686.7380 1493.5530 0.983 -0.041 -0.177 34 35 27
-3529.1147 2636.4104 1140.7704 0.610 0.404 -0.682 86 39 14
-3541.0137 2664.8284 1140.1578 0.639 0.445 -0.628 63 42 35
-3779.4500 2892.5669 1198.5359 0.406 0.284 -0.869 118 151 193
-3590.5737 2876.0115 1118.4160 0.939 0.164 0.302 141 114 97
-3422.5745 2898.6956 1039.4176 0.240 -0.935 -0.261 158 125 108
-3530.9558 3020.6504 1062.1416 0.785 -0.463 -0.412 158 125 108
-2797.9854 2605.3025 823.8132 0.512 -0.827 0.230 65 36 6
-2788.2725 2605.7048 819.4340 0.555 -0.792 0.253 76 41 8
-2780.3462 2607.6970 815.5162 0.527 -0.786 0.324 87 44 10
-2727.8521 2605.3503 792.7825 0.662 -0.620 0.421 142 67 28
-2737.8606 2633.0671 791.4788 0.743 -0.661 0.106 143 67 27
-2462.1233 2776.6060 639.8391 0.933 0.209 0.292 155 81 34
-2470.9819 2815.1975 635.7785 0.936 0.308 0.170 150 76 29
-2155.6506 2713.4478 517.3402 0.820 0.565 -0.096 173 102 50
-2338.0559 3007.3391 537.2574 0.900 0.059 0.432 67 34 9
-2330.5569 3008.2036 533.7617 0.971 0.234 -0.056 64 37 11
-2331.4446 3019.6104 531.7960 0.990 0.021 0.136 50 28 14
-2355.7939 3081.7161 529.7255 0.445 -0.730 -0.518 81 73 65
-2344.4919 3077.8079 525.5345 0.289 -0.954 0.084 112 104 101
-2289.5637 3090.8262 498.5474 0.748 0.166 -0.642 50 42 35
-2279.3865 3386.4509 432.9243 0.986 0.005 0.168 8 7 3
-2230.1438 3337.8552 421.1909 -0.072 -0.903 0.423 18 17 13
-2286.6406 3515.4485 409.4621 0.797 0.474 -0.374 12 14 13
-2202.0952 3506.9746 373.8185 -0.181 -0.534 -0.826 197 171 163
-2196.2495 3509.9443 370.6188 -0.181 -0.534 -0.826 192 162 151
-2271.3538 5017.4971 92.1461 0.381 -0.595 -0.708 149 104 83
-2277.2957 5067.2207 84.4937 -0.253 -0.481 -0.840 139 99 73
-2244.6479 5541.6465 -28.0362 -0.335 -0.569 -0.751 128 101 80
-2243.9641 5560.8608 -32.3113 -0.435 -0.637 -0.637 141 114 93
-1994.3136 5282.9194 -85.2697 -0.327 -0.399 -0.857 191 166 161
-1974.0275 5270.5010 -91.6750 0.288 -0.150 -0.946 153 136 129
-4254.7085 2563.7678 1466.3329 0.789 -0.248 0.562 59 57 44
-4252.8818 2572.9829 1463.6111 0.987 0.161 0.020 32 30 17
-4285.4731 2612.9546 1469.6565 0.927 0.365 -0.084 23 20 6
-4291.7661 2627.1431 1469.4778 0.928 0.363 -0.083 25 24 13
-4267.8125 2623.3066 1459.7213 0.853 0.479 -0.208 33 35 24
-4079.4741 2897.9800 1319.5984 -0.462 -0.687 -0.561 9 22 29
-4063.6697 2897.9863 1312.6333 -0.537 -0.762 -0.363 16 31 36
-3998.0586 2863.1807 1290.9641 -0.542 -0.791 -0.283 6 34 44
-3527.2188 2641.1865 1129.6824 0.416 0.364 -0.833 79 41 22
-3558.9517 3039.5361 1060.7998 0.960 -0.276 0.039 159 126 109
-2820.3230 2612.2908 824.2214 0.071 -0.157 -0.985 79 48 22
-2819.6746 2620.9463 822.1352 0.146 -0.158 -0.977 88 52 20
-2804.1790 2616.1746 816.3002 0.294 -0.031 -0.955 97 58 21
-2776.4246 2600.1829 807.3977 0.536 -0.799 0.273 107 61 21
-2451.7302 2760.6777 630.9449 0.941 0.222 0.256 155 81 36
-2466.3787 2805.4636 628.0829 0.936 0.308 0.170 151 77 32
-2476.9419 2826.8323 628.2923 0.932 0.324 0.163 168 94 47
-2314.5134 2993.0029 522.1563 0.669 -0.538 0.512 59 41 23
-2293.2002 3027.4854 505.5923 0.615 -0.281 -0.737 158 149 142
-2286.3281 3070.5532 493.6054 0.229 -0.168 -0.959 23 16 10
-2288.5315 3083.9314 491.7933 0.230 -0.171 -0.958 19 13 7
-2303.0398 3113.5688 492.0207 0.570 -0.059 -0.819 41 37 27
-2268.8169 3207.6240 457.3761 0.776 -0.626 0.076 174 88 37
-2233.3052 3336.1416 414.9947 -0.475 -0.877 -0.075 20 19 15
-2264.7273 3475.8623 399.7753 0.781 0.461 -0.421 11 13 12
-2208.9221 3522.7839 365.4258 -0.177 -0.536 -0.826 192 164 151
-2197.2197 3528.7517 359.0281 -0.184 -0.537 -0.823 173 141 128
-2024.5317 5326.6880 -91.0683 -0.324 -0.423 -0.846 194 165 161
-2004.8887 5316.5107 -97.6064 -0.311 -0.403 -0.860 192 167 163
-1990.5065 5299.3628 -100.3762 0.293 -0.148 -0.945 185 162 157
-1932.0911 5206.4131 -106.7798 0.971 0.230 0.065 178 158 152
-1939.4650 5246.0991 -111.7863 0.968 0.243 0.054 157 135 130
-4021.4373 2789.5752 1306.3081 -0.295 -0.698 -0.652 17 21 19
-4203.1953 2945.8259 1353.3859 -0.395 -0.429 -0.812 13 19 20
-4130.7822 2907.3562 1329.6530 -0.179 -0.412 -0.893 12 18 20
-3529.7649 2639.3638 1121.9365 0.354 0.347 -0.869 80 40 18
-3556.6028 2668.7788 1127.5603 0.367 0.344 -0.864 66 41 31
-3566.1631 2848.8049 1094.0800 0.950 0.163 0.268 130 103 86
-3500.5300 3051.5505 1022.8405 0.605 -0.424 -0.674 143 110 93
-2779.4414 2608.1580 799.1299 0.850 -0.430 0.304 136 68 33
-2314.0942 2987.2334 515.5421 0.669 -0.538 0.512 53 33 16
-2293.2468 3011.9092 501.2273 0.735 -0.237 -0.636 57 48 43
-2297.8809 3028.1304 499.8665 0.661 -0.253 -0.707 147 138 133
-2296.8018 3089.2463 486.6022 0.212 -0.171 -0.962 32 25 19
-2243.3306 3367.3582 404.9279 0.982 -0.041 0.182 24 24 22
-2216.2009 3539.3284 357.0295 -0.163 -0.513 -0.843 176 146 135
-2301.8262 5096.3091 68.7620 -0.232 -0.234 -0.944 147 107 81
-1956.2649 4964.1123 -55.2477 0.532 0.141 -0.835 163 131 118
-2032.3873 5232.1807 -77.9379 0.408 0.023 -0.913 190 161 157
-2021.8746 5346.3555 -106.4471 -0.314 -0.738 -0.598 180 150 148
-2006.6797 5327.2700 -109.1224 0.283 -0.154 -0.947 178 149 146
-1923.9619 5151.0425 -108.5478 0.640 -0.768 0.020 178 148 146
-3559.0459 2656.9517 1121.8064 0.367 0.344 -0.864 81 40 15
-2777.7815 2611.8740 789.6983 0.825 0.220 -0.520 146 72 33
-2844.4126 2691.5620 802.0541 -0.312 -0.261 -0.913 158 84 44
-2846.2527 2702.7310 800.5071 -0.352 -0.276 -0.894 159 86 48
-2850.0134 2715.7188 799.4169 -0.400 -0.307 -0.864 159 86 48
-2447.6250 2756.6089 614.8679 -0.067 -0.812 0.580 136 59 13
-2316.5203 2974.9070 511.5822 0.538 -0.671 0.510 56 29 10
-2317.0476 2985.7131 509.5376 0.481 -0.729 0.487 50 29 13
-2286.5789 2987.9038 495.7543 0.840 -0.541 -0.026 51 40 38
-2295.0288 3008.8706 495.0345 0.712 -0.222 -0.666 46 36 32
-2299.8591 3025.3125 493.6847 0.717 -0.125 -0.686 80 70 66
-2310.5271 3091.1338 484.4908 0.171 -0.129 -0.977 149 140 135
-2308.8999 3099.5464 482.0081 0.284 -0.329 -0.901 77 68 62
-2287.0715 3355.4453 418.5856 0.947 -0.085 0.310 8 7 3
-2338.8994 3464.9343 418.1944 0.923 -0.234 -0.305 11 10 6
-2230.0515 3341.5793 396.5737 0.965 -0.240 0.104 20 20 18
-2470.5752 5088.9971 133.8296 -0.004 -0.815 -0.580 170 124 108
-2459.7205 5085.2119 129.8802 0.045 -0.839 -0.543 170 124 108
-2296.8333 4788.6050 121.1089 -0.284 -0.834 -0.473 174 129 108
-2346.6821 5162.6353 64.1544 -0.043 -0.111 -0.993 157 115 90
-2440.8960 5565.8022 20.4636 -0.212 -0.864 -0.456 136 101 73
-1920.2427 5127.4248 -114.8879 0.104 -0.993 0.054 182 147 147
-1916.7793 5138.0234 -118.6337 0.857 -0.058 -0.513 180 146 145
-3749.8750 2699.1912 1186.6918 0.137 -0.933 -0.331 27 20 3
-3585.6858 2672.5752 1120.8160 0.384 0.358 -0.851 79 40 17
-3866.9753 2985.0410 1177.1509 0.645 0.082 -0.760 118 115 99
-3883.1135 3041.6357 1172.1930 0.967 -0.118 0.226 135 108 89
-2451.6936 2756.5459 609.1169 -0.033 -0.799 0.601 134 60 13
-2318.7708 2982.6584 503.3303 0.899 -0.032 0.437 48 30 13
-2313.2288 2985.8594 500.2386 0.769 -0.471 0.431 49 36 22
-2293.5779 2991.5369 490.4771 0.860 -0.489 -0.145 37 31 25
-2323.8291 3092.3967 482.2906 0.246 -0.014 -0.969 74 66 59
-2317.2122 3094.3267 478.9997 0.312 -0.179 -0.933 56 48 41
-2318.1472 3106.0886 476.9158 0.288 -0.339 -0.896 54 47 37
-2262.9163 3360.1914 399.0396 0.551 -0.807 0.213 10 9 5
-2281.2671 3433.3254 391.5423 0.853 0.348 -0.389 24 26 25
-2227.5759 3494.9297 355.1089 0.889 -0.311 0.335 38 34 31
-2351.5962 4701.2939 153.6133 0.914 0.393 -0.103 181 136 120
-2562.6194 5225.7114 134.4510 0.059 -0.447 -0.892 174 128 112
-2558.8833 5236.8994 130.4541 0.065 -0.450 -0.890 176 130 115
-2503.9729 5144.8042 126.0440 -0.127 -0.862 -0.490 176 130 115
-2475.1038 5104.7480 121.9539 0.046 -0.831 -0.555 176 130 114
-2202.2239 4735.1353 81.3859 0.594 -0.644 -0.483 165 120 100
-2359.1084 5158.4185 60.0642 -0.070 -0.184 -0.980 166 123 102
-2504.1104 5610.9663 27.3687 -0.298 -0.899 -0.321 154 114 88
-2085.3071 5337.7896 -97.1824 0.176 -0.864 -0.472 190 161 155
-1921.0107 5135.2832 -125.8503 0.764 -0.085 -0.639 182 146 146
-1921.2560 5155.6543 -130.0583 0.835 -0.072 -0.546 181 143 142
-1924.3994 5183.7930 -134.6490 0.777 0.011 -0.629 190 150 151
-1937.4014 5238.2563 -140.5216 0.749 0.099 -0.655 209 174 176
-1949.3557 5290.3027 -146.3384 0.739 0.117 -0.664 222 201 202
-3791.2664 2714.2170 1191.8074 0.820 -0.185 -0.542 28 20 5
-3772.4192 2711.2600 1184.2603 0.795 -0.577 -0.188 30 18 3
-3735.5149 2726.0112 1165.1057 0.768 -0.641 -0.003 70 38 25
-3659.7102 2742.7473 1128.6504 0.381 0.367 -0.848 93 91 97
-3862.8135 2955.8254 1171.3723 0.734 0.098 -0.672 11 25 21
-3868.6772 2971.1445 1170.6526 0.635 0.063 -0.770 88 94 83
-3864.1570 2978.7202 1167.0771 0.997 -0.059 -0.059 118 115 96
-3866.1624 2991.2241 1165.2832 0.825 0.217 -0.521 108 97 72
-3893.3289 3033.9604 1167.9646 0.951 -0.216 0.222 135 109 87
-2229.7444 2751.7461 506.3130 0.264 -0.960 0.091 172 101 50
-2221.2678 2750.9192 502.8115 0.267 -0.928 0.260 171 102 48
-2292.6536 2944.8284 492.4691 0.931 0.181 0.316 52 29 13
-2294.2412 2956.8408 490.5986 0.931 0.179 0.319 51 35 21
-2306.6606 3013.0837 484.0038 0.641 -0.058 -0.765 61 48 39
-2327.4919 3102.1743 474.0602 0.312 -0.179 -0.933 78 62 52
-2327.0701 3112.1841 471.7445 0.288 -0.339 -0.896 97 81 68
-2333.4565 3131.1257 470.4796 0.245 -0.351 -0.904 100 82 65
-2231.8909 3494.7581 348.9374 0.890 -0.317 0.329 34 35 35
-2596.8379 5244.7637 134.4190 0.295 -0.046 -0.954 171 128 112
-2581.1008 5232.1279 130.2833 0.326 -0.207 -0.922 171 128 112
-2575.8445 5240.3042 126.2608 0.059 -0.447 -0.892 173 130 114
-2473.2681 5570.1499 11.4786 -0.026 -0.723 -0.691 150 114 90
-2475.6401 5595.8076 7.0411 -0.051 -0.730 -0.681 145 109 86
-2459.5552 5580.4160 3.3417 -0.103 -0.730 -0.675 144 109 86
-2424.0127 5521.2769 0.5211 -0.116 -0.340 -0.933 145 110 88
-2236.8037 5412.0674 -57.4351 0.934 0.345 -0.087 147 120 99
-2217.3591 5385.8394 -60.2833 0.936 0.337 -0.099 150 123 102
-1936.5822 5201.9077 -142.9156 0.802 0.079 -0.593 188 149 149
-1937.3538 5264.2754 -155.8690 0.974 0.194 0.114 218 203 204
-3726.2305 2665.2700 1164.4777 -0.332 -0.391 -0.859 31 21 11
-3696.3367 2684.4275 1147.4520 -0.234 -0.228 -0.945 67 38 22
-3632.4480 2688.9656 1118.8673 0.823 0.366 -0.435 85 38 14
-3869.4753 2956.6458 1163.9404 0.716 0.074 -0.694 47 46 39
-3874.0640 2971.0024 1162.8468 0.684 -0.008 -0.729 106 100 91
-3853.1538 2977.2119 1152.4788 0.867 0.156 -0.474 120 96 86
-2761.5371 2686.6917 742.9547 0.198 -0.782 0.591 172 83 37
-2447.9614 2752.8972 593.2411 -0.087 -0.818 0.568 117 49 8
-2414.8330 2735.3352 582.6871 -0.667 -0.738 -0.105 133 64 22
-2102.4094 2516.6963 494.5181 -0.361 -0.248 -0.899 169 98 47
-2301.9460 2961.3340 485.4633 0.925 0.207 0.319 51 20 11
-2314.7576 3018.0737 478.8401 0.903 0.216 0.372 68 40 32
-2325.5916 3094.2104 467.2051 0.923 -0.383 0.024 118 86 76
-2322.5684 3100.8018 464.4860 0.915 -0.402 0.029 111 76 63
-2283.0974 3423.0278 378.3689 0.855 0.335 -0.396 16 18 17
-2238.3030 3497.7856 342.9874 0.904 -0.334 0.267 30 36 37
-2618.4751 5275.8027 126.2377 0.270 -0.105 -0.957 173 131 115
-2591.6284 5241.2402 122.0420 0.309 -0.233 -0.922 174 131 115
-2588.4133 5253.5205 118.0207 -0.044 -0.497 -0.867 175 132 116
-2482.1843 5059.5742 113.6751 -0.128 -0.839 -0.528 181 138 122
-1917.3411 5257.1406 -172.7867 0.649 -0.723 0.238 235 218 224
-3644.3660 2693.8245 1113.5544 0.668 -0.395 0.631 84 38 15
-3637.2051 2698.6829 1109.4242 0.676 -0.394 0.623 78 39 20
-3631.9834 2704.9338 1105.8287 0.798 -0.288 0.530 74 43 28
-3823.6467 2875.6016 1151.5521 0.813 0.481 -0.328 73 62 58
-3875.3730 2956.8950 1156.2969 0.710 0.067 -0.701 76 63 57
-3856.4109 2975.4780 1144.1274 0.668 0.251 -0.700 125 91 88
-3862.1926 2990.8003 1143.3137 0.972 0.076 -0.223 127 91 86
-2210.5940 2728.7649 488.7622 -0.170 -0.421 -0.891 172 105 54
-2320.1421 3029.8682 471.0161 0.795 -0.353 0.494 90 48 37
-2327.1819 3101.2917 458.6502 0.918 -0.395 -0.031 108 60 38
-2315.2432 3096.2791 454.5910 0.599 -0.452 0.661 125 68 37
-2642.8848 5350.0830 109.7982 0.322 -0.946 -0.032 179 137 121
-2258.8789 5357.2329 -57.0634 0.833 -0.419 0.361 130 100 76
-2248.0500 5351.7251 -60.5381 0.925 -0.282 0.255 132 104 80
-2250.8145 5378.0337 -65.0193 0.958 -0.105 0.268 136 110 87
-2251.3137 5399.1489 -69.3561 0.962 0.254 -0.099 143 117 94
-3641.0054 2687.6995 1104.0361 0.668 -0.397 0.630 81 39 15
-3825.5701 2873.0139 1143.0057 0.813 0.481 -0.328 38 18 11
-3841.2749 2895.1941 1144.9315 0.850 0.452 -0.269 24 14 5
-3876.7529 2964.6907 1145.0780 0.978 -0.180 -0.102 110 84 77
-3864.5166 2977.3921 1137.0767 0.668 0.251 -0.700 113 77 72
-3631.3428 2833.1833 1068.3490 0.567 -0.568 -0.597 122 88 68
-3552.0068 2844.5791 1031.8556 0.340 -0.872 -0.351 149 120 98
-2756.9741 2484.5376 768.9758 -0.124 -0.874 -0.470 137 104 92
-2268.9321 2619.3655 530.4500 0.418 -0.005 -0.909 150 84 42
-2228.6716 2690.4651 497.7690 -0.250 -0.213 -0.945 149 85 44
-2227.7549 2698.5278 495.6277 -0.273 -0.252 -0.929 149 85 44
-2220.5474 2699.1907 492.3931 -0.283 -0.260 -0.923 149 85 43
-2214.2642 2728.5212 483.3392 -0.153 -0.492 -0.857 153 89 42
-2316.5164 3040.4961 459.5475 0.747 -0.338 0.573 102 53 35
-2521.6973 3607.5176 424.5974 0.235 0.155 -0.959 7 6 6
-2131.3459 3378.9170 306.7632 0.863 0.493 -0.111 33 26 28
-2642.0044 5336.2788 101.3642 0.292 -0.955 -0.042 183 141 127
-2622.5959 5316.5947 97.3089 0.428 -0.899 0.091 180 138 124
-1974.5054 4531.1631 -10.3239 0.446 0.008 -0.895 149 117 96
-2260.1904 5426.5459 -81.9451 -0.272 -0.542 -0.795 149 122 101
-2261.2280 5469.3682 -90.7846 -0.171 -0.985 0.006 151 124 103
-3838.4055 2889.0669 1135.0740 0.848 0.454 -0.274 33 15 4
-3874.6174 2948.0811 1137.6738 0.991 0.026 -0.130 102 78 64
-3872.8701 2968.5566 1132.4624 0.970 0.072 -0.231 104 66 57
-3879.2649 2984.2839 1131.7645 0.797 0.170 -0.580 105 65 55
-3712.7483 2880.4006 1083.2867 0.369 -0.900 -0.231 109 71 53
-3655.2195 2847.3167 1065.9264 0.692 -0.444 -0.569 111 76 56
-2724.7104 2676.6926 705.6467 0.768 -0.320 0.555 167 85 38
-2720.4075 2681.8760 702.6783 0.768 -0.320 0.555 167 85 38
-2718.8501 2689.6960 700.3076 0.767 -0.323 0.554 167 85 38
-2659.6455 2909.2808 627.1334 0.585 -0.804 0.107 148 77 35
-2293.7151 2706.3672 515.0667 -0.328 -0.250 -0.911 118 57 16
-2285.6367 2706.2834 511.6342 -0.305 -0.240 -0.922 118 57 16
-2282.9431 2712.3757 509.1550 -0.305 -0.240 -0.922 118 57 16
-2280.5935 2718.8745 506.7342 -0.298 -0.238 -0.925 119 58 17
-2274.2947 2720.7966 503.6243 -0.319 -0.290 -0.902 119 58 21
-2269.3706 2724.3003 500.7569 -0.319 -0.290 -0.902 119 58 21
-2241.1960 2774.7886 477.7118 -0.131 -0.332 -0.934 122 61 19
-2329.3892 3051.5818 455.0264 0.794 -0.301 0.528 127 66 39
-2321.5681 3062.2695 449.3548 0.794 -0.301 0.528 129 70 40
-2205.2820 3301.7356 347.4615 0.950 -0.305 -0.059 19 21 20
-2194.4824 3457.9771 308.7773 0.646 -0.755 -0.113 33 33 34
-2639.3545 5319.0317 92.9828 0.259 -0.819 -0.512 189 147 131
-2537.7349 5154.1299 85.5331 0.227 -0.884 -0.409 185 143 127
-2287.2808 5053.7075 0.4449 0.084 -0.827 -0.556 162 121 103
-3990.4199 3063.3809 1151.5907 0.964 0.111 -0.243 106 58 44
-3692.0969 2860.7739 1069.0868 0.448 -0.807 -0.385 102 64 43
-3672.7607 2856.6099 1061.7723 0.410 -0.799 -0.441 101 67 45
-3660.1985 2857.5156 1056.2285 0.407 -0.827 -0.388 102 70 47
-3673.9668 2878.4771 1057.4899 0.741 -0.337 -0.581 104 72 49
-3698.3093 2928.9109 1056.7870 0.290 0.068 -0.955 139 107 84
-3132.5103 2824.2327 838.9940 0.586 0.550 -0.595 129 102 96
-3147.2793 2857.2676 838.0334 0.463 0.570 -0.679 132 105 100
-2651.3418 2895.7756 618.5646 0.687 -0.635 -0.354 145 74 32
-2596.9805 2847.7197 605.9728 0.937 -0.342 0.073 136 72 33
-2587.3369 2847.1497 601.9944 0.795 -0.594 0.119 129 67 30
-2507.0974 2808.7898 576.2649 -0.665 -0.742 -0.087 110 48 11
-2459.5657 2766.4326 565.3293 -0.663 -0.745 -0.079 106 46 11
-2312.0979 2695.3169 518.1776 -0.250 -0.303 -0.920 102 47 12
-2344.3921 2769.2097 515.7134 -0.306 -0.241 -0.921 102 48 12
-2254.0330 2785.4856 473.6957 0.433 -0.198 -0.879 104 50 14
-2251.3408 2791.6826 471.1911 0.436 -0.192 -0.879 105 50 14
-2251.5303 2849.1458 458.6694 0.859 0.501 -0.106 115 58 29
-2269.0630 2890.1914 457.1279 0.853 0.469 -0.230 118 58 27
-2341.9587 3093.4771 443.5627 0.775 -0.280 0.566 155 84 47
-2337.9436 3098.7764 440.6921 0.775 -0.280 0.566 158 84 43
-2234.8218 3384.2104 334.2146 -0.002 -0.990 0.142 5 9 10
-2221.8721 3481.4561 307.3774 0.918 -0.306 0.252 27 37 30
-2198.6719 3457.7285 302.7093 0.648 -0.760 -0.054 31 34 32
-2385.2046 5086.2988 24.9171 -0.013 -0.995 0.103 184 142 128
-2204.7371 5024.2939 -38.2741 -0.304 -0.247 -0.920 156 124 103
-3679.0061 2857.3303 1054.6575 0.410 -0.799 -0.441 98 65 42
-3664.8818 2857.0610 1048.7303 0.409 -0.780 -0.474 96 65 42
-3146.8901 2832.6482 834.5689 0.625 0.512 -0.590 119 100 93
-3175.4746 2867.7839 838.9348 0.590 0.518 -0.619 118 99 92
-3197.6394 2897.4644 841.7830 0.553 0.555 -0.622 117 98 91
-3302.0710 3021.3726 858.7171 0.480 0.569 -0.668 96 79 71
-3365.6260 3088.9155 870.7573 0.481 0.568 -0.668 86 73 64
-2585.0593 2830.4482 596.9276 0.927 -0.337 -0.163 135 72 32
-2294.4224 2634.9009 516.8724 0.494 -0.055 -0.867 96 46 19
-2295.2859 2644.8240 515.0498 0.557 0.130 -0.820 96 46 19
-2249.4800 2682.9963 487.2165 0.992 -0.063 -0.112 98 50 23
-2252.3010 2695.3701 485.6830 0.992 -0.064 -0.106 98 49 24
-2256.2563 2709.1187 484.3272 0.983 0.034 -0.180 98 50 24
-2256.9475 2719.1104 482.4164 0.983 0.034 -0.180 98 49 24
-2272.5532 2793.4941 472.6251 0.487 -0.356 -0.798 99 52 17
-2271.2864 2801.4380 470.3361 0.555 -0.246 -0.795 99 52 19
-2265.3738 2803.8154 467.3057 0.566 -0.252 -0.785 99 52 20
-2249.9517 2804.1606 460.6931 0.765 -0.557 -0.322 100 53 18
-2245.5381 2808.2896 457.9118 0.746 -0.569 -0.346 101 52 20
-2238.5996 2809.3345 454.7406 0.709 -0.603 -0.365 107 57 27
-2259.5137 2873.4067 449.4734 0.824 0.484 -0.294 130 66 30
-2275.2930 2902.7056 449.6995 0.838 0.471 -0.277 136 69 30
-2291.6465 2932.8865 449.9742 0.833 0.474 -0.285 140 68 28
-2161.8289 3237.1265 327.8510 0.723 0.452 -0.522 24 26 25
-2203.4258 3458.3457 296.6908 0.758 -0.575 0.307 32 35 32
-2326.2595 5004.8433 7.6672 -0.219 -0.172 -0.961 183 141 125
-2351.9363 5150.8252 -13.6469 -0.269 -0.905 -0.331 178 137 119
-2080.6138 5269.3594 -154.7875 0.450 -0.872 -0.194 183 153 145
-3268.6558 2893.8188 863.7262 -0.519 -0.583 -0.625 128 96 82
-3329.0264 3040.8740 856.5974 0.456 0.557 -0.694 62 51 41
-3388.1548 3104.4373 867.4623 0.479 0.565 -0.672 48 40 30
-3432.2690 3154.9414 874.8849 0.549 0.590 -0.592 37 51 37
-3467.9590 3198.1765 880.3631 0.610 0.511 -0.606 36 51 37
-2268.9954 2899.6768 440.3909 0.851 0.465 -0.244 159 79 33
-2283.6951 2987.7043 427.0728 0.667 -0.545 -0.509 172 80 27
-2230.5889 3376.6516 318.3862 0.053 -0.949 0.311 10 14 15
-2347.9321 4949.6421 19.0458 -0.292 -0.672 -0.681 185 143 128
-2333.2529 5210.1426 -44.9290 -0.294 -0.305 -0.906 170 137 117
-2301.4719 5177.7710 -51.1665 -0.263 -0.226 -0.938 169 137 116
-2035.8628 5301.7168 -190.7917 0.948 0.078 0.310 188 156 154
-2035.9225 5321.9307 -195.2498 0.948 0.074 0.311 191 157 156
-3651.6218 2696.7739 1059.7750 0.937 0.102 0.334 86 46 30
-3521.3708 3074.2981 920.8014 0.652 -0.750 -0.112 125 97 85
-3473.8218 3044.5742 907.4354 0.987 -0.135 0.083 125 97 86
-3330.6174 3037.7588 848.7350 0.481 0.569 -0.667 44 36 27
-2396.7275 3333.2136 390.1181 0.913 -0.229 0.339 43 20 4
-2360.2686 3294.8555 383.3414 0.822 -0.495 0.281 35 16 3
-2209.5300 3350.5786 307.5245 0.033 -0.953 -0.302 11 12 16
-2354.0996 4933.4287 15.2916 0.814 -0.560 -0.155 188 149 136
-2130.2273 5266.0488 -153.0367 0.494 -0.852 0.175 145 119 104
-2066.8625 5131.2471 -149.6177 0.299 0.028 -0.954 142 116 102
-2013.7823 5311.1318 -212.0592 -0.116 -0.283 -0.952 155 127 122
-3215.9727 2870.2434 829.0744 -0.325 -0.293 -0.899 95 85 77
-3242.4082 2934.2280 825.7975 0.480 0.510 -0.714 35 27 18
-2401.4080 2667.2283 533.4105 0.252 -0.842 0.477 108 49 9
-2286.2263 3000.6628 410.3857 -0.300 -0.237 -0.924 163 84 40
-2188.2170 3473.7354 263.2373 0.855 0.505 -0.120 66 62 58
-2046.2438 4761.2539 -84.9810 0.828 0.228 -0.513 163 130 116
-2122.3926 5253.1772 -163.4080 0.104 -0.058 -0.993 140 114 101
-2118.9360 5303.5742 -176.1584 0.290 -0.106 -0.951 158 129 123
-2135.5117 5404.4463 -191.8377 0.902 0.214 -0.374 186 159 150
-3356.9119 2627.5967 933.7984 0.030 -0.810 -0.586 101 61 36
-3457.0793 2968.3135 898.7571 0.426 -0.896 -0.127 119 96 83
-3417.2336 2987.4434 877.8190 0.590 0.066 -0.804 106 85 88
-3229.2573 2908.0752 817.2903 -0.107 -0.208 -0.972 19 13 8
-3262.6504 2968.4712 817.6029 0.554 0.586 -0.591 30 27 21
-2359.1584 3162.0959 396.9900 0.096 0.021 -0.995 83 24 6
-2370.0300 3187.0122 395.9070 0.084 0.004 -0.996 68 17 1
-2373.8149 3279.1799 376.7020 0.433 -0.860 -0.269 50 22 10
-2348.0217 3255.3845 371.3067 0.301 -0.806 -0.510 35 20 11
-2357.1255 3278.7212 369.8423 0.269 -0.799 -0.537 26 17 8
-2239.0188 3381.4224 297.4071 0.801 -0.571 -0.181 9 13 16
-2150.1912 3408.2402 254.2995 0.810 0.477 -0.341 48 48 42
-2059.1670 4727.3267 -81.1351 0.866 -0.458 0.202 173 139 127
-2147.4634 5379.9482 -191.4646 0.259 -0.099 -0.961 158 131 122
-1532.7385 3925.0486 -119.8527 0.129 -0.854 -0.505 186 157 149
-2009.0624 5231.4126 -215.7123 0.777 0.145 -0.613 178 149 143
-3419.8269 2932.8804 882.0125 0.441 -0.817 -0.371 119 95 83
-3406.0601 2931.7568 876.5461 0.479 -0.839 -0.256 118 95 87
-3387.0269 2926.1460 869.9088 0.612 -0.755 -0.236 113 96 97
-3230.3359 2914.9448 807.3331 -0.053 -0.561 -0.826 20 15 9
-3250.7217 2974.2751 802.3524 0.786 0.520 -0.333 39 46 40
-2292.8057 2928.8218 414.5812 0.035 -0.982 0.187 184 84 26
-2286.2715 2930.5430 411.4756 0.034 -0.983 0.182 185 85 27
-2373.8406 3273.3386 370.1426 0.456 -0.854 -0.251 51 22 10
-2343.3069 3243.1807 364.2918 0.266 -0.722 -0.639 35 19 12
-2357.3835 3273.1758 363.3406 0.680 -0.729 0.073 26 16 10
-2354.1382 3279.8064 360.4885 0.937 -0.296 -0.184 19 10 5
-2133.4893 3375.9053 247.0055 0.807 0.478 -0.347 29 30 24
-2064.1460 4727.1250 -88.1796 0.975 -0.199 -0.102 179 145 133
-2052.3652 4717.7256 -90.9441 0.818 0.100 -0.566 177 143 131
-2026.4130 5281.7773 -229.6191 0.776 0.141 -0.615 185 156 150
-3781.9683 2816.3870 1049.2903 0.806 -0.150 0.572 102 57 33
-3432.2163 3002.0522 862.1960 0.329 -0.009 -0.944 51 40 42
-3155.7905 2865.2227 778.9701 0.817 -0.558 0.150 38 33 27
-3289.3589 3132.6174 773.3004 -0.285 -0.958 0.021 94 74 67
-3198.6868 3101.6729 742.8235 -0.598 -0.542 -0.590 129 84 67
-2738.1694 2693.8364 645.1785 -0.584 -0.512 -0.630 94 49 32
-2317.2471 2944.1953 413.8775 -0.015 -0.936 0.352 177 85 33
-2356.5430 3277.1714 354.2362 0.954 -0.266 -0.138 18 9 4
-2139.8489 3356.4360 246.4727 0.855 -0.474 -0.211 34 39 43
-2119.9375 3348.5483 240.0291 0.785 0.470 -0.405 23 24 18
-2047.1967 4711.7700 -100.8455 0.712 0.083 -0.697 179 145 133
-2057.8369 5288.3569 -227.8824 -0.063 -0.160 -0.985 186 157 151
-3934.7502 2785.7200 1109.6963 0.913 0.272 -0.305 32 17 10
-3971.8301 2821.7883 1116.7168 0.914 0.285 -0.289 47 28 15
-3774.4744 2807.0986 1038.7184 0.782 -0.286 0.554 103 58 34
-3252.2871 2977.2385 784.4380 0.702 0.516 -0.491 40 49 41
-3286.4041 3114.3130 767.0873 0.821 -0.475 -0.317 74 55 48
-3376.7253 3242.5305 774.9384 -0.579 -0.631 -0.517 117 75 73
-2618.5415 2882.7485 544.8156 0.321 -0.859 0.399 112 50 11
-2267.0725 2838.8655 409.9706 0.806 0.287 -0.518 155 85 44
-2377.1277 3266.0557 357.4356 0.888 -0.458 -0.026 51 22 10
-2110.7559 3328.0156 233.4159 0.772 0.468 -0.429 29 30 23
-2009.2196 4614.9536 -103.4003 0.787 0.168 -0.594 183 149 137
-2091.9143 5360.4243 -240.1627 -0.286 -0.357 -0.889 187 158 152
-3838.5750 2797.5916 1057.6609 0.933 -0.203 0.298 78 33 10
-3512.4951 2923.6321 894.7187 0.959 -0.256 -0.117 127 98 81
-3378.4304 2824.9314 862.4090 0.363 -0.093 -0.927 116 95 80
-3462.3357 3018.9226 852.1649 0.338 0.033 -0.941 28 34 30
-3301.7551 2923.2529 808.2684 0.387 -0.833 0.394 39 37 31
-3286.6143 3109.8206 759.0627 0.864 -0.430 -0.261 100 75 71
-2462.6704 2729.8711 508.2675 0.496 -0.665 0.558 97 41 7
-2265.8489 2832.5662 403.7827 0.888 0.340 -0.311 155 85 47
-2291.7366 2892.9946 400.4894 0.785 0.343 -0.516 180 91 40
-2310.0115 2925.2266 400.5670 0.996 0.087 0.016 185 94 42
-2305.9045 2929.9824 397.7847 0.762 -0.275 -0.586 182 93 40
-2382.5771 3267.5237 351.4943 0.911 -0.413 0.020 51 22 10
-2250.7773 3317.0984 285.9495 0.791 0.453 -0.410 21 21 21
-2190.3115 3455.3367 229.2677 0.743 0.472 -0.473 97 88 78
-1913.5691 4436.9219 -110.5463 0.362 0.072 -0.929 190 156 144
-2087.8469 5356.3232 -250.8265 -0.054 -0.247 -0.968 185 156 150
-3900.9578 2755.0005 1083.3953 0.984 -0.034 -0.173 31 17 9
-3911.7893 2772.7566 1083.7123 0.988 0.001 -0.154 47 27 14
-3926.0737 2792.9888 1084.8680 0.989 0.026 -0.144 57 32 13
-3950.4976 2820.3738 1088.5139 0.523 -0.509 -0.684 61 31 10
-3503.7881 2912.4097 884.4907 0.960 -0.197 -0.198 121 91 74
-3427.7839 2995.7390 834.1027 0.634 -0.656 -0.410 26 36 28
-3426.4570 3005.1709 831.3751 0.972 -0.113 0.205 26 36 28
-3150.5850 2828.1421 759.5502 0.086 -0.950 -0.302 21 16 10
-3133.4001 2822.9822 753.7168 0.090 -0.914 -0.396 44 39 33
-3286.1990 3019.5828 770.6712 0.682 0.181 -0.709 19 29 22
-2302.5181 2901.2837 395.7484 0.983 0.185 0.011 189 99 51
-2485.5615 3387.7920 357.9187 0.749 -0.623 0.225 54 23 5
-2395.6716 3279.1912 346.3099 0.297 -0.774 -0.559 51 22 10
-2454.4912 3368.9980 349.5644 0.608 -0.506 -0.611 32 17 9
-2376.7351 3275.8174 339.3465 0.460 -0.878 -0.133 23 13 7
-2189.0879 3446.8411 222.9830 0.732 0.467 -0.496 91 82 75
-2098.1826 5368.4653 -259.3209 -0.147 -0.263 -0.954 172 143 137
-3907.5151 2786.7246 1069.0007 0.960 -0.206 0.190 60 31 11
-3810.1865 2863.0020 1011.5903 -0.527 -0.773 -0.353 103 55 35
-3492.6943 3035.8955 841.9949 0.236 -0.030 -0.971 23 38 28
-3270.7581 2980.4458 764.4976 0.705 0.510 -0.493 29 34 24
-3289.9006 3125.0955 738.6125 0.006 -1.000 -0.031 124 72 74
-3299.6338 3144.9856 737.9459 0.057 -0.998 0.037 125 71 74
-3321.3669 3176.1711 739.5374 0.161 -0.976 0.143 128 72 76
-2299.9744 2873.9246 393.8377 0.963 0.268 -0.004 165 90 50
-2887.0251 3772.7458 423.6831 0.779 0.546 -0.307 56 23 14
-2383.0002 3278.3865 333.4768 0.406 -0.794 -0.453 23 13 6
-2190.9458 3443.1035 216.8844 0.729 0.470 -0.497 88 79 76
-3914.9470 2788.1292 1061.9771 0.873 -0.384 0.300 60 33 14
-3525.4631 2921.6296 872.7003 0.977 -0.126 -0.174 113 82 63
-3439.3701 2975.8596 825.0752 0.741 -0.592 -0.316 15 31 21
-3165.1289 2802.9639 754.2770 -0.536 -0.759 -0.371 39 31 20
-3172.7439 2819.3792 753.5243 -0.401 -0.778 -0.484 31 23 13
-3333.3442 3160.6006 738.8129 0.865 -0.483 0.138 124 71 69
-3321.3525 3160.4216 733.9894 0.132 -0.982 0.134 124 70 70
-3297.1851 3148.8486 726.8928 0.126 -0.984 0.124 126 71 72
-2633.7312 2654.9402 573.3195 -0.285 -0.173 -0.943 136 97 86
-2391.8774 3284.4443 327.8378 0.267 -0.619 -0.739 21 13 6
-2387.6626 3289.7983 324.8744 0.267 -0.619 -0.739 14 7 1
-2187.8801 3431.8457 210.5655 0.734 0.471 -0.489 89 79 80
-3874.4248 2665.3899 1064.7750 0.904 0.182 -0.388 23 15 3
-3910.7488 2781.4756 1052.1394 0.881 -0.377 0.286 57 34 17
-3762.8403 2820.5986 983.1632 0.481 -0.524 0.703 107 57 45
-3471.8962 2864.0801 855.3598 0.937 -0.068 -0.343 111 76 57
-3573.8545 3030.8367 857.3250 0.205 0.351 -0.914 16 29 9
-3180.9722 2812.5198 749.9271 -0.503 -0.801 -0.324 40 30 16
-3191.2510 2831.2544 749.6728 -0.451 -0.702 -0.552 32 23 9
-3166.6174 2819.8220 742.4081 -0.448 -0.700 -0.556 28 18 6
-3294.8047 3013.8706 748.5510 0.964 0.146 -0.221 59 34 21
-3299.9463 3082.0164 734.5945 0.585 0.151 -0.797 117 68 63
-3304.5381 3096.9138 732.9447 0.591 0.149 -0.793 118 68 63
-3319.0403 3153.5288 725.4840 0.196 -0.965 0.177 124 71 68
-3297.6274 3144.5222 718.9501 0.144 -0.980 0.140 123 70 67
-3272.9473 3132.3560 711.8394 0.948 -0.194 -0.252 115 64 64
-3262.1030 3133.0232 707.3000 0.909 -0.283 -0.306 116 65 65
-3192.6799 3142.7888 676.9479 0.534 0.200 -0.821 128 88 81
-2729.3528 3406.8618 427.5793 0.209 -0.022 -0.978 184 120 84
-2456.1257 3330.8828 335.0438 0.785 -0.364 0.502 52 23 6
-2449.0083 3343.7727 329.1346 0.862 -0.294 0.413 29 16 11
-2253.5525 3296.7092 261.2234 0.790 0.462 -0.404 12 12 12
-2247.6936 3400.4636 234.4429 0.178 -0.864 0.470 25 29 31
-2265.7546 5476.3550 -246.7038 0.615 0.137 -0.777 206 171 165
-3875.1375 2732.7605 1039.6541 0.678 -0.455 -0.578 58 32 15
-3364.4641 2945.3767 783.8318 -0.525 -0.793 -0.309 28 33 23
-3219.4287 2841.4771 750.0308 -0.535 -0.806 -0.254 40 31 16
-3172.4036 2820.7219 736.0129 -0.332 -0.942 -0.043 30 18 6
-3160.1921 2819.9824 731.2728 -0.021 -0.951 -0.308 19 7 0
-3341.3647 3136.7527 729.2727 0.890 -0.438 0.130 107 59 53
-3324.5144 3142.9849 721.0168 0.174 -0.977 0.125 105 56 51
-3312.9487 3143.1580 716.3209 0.155 -0.980 0.124 106 56 52
-3295.7356 3138.0405 710.6033 0.182 -0.973 0.140 104 54 49
-3291.1587 3144.6226 707.2044 0.812 -0.150 -0.564 94 44 43
-3277.4929 3142.7021 702.1583 0.828 -0.176 -0.532 100 51 49
-3207.3560 3087.7017 686.9376 0.030 -0.915 0.402 109 60 58
-3179.0486 3124.9341 666.7386 0.905 -0.085 -0.417 121 81 75
-2883.8794 2871.2319 607.9410 -0.239 -0.131 -0.962 122 83 76
-2462.0986 3045.1416 397.0508 0.274 0.240 -0.931 172 117 87
-2446.1770 3311.8687 327.5595 0.522 -0.762 0.384 52 23 6
-2442.9146 3329.7520 322.0169 0.841 -0.309 0.444 29 17 11
-2262.3125 3336.4792 247.7368 0.851 0.295 -0.435 26 27 29
-2250.6860 3387.1550 231.0721 0.127 -0.981 0.146 18 22 23
-2063.2737 5056.4136 -239.1513 0.960 0.252 0.124 199 166 161
-3200.4185 2830.9221 736.3117 -0.051 -0.982 -0.184 34 22 8
-3311.5408 3137.1487 708.0599 0.162 -0.979 0.120 75 30 23
-3293.1189 3130.9062 702.1593 0.199 -0.972 0.123 73 29 22
-3271.1924 3132.0886 693.0887 0.841 -0.204 -0.501 84 41 37
-3100.1733 3107.8647 630.2926 -0.236 -0.104 -0.966 101 62 55
-2427.9514 2578.4092 486.6881 -0.611 -0.556 -0.564 93 47 19
-2393.9631 2684.2439 447.9046 0.349 -0.932 0.094 101 46 15
-2343.1013 2646.5891 436.4674 0.200 -0.940 -0.276 102 46 15
-2397.2090 2826.4775 415.3939 0.109 -0.862 0.495 101 49 14
-2317.3123 2744.0691 402.9567 0.938 -0.343 -0.043 101 48 14
-2287.5791 2728.0583 394.8439 0.753 -0.648 0.112 102 48 16
-2255.6086 3376.7490 227.8215 -0.131 -0.941 -0.312 13 17 18
-2265.7148 3402.8831 225.6601 0.160 -0.983 -0.085 18 22 21
-2266.5266 3415.4932 222.9878 -0.080 -0.974 -0.210 25 29 30
-3272.5422 1728.3938 1019.9843 0.429 -0.701 0.570 43 43 35
-3179.2422 2877.9241 708.0783 0.488 0.397 -0.777 63 39 27
-3253.0447 3110.4573 681.9842 0.999 0.013 -0.038 63 28 21
-2440.3550 2640.0425 469.9216 0.299 -0.685 0.665 108 58 28
-2288.7339 2556.9958 429.2306 0.514 -0.771 0.376 100 48 17
-2280.4011 2582.3743 419.8402 0.420 -0.843 0.338 107 51 19
-2374.2700 2703.5247 428.3701 0.997 0.028 0.075 107 51 18
-2378.2126 2716.9775 426.7299 0.995 0.004 0.096 107 51 18
-2360.2871 2706.1431 422.1619 0.834 -0.413 0.366 107 51 18
-2360.6265 2715.6040 420.0369 0.818 -0.451 0.356 107 51 18
-2387.4971 2764.0801 419.1824 0.324 -0.779 0.537 109 49 18
-2288.9382 2761.7944 380.3797 0.992 -0.045 -0.119 107 52 21
-2882.4204 3734.2886 384.9642 0.835 0.508 -0.212 62 32 21
-2267.1997 3320.1284 238.2984 0.752 0.290 -0.592 19 19 19
-2274.0698 3408.7908 219.8572 -0.002 -0.998 0.070 18 22 21
-3804.5471 2556.4407 1025.3588 0.117 0.110 -0.987 24 20 10
-3813.9512 2581.9045 1022.9833 0.270 0.210 -0.940 26 17 7
-3713.5984 2749.3748 942.8649 -0.521 -0.814 -0.256 68 43 23
-3224.4736 2843.3723 725.8047 -0.178 -0.906 -0.385 35 26 11
-3171.2373 2856.7280 701.4295 0.486 0.399 -0.778 30 9 2
-3193.4724 2886.2378 703.1843 0.484 0.401 -0.778 42 18 7
-3260.9255 3049.4126 690.8210 0.882 0.118 -0.456 38 9 0
-3276.5671 3106.2358 683.3951 0.895 0.005 -0.446 41 13 1
-3249.6426 3145.5725 663.2430 0.372 -0.905 0.205 91 63 54
-2374.6067 2754.3232 409.2611 0.305 -0.762 0.571 119 50 21
-2363.1416 2750.5896 405.5989 -0.143 -0.924 0.354 120 50 22
-2874.0789 3717.2881 376.6198 0.835 0.508 -0.212 58 28 17
-2282.3848 3335.7046 232.9803 0.984 0.180 -0.006 19 19 19
-2279.9119 3399.6267 216.6470 -0.116 -0.952 -0.282 13 17 18
