ply
format ascii 1.0
element vertex 793
property float x
property float y
property float z
property float nx
property float ny
property float nz
property uchar diffuse_red
property uchar diffuse_green
property uchar diffuse_blue
end_header
-2199.0811 3387.5269 561.9789 0.305 -0.835 -0.458 203 173 166
-2207.0042 3410.7424 561.9297 0.186 -0.800 -0.571 202 174 164
-2205.8284 3420.7036 559.5617 0.264 -0.814 -0.517 202 174 163
-2205.7717 3432.3521 557.4689 0.335 -0.912 -0.238 202 174 163
-3177.7292 5355.2705 715.3173 0.448 -0.499 0.742 187 153 144
-3176.5066 5372.4019 711.6549 0.569 -0.272 0.776 195 161 152
-3170.2883 5381.3794 706.8747 0.576 -0.259 0.775 194 160 151
-3132.0796 5356.6240 691.6625 0.355 -0.589 0.726 200 166 157
-3121.6086 5358.3794 685.9807 0.321 -0.655 0.684 199 165 156
-2970.2749 5273.6504 623.3694 0.518 -0.855 -0.005 196 159 151
-2954.9851 5266.2036 616.8463 0.450 -0.888 -0.091 195 158 150
-3047.1724 5445.0679 632.4411 0.895 -0.300 0.330 196 159 151
-3058.0793 5483.7065 631.1898 0.304 -0.498 0.812 195 158 150
-2833.1499 5596.2085 495.8846 0.375 -0.426 0.824 110 88 80
-2930.5688 5804.8843 508.8812 0.490 0.181 -0.853 113 89 79
-2701.4302 5732.4263 404.1874 0.828 0.117 -0.548 126 83 67
-2687.7332 6444.9590 270.9182 0.473 -0.462 -0.750 91 62 44
-2608.0461 6331.1519 250.2084 0.491 0.170 -0.854 80 59 44
-2465.2844 6109.5723 216.2406 0.288 -0.958 0.012 68 52 37
-2449.5281 6095.1812 210.7085 0.242 -0.970 0.013 68 52 37
-2485.4214 6256.3765 200.5592 0.966 0.103 0.238 34 28 21
-1968.0931 5346.4634 96.4223 0.073 -0.988 -0.135 46 31 24
-2049.9756 5748.4507 67.1995 0.794 0.171 0.583 156 135 130
-1899.0581 5420.4448 47.9046 0.742 0.119 0.659 194 166 165
-1901.9624 5450.9521 43.9891 0.758 0.138 0.638 185 153 156
-1815.9701 5251.7803 35.1698 0.800 -0.462 0.382 173 139 143
-1785.8434 5362.9487 0.0206 0.827 -0.059 0.559 190 174 182
-1772.8932 5369.5630 -7.7939 0.537 -0.021 -0.844 224 208 216
-1773.8254 5395.0063 -11.8236 0.498 0.001 -0.867 238 223 230
-1823.8230 5639.4980 -29.4966 0.856 0.150 -0.495 254 245 250
-1655.2606 5766.3335 -138.4291 0.612 -0.715 0.337 167 161 165
-4489.2959 2891.7585 1812.4896 0.934 0.351 0.074 24 81 86
-4512.4697 2916.6738 1819.8824 0.937 0.340 0.082 28 75 84
-4516.2456 2975.2642 1811.3451 0.497 -0.355 0.792 96 93 92
-4184.8662 2826.5156 1668.5565 0.610 -0.731 -0.305 165 139 117
-4175.0835 2841.7397 1660.8369 0.704 -0.137 -0.697 120 116 104
-4174.9551 2852.3542 1658.8752 0.704 -0.137 -0.697 55 61 57
-4174.8271 2862.9976 1656.9083 0.704 -0.137 -0.697 62 80 84
-4178.1255 2875.8433 1656.2992 0.734 -0.133 -0.667 129 159 172
-3152.7307 2623.1843 1177.3751 0.629 -0.506 0.590 137 72 40
-2900.6523 2859.3799 1006.3461 0.828 -0.309 0.469 159 88 60
-2897.9590 2896.3303 998.3685 0.703 -0.266 0.660 153 80 55
-2929.8757 3048.6267 987.4729 0.934 -0.230 -0.272 155 85 51
-2788.7310 3074.5186 910.7108 0.811 -0.104 0.576 139 74 43
-2782.2451 3088.7612 904.8514 0.687 -0.266 0.676 183 106 68
-2763.7625 3090.5034 895.0940 0.705 -0.439 0.556 191 101 53
-2477.5042 3204.6545 728.3994 0.478 -0.692 0.541 197 106 59
-2470.4846 3206.9375 724.4040 0.712 -0.576 0.402 173 89 45
-2405.5085 3170.1104 697.7750 -0.418 -0.893 0.170 89 44 24
-2316.9673 3219.2739 643.7401 0.661 -0.284 -0.695 88 60 49
-2317.2703 3230.5840 641.8745 0.655 -0.292 -0.697 138 110 99
-2257.1570 3372.7739 585.7494 0.621 -0.237 0.747 201 177 165
-2254.4041 3380.3806 582.9836 0.631 -0.223 0.743 191 166 159
-2215.5554 3347.9346 568.9251 0.946 0.316 -0.068 191 166 158
-3138.8501 5188.7417 711.9461 0.900 0.197 0.390 197 163 154
-3158.9194 5333.4668 696.3481 0.622 -0.194 0.759 191 157 148
-3160.9121 5355.7891 693.3787 0.575 -0.261 0.775 208 174 165
-3151.7795 5359.8789 687.9805 0.575 -0.261 0.775 199 165 156
-3142.6621 5363.9629 682.5912 0.575 -0.261 0.775 199 165 156
-3121.4841 5347.9849 674.6219 0.361 -0.586 0.726 199 165 156
-2898.7786 5290.6284 571.0477 0.353 -0.519 0.779 195 156 151
-2882.9678 5281.6431 564.5723 0.356 -0.516 0.779 193 155 149
-2923.1182 5391.8413 565.4056 0.359 -0.515 0.778 177 143 137
-2936.0366 5434.6123 564.3669 0.328 -0.552 0.767 182 150 143
-2927.7876 5439.4448 559.2878 0.328 -0.546 0.771 178 149 141
-2916.2742 5438.3379 553.6011 0.328 -0.546 0.771 171 143 134
-2906.3528 5440.0566 548.2235 0.333 -0.580 0.743 165 139 130
-2903.9668 5455.4834 544.2481 0.374 -0.522 0.767 159 130 122
-2903.0496 5513.6279 533.3918 0.945 -0.042 0.324 140 113 104
-2918.6968 5562.7554 532.6122 0.963 -0.021 0.269 132 108 100
-2900.0894 5630.1606 511.0604 0.465 -0.257 0.847 118 100 90
-2889.6238 5630.9717 505.5668 0.465 -0.257 0.847 128 107 98
-2784.7598 5471.9800 480.3763 0.334 0.025 -0.942 127 101 92
-2815.7349 5571.9458 478.3483 0.309 0.027 -0.951 130 99 91
-2826.5662 5613.4121 476.4761 0.311 0.028 -0.950 129 99 89
-2836.4553 5653.3081 474.4029 0.311 0.028 -0.950 123 92 84
-2865.1135 5730.0273 475.3438 0.500 0.168 -0.850 120 92 83
-2871.4326 5763.5742 472.5801 0.489 0.171 -0.855 121 89 81
-1189.6313 2490.5854 197.7581 0.666 0.200 -0.718 132 89 80
-2470.2827 6107.9434 206.0382 0.288 -0.958 0.012 73 57 42
-2451.4661 6086.1562 200.3136 0.592 -0.590 -0.549 73 57 42
-2466.3650 6146.5532 197.1383 0.868 -0.270 -0.416 71 58 45
-2480.6135 6205.7847 193.8389 0.978 -0.183 -0.102 41 31 22
-2491.9373 6258.2271 190.2574 0.985 -0.170 0.026 34 27 19
-2430.2310 6130.2646 181.5808 0.726 -0.575 -0.377 28 21 13
-2285.1125 5980.8276 134.1101 0.384 -0.029 -0.923 30 17 9
-1991.5352 5506.3574 68.8316 0.787 0.187 0.587 110 91 85
-1989.1018 5590.0825 52.6305 0.776 0.211 0.594 177 156 151
-1873.7096 5336.4663 38.9639 0.736 0.105 0.669 185 159 158
-1781.7261 5142.0059 26.6930 0.801 -0.588 0.115 164 136 138
-1776.5122 5148.3652 22.8922 0.801 -0.588 0.115 160 132 134
-1758.7555 5118.8706 19.0862 0.522 -0.852 -0.029 163 135 137
-1765.2339 5201.5278 7.6305 0.855 0.141 0.499 188 165 171
-1794.3761 5442.8872 -20.5940 0.535 0.033 -0.844 250 236 243
-1834.0903 5680.5376 -42.7529 0.859 0.164 -0.486 252 243 248
-1771.3314 5535.8486 -48.9792 0.426 -0.537 -0.729 252 243 248
-1666.5159 5737.6567 -138.6016 0.375 -0.737 0.562 250 244 248
-1650.3629 5733.7471 -146.1585 0.449 -0.682 0.578 193 187 191
-4646.9282 2934.8518 1872.9689 0.257 -0.199 -0.945 14 74 81
-4460.9307 2892.4060 1785.8971 0.971 0.041 0.236 4 48 58
-4494.9810 2957.5903 1791.4958 0.452 -0.491 0.745 100 97 96
-4183.1226 2842.2551 1653.4596 0.712 -0.144 -0.687 102 95 90
-4182.3296 2863.1826 1649.2864 0.704 -0.137 -0.697 89 105 116
-3430.0071 2673.2371 1300.3873 0.161 -0.242 -0.957 96 95 99
-3123.6428 2606.0854 1156.4701 0.268 -0.923 0.276 153 88 58
-2966.2427 2865.0271 1029.6748 0.663 -0.682 0.308 173 106 73
-2884.5654 2811.1299 997.7896 0.553 -0.743 0.378 161 94 63
-2926.3188 2878.2507 1006.9622 0.893 0.270 -0.360 159 83 57
-2919.1118 2881.5374 1002.7002 0.010 -0.927 0.376 152 75 52
-2899.2065 2882.9893 992.3020 -0.141 -0.951 0.276 156 78 55
-2891.0972 2935.1299 978.7809 0.977 -0.192 -0.089 185 86 57
-2899.6309 2953.2615 979.8607 0.954 -0.208 0.218 185 86 57
-2926.9282 2989.3240 987.2659 0.964 -0.147 0.223 181 81 53
-2938.3169 3041.4851 983.6702 0.924 -0.231 -0.306 169 90 51
-2940.3188 3053.8420 982.4639 0.930 -0.223 -0.291 166 91 53
-2884.6775 3010.2029 961.9894 0.370 -0.694 0.617 165 91 53
-2779.6011 3049.7690 901.3536 0.824 -0.057 0.564 100 41 14
-2778.2561 3058.7642 899.0485 0.764 -0.069 0.641 116 51 20
-2775.7549 3066.5908 896.3652 0.761 -0.070 0.644 155 84 50
-2755.7395 3077.1077 884.2782 0.774 -0.084 0.628 191 101 53
-2477.6582 3188.6770 722.5722 0.600 -0.676 0.427 197 105 55
-2470.4573 3201.5222 716.5915 0.712 -0.576 0.402 191 106 61
-2461.7449 3201.7024 712.1225 0.726 -0.553 0.408 154 87 50
-2317.9744 3215.0962 636.4963 0.725 0.038 -0.688 81 53 42
-2322.8535 3232.3884 635.8663 0.655 -0.292 -0.697 143 113 103
-2329.2827 3386.9661 611.2976 0.894 -0.263 0.362 213 184 176
-2242.5183 3357.6101 572.4014 0.540 -0.360 0.761 129 111 101
-2201.7078 3414.2073 541.4247 0.823 -0.138 0.552 201 173 162
-2206.4451 3456.4880 536.2214 0.844 -0.157 0.513 208 180 169
-3126.2800 5158.9624 697.9858 0.900 0.197 0.390 198 164 155
-3132.1936 5186.7676 695.9889 0.902 0.194 0.385 199 165 156
-3129.5405 5313.1426 671.8751 0.572 -0.258 0.779 205 171 162
-3107.2476 5295.3110 663.7344 0.448 -0.524 0.724 201 167 158
-2890.6079 5209.3799 568.8911 0.442 -0.569 0.693 196 159 153
-2879.3491 5227.1611 559.9548 0.476 -0.541 0.694 196 159 153
-2862.7627 5311.6660 536.2873 0.380 -0.562 0.735 181 144 139
-2913.9863 5583.5703 513.3965 0.964 0.042 0.262 164 135 129
-2930.6680 5635.2046 512.5911 0.987 0.128 0.093 159 130 124
-2838.2146 5482.1699 493.0749 0.262 -0.520 0.813 156 129 122
-2768.0972 5389.6577 474.0318 0.348 0.007 -0.938 148 121 114
-2830.3477 5588.8135 469.8601 0.353 0.051 -0.934 132 93 88
-2838.4390 5624.9956 467.4634 0.351 0.017 -0.936 126 87 80
-2861.0437 5689.5088 467.3543 0.310 0.023 -0.950 136 100 92
-2900.3652 5808.3540 465.9719 0.489 0.172 -0.855 138 99 93
-2941.3867 5910.2334 468.5110 0.487 0.183 -0.854 139 98 91
-2270.2917 5335.3828 230.3059 0.552 -0.163 -0.818 109 78 58
-2488.8196 6139.0645 196.8287 0.495 -0.705 -0.508 78 62 47
-2473.5986 6126.2192 191.3914 0.567 -0.626 -0.536 73 57 42
-2483.5139 6174.5103 187.7423 0.527 -0.546 -0.652 66 53 40
-2496.6401 6230.9966 184.2523 0.857 -0.387 -0.339 39 28 18
-2506.7012 6280.3428 180.4875 0.879 -0.426 -0.213 31 23 16
-1955.5166 5352.3350 66.9565 0.288 -0.890 0.354 116 101 94
-1939.7880 5331.5835 62.6847 0.297 -0.909 0.292 134 117 110
-1910.4529 5295.1431 54.3099 0.786 0.221 0.577 162 141 136
-1910.5828 5338.6548 46.5386 -0.002 -0.999 -0.043 172 151 146
-1785.1863 5181.7939 10.9358 0.665 -0.146 0.733 196 174 173
-1742.3351 5101.5098 3.5751 0.842 0.206 0.499 220 200 201
-1809.0743 5496.1577 -33.5231 0.561 -0.032 -0.827 254 241 248
-1818.7078 5595.4883 -46.5089 0.446 -0.140 -0.884 251 242 247
-1667.3203 5724.8579 -146.9035 0.399 -0.710 0.580 253 248 252
-1664.3417 5740.3228 -151.2059 0.612 -0.720 0.327 245 239 243
-4358.4697 2762.4773 1745.5331 0.991 0.087 -0.103 7 65 76
-4448.5835 2847.5068 1775.8159 0.898 0.354 0.261 5 64 72
-4445.1343 2867.3743 1770.4581 0.902 0.361 0.236 2 43 57
-4489.5566 2949.5750 1778.0709 0.996 0.079 -0.029 104 101 100
-4500.5322 2978.8306 1778.3273 0.994 0.055 -0.091 154 136 127
-4185.8164 2828.7661 1645.8916 0.977 0.191 -0.100 141 125 119
-4189.8438 2863.3674 1641.6519 0.704 -0.137 -0.697 105 120 139
-3279.0112 2616.6165 1224.3057 0.289 -0.794 0.535 125 131 143
-3115.8340 2679.2495 1130.1361 -0.289 -0.853 -0.435 88 50 27
-3063.7861 2647.3333 1109.5229 -0.232 -0.967 0.104 83 50 33
-2836.2571 2597.7922 1003.0716 0.620 -0.777 -0.110 188 163 156
-2831.5105 2602.7351 999.7656 0.608 -0.786 -0.113 200 175 168
-2933.5398 2841.0042 1008.2672 0.356 -0.500 0.789 167 96 60
-2905.7585 2825.7607 996.9392 0.857 0.434 -0.278 160 89 54
-2887.4587 2917.0337 971.0794 0.958 -0.275 -0.081 186 86 52
-2913.0649 2961.2444 976.0437 0.976 -0.199 0.085 188 85 52
-3105.1648 3197.3306 1030.6433 0.982 0.180 0.050 173 89 45
-2959.0720 3067.0688 980.1707 0.983 -0.099 -0.156 171 90 45
-2852.3088 2984.1086 941.0643 0.223 -0.746 0.628 170 91 45
-2773.3926 3038.4866 891.1478 0.824 -0.057 0.564 93 33 6
-2770.4248 3045.7739 888.3186 0.764 -0.069 0.641 106 39 8
-2767.3794 3052.9934 885.4624 0.764 -0.069 0.641 140 67 34
-2763.3743 3059.2314 882.2973 0.785 0.092 0.613 179 101 64
-2758.9739 3065.0640 879.0055 0.791 0.080 0.606 187 102 58
-2468.8091 3161.9666 714.1799 0.651 -0.493 0.577 197 105 54
-2477.8792 3183.6086 714.8520 0.600 -0.676 0.427 197 105 54
-2471.6216 3186.7922 711.0988 0.600 -0.676 0.427 196 106 56
-2468.0728 3193.2542 708.1247 0.567 -0.736 0.370 192 107 59
-2455.7214 3188.9753 702.6346 0.563 -0.704 0.433 167 97 54
-2189.1589 3366.6763 535.1124 0.765 -0.147 -0.627 197 172 161
-2198.4509 3403.3806 533.1620 0.711 0.043 -0.702 214 186 175
-2212.9651 3436.4202 534.5267 0.852 0.304 -0.425 216 188 177
-2265.8743 3575.2102 536.1695 0.764 -0.596 0.249 210 178 167
-3035.3076 4986.7041 670.2623 0.501 -0.425 -0.754 200 168 157
-3109.1755 5140.2456 679.8608 0.905 0.194 0.379 198 164 155
-3119.8303 5175.6045 678.8461 0.900 0.197 0.389 198 164 155
-3114.0608 5391.8955 636.6419 0.979 0.017 0.203 199 165 156
-2821.5779 5246.1670 514.7000 0.486 -0.418 0.767 183 142 138
-2815.4580 5254.0801 510.1578 0.436 -0.483 0.759 184 142 138
-2828.7156 5297.2241 509.0500 0.458 -0.475 0.751 181 140 136
-2861.6033 5376.4639 511.3480 0.425 -0.507 0.750 181 139 135
-2854.3604 5481.4951 488.6000 0.360 -0.483 0.798 165 130 126
-2848.9377 5491.3560 484.0580 0.242 -0.459 0.855 173 139 135
-2894.9055 5743.4736 461.5995 0.351 0.011 -0.936 164 118 115
-2930.3779 5855.0376 459.3388 0.486 0.150 -0.861 163 118 114
-2893.2642 5804.1089 449.7558 0.407 0.080 -0.910 163 117 112
-2554.6902 6115.0576 221.4983 0.953 -0.224 0.204 99 72 51
-2477.3647 6121.5732 181.0804 0.676 -0.723 -0.141 72 56 41
-2481.9961 6156.9023 177.0148 0.670 -0.719 -0.187 65 52 38
-2506.7007 6241.5024 174.1873 0.888 -0.400 -0.228 37 27 17
-2438.0571 6121.7632 161.1013 0.880 -0.221 -0.420 22 15 7
-1967.2655 5349.6284 62.4362 -0.022 -0.973 0.230 138 123 116
-1959.2200 5349.6646 58.3474 0.295 -0.896 0.331 164 149 142
-1943.0416 5327.7681 54.1147 0.297 -0.909 0.292 178 161 154
-1743.2047 5112.6401 -8.2165 0.847 0.138 0.514 247 232 235
-1661.9280 5691.1226 -154.5039 0.464 -0.687 0.559 253 248 252
-1663.3029 5721.2349 -159.2744 0.495 -0.665 0.560 244 238 242
-1644.2045 5681.5381 -161.7563 0.467 -0.576 0.671 223 217 221
-4364.2114 2793.3784 1731.1991 0.851 0.357 0.385 2 44 55
-4407.2886 2840.3677 1744.3751 0.879 0.360 0.312 3 32 47
-4445.5752 2885.0427 1755.5529 0.921 0.342 0.186 10 28 45
-4492.3257 2946.5396 1767.9303 0.984 0.095 -0.150 111 106 105
-4306.9375 2866.7554 1688.8112 0.940 -0.038 -0.338 158 139 126
-4181.7676 2821.7651 1633.7665 0.974 0.183 -0.137 122 107 105
-4186.6235 2846.0972 1631.7675 0.974 0.183 -0.137 65 69 84
-4189.5317 2858.6277 1630.9438 0.976 0.186 -0.108 125 140 165
-3285.0745 2607.6709 1219.6292 -0.023 -0.934 0.356 128 186 216
-2841.8606 2580.6213 1000.5109 0.281 -0.904 -0.323 151 126 119
-2835.9792 2602.4346 993.5444 0.504 -0.857 -0.109 188 163 156
-2830.7349 2606.9583 990.0649 0.489 -0.867 -0.097 180 153 146
-2954.1892 2904.3965 998.0287 -0.181 -0.945 0.271 124 61 32
-2944.0078 2905.0471 992.7623 -0.170 -0.952 0.254 119 56 27
-2894.1172 2928.6118 963.2259 0.962 -0.152 0.225 185 88 47
-2807.6023 2915.9387 921.8077 0.970 0.014 -0.243 174 89 41
-2832.3298 2980.1143 922.5608 0.240 -0.723 0.648 179 94 46
-2758.6372 3039.0613 874.5140 0.762 -0.075 0.643 137 64 30
-2751.6943 3042.2202 870.4257 0.790 0.070 0.609 173 93 54
-2466.4663 3164.5295 703.8364 0.866 -0.379 0.327 199 105 54
-2463.5764 3171.7268 701.0579 0.833 -0.476 0.284 196 106 56
-2462.3430 3180.9485 698.7462 0.797 -0.589 0.134 193 107 59
-2451.4631 3178.4409 693.7048 0.550 -0.712 0.437 184 110 66
-2194.0391 3367.8403 528.8905 0.765 -0.147 -0.627 143 119 108
-2199.2720 3386.9858 528.0312 0.675 0.038 -0.737 169 142 131
-2206.9089 3409.7566 527.7237 0.736 0.221 -0.640 197 170 159
-2212.7024 3429.9453 526.9568 0.685 0.253 -0.683 212 185 174
-2219.7910 3452.1560 526.4746 0.680 0.264 -0.684 207 180 169
-2230.7385 3492.1497 524.6880 0.636 0.209 -0.743 208 180 169
-2248.1160 3542.2109 524.3089 0.477 -0.811 0.340 210 178 167
-2271.6626 3589.8052 527.5005 0.890 -0.242 0.385 210 178 167
-3102.0359 5137.4072 663.9958 0.908 0.214 0.361 199 165 156
-3110.3960 5169.0918 662.4221 0.907 0.210 0.365 197 163 154
-3098.2083 5374.2261 618.7083 0.365 -0.791 0.492 201 164 156
-2815.6807 5244.1987 499.6774 0.492 -0.297 0.818 186 141 138
-2873.4956 5628.2900 458.5939 0.451 0.173 -0.876 161 112 111
-2774.7046 5560.9741 420.9724 0.335 -0.005 -0.942 181 132 127
-2824.0330 5958.8359 373.0775 0.361 -0.056 -0.931 159 116 100
-2850.6555 6104.5430 359.8635 -0.116 -0.511 -0.852 150 107 90
-1566.9939 3442.5962 198.1982 0.316 -0.860 0.401 149 106 89
-2482.0591 6119.1836 170.8366 0.676 -0.723 -0.141 72 56 41
-2479.9968 6138.1982 166.3131 0.653 -0.743 -0.144 65 52 38
-2481.8333 6166.8062 162.0046 0.639 -0.752 -0.161 37 26 16
-2496.7346 6227.5601 158.4164 0.982 -0.191 0.000 30 22 15
-2446.6199 6128.9546 151.1314 0.894 -0.211 -0.394 23 16 6
-1971.2456 5347.6846 53.8227 -0.022 -0.973 0.230 180 165 158
-1950.7806 5314.5581 49.5408 0.226 -0.951 0.213 206 191 184
-1795.9756 5103.0752 9.9922 0.847 -0.340 0.409 221 210 206
-1773.2489 5207.9985 -20.7049 0.888 0.004 0.460 253 238 245
-1669.7987 5727.8232 -168.1647 0.553 -0.566 0.612 246 240 244
-1641.0724 5655.4609 -169.4407 0.462 -0.613 0.641 232 226 230
-1396.2146 892.5221 575.3010 0.053 -0.852 0.521 112 83 57
-3187.2747 1925.3503 1286.9045 0.554 -0.496 0.669 17 59 67
-4436.5322 2875.0442 1740.9324 0.876 0.383 0.293 16 19 34
-4461.7041 2901.1223 1748.7998 0.924 0.353 0.145 36 38 45
-4492.9634 2931.0198 1759.0288 0.997 0.050 -0.055 78 73 77
-4325.0962 2862.4412 1687.1257 0.265 -0.696 0.667 151 135 126
-4187.2969 2842.0037 1621.4850 0.974 0.183 -0.137 65 72 91
-2843.7661 2578.1829 993.4059 0.278 -0.897 -0.345 151 126 119
-2850.9414 2593.0564 994.2757 0.629 -0.329 -0.704 166 141 134
-2848.2034 2608.6521 990.0186 0.611 -0.334 -0.718 168 141 134
-2848.7610 2618.1042 988.5552 0.602 -0.369 -0.708 163 136 129
-2849.3611 2627.6240 987.1009 0.569 -0.392 -0.723 168 138 131
-2898.6201 2772.1599 985.2424 0.889 0.457 -0.016 182 108 68
-2911.5940 2793.1885 987.8972 0.890 0.456 -0.018 182 107 69
-2950.4055 2856.8811 995.6941 0.730 0.284 -0.622 152 77 38
-2946.5137 2892.7939 987.1067 -0.233 -0.964 0.131 90 35 5
-2934.5657 2891.8005 981.2716 -0.188 -0.962 0.197 86 31 1
-2803.9363 2927.5918 908.8666 0.979 -0.090 0.182 177 88 37
-2774.9141 3040.5251 873.4081 0.765 -0.152 0.626 129 57 24
-2735.9961 3031.3757 855.4926 0.796 0.086 0.599 187 101 58
-2722.4075 3027.5569 849.3525 0.804 0.024 0.594 191 101 54
-2466.7300 3170.2354 694.2346 0.824 -0.483 0.296 197 106 56
-2462.3931 3175.6880 691.0438 0.824 -0.483 0.296 195 107 60
-2453.9346 3176.1270 686.7021 0.547 -0.696 0.466 194 119 76
-2344.9707 3201.1980 627.1886 0.510 -0.194 -0.838 80 47 33
-2206.5046 3391.5510 522.3148 0.679 0.029 -0.734 112 88 79
-2213.0181 3412.6675 521.6992 0.736 0.221 -0.640 156 131 123
-2218.2107 3431.9619 520.7544 0.685 0.259 -0.681 186 162 153
-2228.0286 3458.1746 520.8628 0.685 0.259 -0.681 205 181 172
-2217.1838 3453.9832 516.1735 0.795 0.254 -0.550 205 181 172
-2228.9360 3483.2639 516.6902 0.861 0.271 -0.430 206 181 172
-2243.3306 3516.6584 517.7787 0.871 0.278 -0.406 206 181 171
-2243.3159 3528.7124 515.5471 0.475 -0.814 0.336 208 178 168
-2238.4255 3533.4958 512.2010 0.469 -0.824 0.317 209 178 168
-2227.4214 3529.0632 507.4759 0.512 -0.775 0.371 209 178 168
-2778.4390 5376.9556 444.0432 0.314 -0.489 0.814 150 108 105
-2849.5898 5530.9429 451.4681 0.445 0.160 -0.881 158 113 111
-2907.1028 5680.9585 452.7561 0.453 0.177 -0.873 170 119 118
-2608.4192 5168.8784 396.7975 0.829 -0.538 -0.149 180 129 127
-2637.1301 5243.2842 397.5297 0.776 -0.512 -0.368 182 129 128
-2649.2998 5286.1206 395.7552 0.708 -0.635 -0.309 181 130 127
-2488.2083 4991.8438 368.9131 0.982 -0.141 0.125 180 131 126
-2477.6089 5007.7095 360.6462 0.967 -0.201 0.159 180 133 123
-2496.6240 6164.6846 156.7285 0.581 -0.743 -0.333 66 52 38
-2490.8440 6174.8394 151.9432 0.710 -0.607 -0.358 38 27 16
-2504.7646 6233.1167 148.2013 0.976 -0.177 -0.127 30 22 14
-2063.1079 5512.2358 58.7544 -0.269 -0.927 0.261 88 72 65
-1945.7582 5246.4839 48.6821 0.213 -0.977 0.008 161 145 138
-1936.9417 5244.1450 44.6727 0.230 -0.973 0.011 201 184 177
-1917.2745 5212.8120 40.5478 0.071 -0.989 -0.132 226 210 203
-1794.0758 5085.5830 1.9678 0.805 -0.343 0.484 224 214 211
-1659.7147 5678.2383 -175.0748 0.548 -0.604 0.579 251 243 248
-1636.3234 5624.0215 -176.8528 0.515 -0.662 0.545 240 234 238
-4427.1748 2864.8867 1726.2566 0.876 0.383 0.293 51 46 45
-4464.0225 2897.8806 1738.6130 0.924 0.353 0.147 77 70 65
-4496.9658 2928.7449 1749.4061 0.998 0.047 -0.048 104 94 87
-4510.0107 2959.0610 1750.3145 0.993 0.034 -0.110 147 135 126
-4196.4248 2843.1897 1614.4830 0.979 0.150 -0.135 95 115 139
-4200.9233 2878.2024 1610.2285 0.768 -0.582 -0.267 134 191 223
-3493.3113 2720.9624 1284.3369 0.061 -0.085 -0.995 157 184 201
-2869.3281 2604.3313 992.8641 -0.053 -0.954 -0.295 137 112 107
-2838.8191 2596.7026 978.9709 0.226 -0.593 -0.773 150 122 118
-2852.7498 2626.3850 980.4418 0.589 -0.391 -0.707 174 142 138
-2850.7354 2633.7097 978.0684 0.589 -0.391 -0.707 187 136 134
-2922.8198 2779.5840 987.1142 0.456 -0.006 -0.890 169 107 77
-2924.8145 2790.8977 986.0110 0.456 -0.006 -0.890 163 103 73
-2960.1873 2880.8162 987.0394 0.877 0.362 -0.314 72 31 1
-2969.2112 2898.8840 988.2078 0.839 0.412 -0.355 77 34 1
-2946.0708 2897.7117 976.8121 -0.168 -0.972 0.165 94 41 3
-2889.1924 2914.6743 945.1108 0.889 -0.435 0.142 195 97 49
-2895.3643 2940.4631 943.4117 0.938 -0.328 0.113 188 90 42
-2770.6990 3031.3113 863.9470 0.754 -0.107 0.648 186 98 54
-2775.3926 3046.4163 863.4932 0.714 -0.282 0.641 187 98 52
-2454.5945 3160.9456 681.1885 0.503 -0.490 0.712 174 89 43
-2354.5020 3218.8447 620.1848 0.597 0.055 -0.800 107 70 55
-2358.6228 3235.0549 619.2380 0.599 0.056 -0.799 100 60 44
-2370.3948 3283.3953 616.1550 0.599 0.062 -0.798 204 150 124
-2391.2009 3333.0798 617.3560 0.502 0.129 -0.855 223 162 133
-2213.0420 3395.0823 516.4091 0.679 0.029 -0.734 46 37 31
-2219.1443 3415.5867 515.6580 0.736 0.221 -0.640 63 54 48
-2225.8379 3437.0696 515.0215 0.685 0.259 -0.681 87 78 72
-2235.7261 3463.3704 515.0925 0.685 0.259 -0.681 133 125 119
-2221.1167 3453.6650 509.5654 0.876 0.278 -0.394 158 149 143
-2225.2068 3471.5522 508.2913 0.970 0.171 -0.175 188 177 172
-2238.0291 3502.5171 508.9672 0.970 0.133 0.203 201 187 180
-2233.3560 3507.5576 505.6842 0.056 -0.824 0.563 194 173 164
-2223.7371 3505.1860 501.2978 0.094 -0.822 0.562 194 171 162
-3000.3320 5657.7378 490.6898 0.779 0.203 0.593 177 134 128
-2777.2573 5364.0508 433.3574 0.323 -0.489 0.810 178 134 126
-2507.8782 5001.7456 365.5484 0.973 -0.226 0.044 185 138 126
-2492.0249 4989.2368 359.9185 0.955 -0.234 0.184 185 137 126
-2883.1941 5834.7412 398.9785 0.379 0.116 -0.918 185 136 123
-2903.8657 6097.9170 360.4034 0.267 -0.106 -0.958 174 126 111
-2877.2231 6065.8755 352.9915 0.286 0.044 -0.957 174 126 109
-2888.8713 6112.6895 350.1303 0.333 0.119 -0.935 173 122 106
-2515.4915 6196.4487 147.1588 0.525 -0.234 0.818 49 30 13
-2501.8879 6187.7573 141.9481 0.522 -0.237 0.819 29 16 2
-2499.5371 6206.3394 137.3120 0.555 -0.216 0.803 25 16 5
-2491.0059 6209.8882 132.3703 0.555 -0.216 0.803 23 15 3
-1976.3174 5314.8335 40.5344 -0.311 -0.927 0.209 193 167 162
-1951.3101 5269.9521 36.3315 0.183 -0.983 0.002 215 189 184
-1917.7439 5201.8799 32.1464 0.200 -0.902 -0.383 232 209 204
-1856.7415 5121.2886 16.5201 -0.004 -0.741 -0.672 234 215 217
-1846.3237 5113.6924 12.7044 -0.022 -0.337 -0.941 232 213 214
-1841.7334 5142.6270 5.0190 -0.031 -0.370 -0.929 230 210 212
-1802.0073 5095.4429 -6.1427 -0.057 -0.832 -0.551 229 216 218
-1782.4675 5082.4556 -13.5338 0.645 -0.121 0.755 242 230 231
-1669.3033 5695.3301 -184.3214 0.600 -0.605 0.524 249 239 247
-1629.5992 5586.0508 -183.9226 0.468 -0.677 0.568 247 237 245
-4416.1899 2842.9075 1713.0573 0.876 0.385 0.290 53 50 47
-4343.9683 2864.8027 1672.8386 0.256 -0.726 0.638 144 132 120
-4204.5898 2875.9504 1601.0531 0.768 -0.583 -0.265 130 191 222
-3088.6428 2586.3843 1097.3105 0.845 0.235 -0.481 123 62 40
-2952.3650 2578.5901 1030.6263 -0.070 -0.955 -0.287 87 60 49
-2852.7529 2577.6047 981.0004 0.274 -0.935 -0.224 127 102 97
-2857.6372 2599.4729 979.3434 0.214 -0.585 -0.783 133 108 103
-2839.3511 2593.1001 971.3941 0.104 -0.679 -0.727 137 109 105
-2858.0037 2626.7202 974.4188 0.201 -0.552 -0.809 188 158 153
-2959.5315 2895.4417 974.8123 -0.103 -0.961 0.258 117 64 30
-2952.5090 2898.9805 970.6373 -0.091 -0.964 0.249 137 77 40
-2782.4729 2947.0728 876.5959 0.591 -0.716 0.370 186 99 52
-2775.8208 2950.5083 872.6255 0.591 -0.716 0.370 186 99 53
-2763.7441 3019.3328 853.6846 0.849 -0.013 0.529 188 97 52
-2728.9292 3004.1174 839.1279 0.835 -0.051 0.547 189 97 50
-2438.1589 3135.8206 669.0399 0.693 -0.175 0.699 173 88 43
-2384.0728 3295.6406 612.0341 0.581 0.074 -0.810 184 127 98
-2387.7346 3311.5994 610.8735 0.581 0.074 -0.810 191 129 98
-2401.8721 3341.4023 612.3559 0.502 0.129 -0.855 196 132 98
-2183.9434 3301.6680 510.8303 0.921 -0.218 0.324 13 12 8
-2212.1150 3376.2419 510.9376 0.683 -0.003 -0.730 15 12 6
-2218.9177 3397.6340 510.3291 0.796 0.221 -0.564 25 20 14
-2226.2427 3419.9053 509.8167 0.733 0.255 -0.631 35 30 26
-2233.4963 3442.1982 509.2649 0.685 0.259 -0.681 40 36 31
-2243.4558 3468.5879 509.2980 0.685 0.259 -0.681 57 53 48
-2225.5505 3465.9026 500.8480 0.970 0.171 -0.175 151 145 139
-2233.2673 3489.2253 500.3346 0.968 0.127 0.216 183 173 167
-2234.1162 3502.4490 498.2800 0.056 -0.824 0.563 200 181 173
-2224.4766 3500.0481 493.9099 0.094 -0.822 0.562 205 182 174
-2206.6597 3485.3162 487.7623 0.026 -0.906 0.422 202 177 170
-2888.0110 5305.0908 487.3309 0.839 0.293 0.459 183 143 135
-2908.2871 5558.2188 450.0179 0.730 0.375 -0.572 165 121 112
-2921.5171 6121.4102 351.0564 0.219 0.000 -0.976 175 126 111
-2921.1003 6143.4570 346.7152 0.289 0.066 -0.955 176 126 109
-2941.7649 6209.1030 344.7422 0.338 0.121 -0.933 176 123 107
-3010.7432 6375.2671 348.0851 0.338 0.122 -0.933 172 116 101
-2499.9951 6121.2705 140.3022 0.550 -0.163 0.819 79 52 33
-2494.1467 6131.1177 135.5317 0.555 -0.158 0.816 47 25 8
-2468.2727 6140.4165 120.8503 0.567 -0.101 0.817 24 14 2
-2036.9382 5418.4419 40.5059 -0.244 -0.934 0.260 158 133 128
-2030.0609 5443.8071 32.3120 -0.252 -0.943 0.217 198 170 166
-2021.5758 5443.2349 28.1763 -0.252 -0.942 0.220 216 188 184
-1909.0275 5166.6328 23.7492 0.131 -0.911 -0.392 233 209 204
-1792.1895 5035.6699 -10.1245 -0.063 -0.907 -0.417 228 213 216
-1669.7065 5681.3965 -192.4209 0.598 -0.610 0.520 248 238 246
-4206.0664 2808.2952 1603.1459 0.775 -0.279 -0.567 106 96 88
-4190.7588 2820.0486 1593.2992 0.978 0.184 -0.097 66 81 101
-4200.2119 2836.5391 1594.8933 0.623 -0.145 -0.768 124 150 172
-3070.8521 2559.7722 1084.5206 0.858 0.204 -0.472 117 65 46
-2931.4590 2549.0366 1017.1014 -0.027 -0.986 -0.167 79 48 37
-2867.1260 2630.3105 969.6952 0.201 -0.552 -0.809 181 152 147
-2861.1394 2652.4358 962.5325 0.533 -0.437 -0.725 193 138 129
-2880.6250 2687.4329 965.6285 0.414 -0.335 -0.846 173 107 87
-2889.3096 2704.1570 966.7957 0.261 -0.724 -0.639 176 106 82
-2999.3088 2936.9453 977.6189 0.890 -0.247 0.384 171 101 69
-3006.8223 2953.8894 978.1609 0.710 -0.503 0.493 177 101 67
-2757.7131 2830.2861 877.4036 0.163 -0.982 0.093 167 83 46
-2749.9185 2890.6692 862.1122 0.943 -0.140 0.303 190 98 47
-2769.1531 2919.3352 866.2794 0.895 -0.268 0.356 191 98 48
-2780.2393 2940.1570 867.8688 0.599 -0.700 0.388 194 105 57
-2697.0454 2986.7124 817.6251 0.766 0.080 0.638 192 100 53
-2408.7825 3333.4565 608.4996 0.483 0.119 -0.868 174 111 78
-2412.6118 3349.7788 607.3238 0.502 0.129 -0.855 173 107 72
-2293.4285 3371.0073 543.9346 0.751 -0.409 0.518 6 14 14
-2300.1382 3391.8413 543.3414 0.814 -0.246 0.526 8 15 15
-2234.3083 3449.0544 499.7350 0.646 0.214 -0.733 35 34 29
-2227.5737 3450.9441 496.0227 0.877 0.278 -0.392 50 49 44
-2239.1506 3491.7478 494.0816 0.374 -0.760 0.532 105 96 90
-2234.8745 3497.3518 490.8925 0.056 -0.824 0.563 172 153 145
-2225.1768 3494.8657 486.5306 0.118 -0.812 0.572 201 178 170
-2214.1521 3490.3330 481.8943 0.109 -0.811 0.575 203 178 171
-2205.0193 3488.5706 477.6772 0.109 -0.811 0.575 195 172 164
-3043.4341 5204.8882 571.1280 0.666 0.126 0.735 178 141 133
-2952.6580 6172.3477 343.1234 0.240 0.017 -0.971 176 127 110
-2598.9878 5699.6431 256.2270 -0.239 -0.968 -0.073 159 101 81
-2576.5684 5672.9385 250.1026 -0.165 -0.980 0.115 158 101 81
-2467.0132 6075.8257 119.4047 0.564 -0.106 0.819 30 12 0
-2361.7966 6103.1313 61.8257 0.106 -0.659 0.745 53 33 22
-2353.5999 6106.5469 57.0967 0.118 -0.653 0.748 73 53 42
-1929.5847 5208.9902 15.4193 -0.244 -0.904 0.352 234 208 203
-1927.7140 5224.9014 11.4812 0.173 -0.861 -0.479 239 217 215
-1884.3668 5298.5220 -24.0237 0.111 -0.796 -0.595 231 218 222
-1849.8265 5224.3730 -27.2235 -0.001 -0.676 -0.736 236 224 228
-3949.4712 2407.0264 1540.8560 0.191 -0.574 0.796 0 19 31
-4465.5601 2852.0422 1712.3059 0.381 -0.058 -0.923 76 71 67
-4212.3940 2818.3208 1593.0596 0.606 -0.088 -0.790 50 57 62
-4213.0879 2829.3757 1591.2993 0.606 -0.088 -0.790 73 88 108
-4194.5918 2860.5659 1576.1797 0.440 -0.627 -0.643 131 193 223
-3650.1091 2850.4285 1307.8395 -0.085 -0.181 -0.980 125 175 194
-3818.4121 3014.8059 1360.0859 0.027 -0.950 -0.311 132 181 213
-2888.8645 2690.2927 960.4609 0.414 -0.335 -0.846 169 109 87
-3001.5466 2944.3916 968.0162 0.726 -0.496 0.475 188 110 84
-2995.7722 2949.2161 964.2314 0.726 -0.496 0.475 188 108 81
-2990.4758 2954.4717 960.6018 0.742 -0.485 0.464 186 107 78
-2756.5449 2815.1184 871.0145 0.195 -0.716 -0.670 131 65 34
-2752.6982 2821.0308 867.9794 0.319 -0.755 -0.573 132 64 34
-2747.6201 2825.7729 864.5559 0.319 -0.755 -0.573 170 99 65
-2747.3594 2873.8108 855.2806 0.941 -0.248 0.231 189 99 49
-2741.2949 2877.6509 851.5392 0.811 -0.461 0.359 191 98 47
-2676.3840 2901.2380 814.8279 0.856 0.208 -0.474 193 105 57
-2277.8784 2903.2769 616.6295 0.811 -0.518 -0.271 191 103 55
-2420.4780 3125.0425 645.1912 0.586 -0.256 0.769 143 78 43
-2413.3330 3126.8745 641.2958 0.588 -0.256 0.767 103 42 10
-2405.6736 3128.0522 637.2696 0.603 -0.228 0.764 100 45 17
-2185.3831 3314.6118 492.4026 0.968 -0.139 0.209 16 15 11
-2224.6531 3393.9917 496.7824 0.677 0.275 -0.682 28 25 20
-2246.3784 3460.6145 494.8821 0.850 0.213 -0.482 24 23 18
-2233.1992 3453.1013 489.7707 0.922 0.212 -0.325 28 27 22
-2232.2332 3463.4824 487.3146 0.977 0.185 -0.102 36 32 27
-2239.6550 3486.3022 486.6541 0.374 -0.760 0.532 55 46 40
-2233.4565 3489.0383 483.0563 0.065 -0.817 0.573 118 99 91
-2223.2153 3485.7327 478.6021 0.105 -0.810 0.576 180 157 149
-2214.0200 3483.9258 474.3818 0.105 -0.810 0.576 202 179 171
-2201.2349 3476.6787 469.4154 0.099 -0.808 0.581 198 175 167
-2192.0688 3474.7878 465.2255 0.099 -0.808 0.581 201 181 172
-2232.2439 3571.8521 466.6876 0.888 -0.361 0.286 205 177 169
-3005.2324 5186.9141 542.8925 0.640 0.116 0.760 171 130 124
-2888.7576 5401.3882 444.2431 0.793 0.191 0.579 158 115 108
-2925.7380 5609.1904 423.0360 0.322 -0.543 0.775 190 146 135
-2927.0974 5632.1948 419.3310 0.321 -0.532 0.784 191 145 132
-2905.7803 5612.6875 412.4636 0.271 -0.576 0.772 189 143 130
-3023.1399 6350.4971 330.2473 0.290 0.033 -0.956 176 122 106
-2369.3320 6108.2153 51.8379 0.110 -0.647 0.755 69 49 38
-2358.9390 6106.0903 47.0836 0.117 -0.653 0.749 98 78 67
-1987.3845 5243.9932 26.7858 -0.019 -0.771 0.636 171 143 140
-1977.9944 5240.4712 22.7952 -0.019 -0.771 0.636 176 148 144
-1979.8555 5266.1826 18.8238 -0.140 -0.847 0.513 183 155 151
-4364.3857 2714.2439 1676.8589 0.928 -0.116 -0.353 31 34 35
-4483.4121 2857.9661 1708.1500 0.756 0.169 0.633 90 85 81
-4370.8076 2867.3760 1650.6562 -0.329 -0.941 -0.083 111 98 89
-4221.4487 2819.4177 1585.9917 0.606 -0.088 -0.790 41 48 53
-4211.0767 2823.6550 1580.0494 0.627 -0.133 -0.768 108 123 143
-3505.9526 2683.9163 1258.1399 0.972 -0.227 0.065 87 41 21
-3513.7322 2699.0581 1259.0822 0.958 -0.258 0.128 75 40 23
-3514.8232 2709.5371 1257.6115 0.974 -0.163 0.158 95 76 63
-3557.4124 2749.5425 1270.9988 0.278 -0.212 -0.937 92 91 84
-3755.8572 2932.5447 1334.0302 -0.019 -0.089 -0.996 113 162 193
-3847.4875 3031.2917 1360.4011 0.025 -0.958 -0.284 118 164 197
-3059.6365 2534.4319 1066.0931 0.860 0.277 -0.428 165 134 112
-2886.2480 2566.5471 974.1827 0.072 -0.982 0.172 79 52 44
-2883.1082 2635.5378 959.3939 0.572 -0.451 -0.685 139 111 106
-2876.7693 2639.2595 955.5450 0.542 -0.455 -0.706 193 159 152
-2903.9238 2698.9771 957.5174 0.467 -0.353 -0.811 159 108 83
-2764.3403 2818.0190 865.6479 0.195 -0.716 -0.670 86 39 15
-2763.0481 2826.3687 863.4070 0.240 -0.716 -0.656 87 38 15
-2368.4436 3036.4487 627.9514 0.855 0.478 0.199 170 86 40
-2388.2520 3070.5239 631.2101 0.855 0.478 0.199 145 75 35
-2407.0110 3113.9834 632.1497 0.588 -0.256 0.767 103 42 11
-2239.6370 3409.6606 492.6488 0.991 0.039 0.125 22 19 14
-2225.5623 3400.8945 487.3699 0.988 -0.044 0.145 30 25 21
-2249.3928 3447.1401 490.2831 0.362 -0.813 -0.456 31 27 24
-2252.7620 3487.5410 484.1983 0.070 -0.816 0.574 28 22 18
-2243.1760 3485.3237 479.8829 0.070 -0.816 0.574 35 25 19
-2233.6360 3483.1177 475.5882 0.070 -0.816 0.574 60 41 33
-2223.4695 3479.9233 471.1732 0.105 -0.812 0.575 104 81 73
-2214.2920 3478.1411 466.9764 0.105 -0.812 0.575 167 144 136
-2199.7725 3468.3042 461.6830 0.077 -0.906 0.416 204 181 173
-2189.7866 3465.1697 457.3459 0.091 -0.899 0.428 197 177 168
-2186.5537 3472.1604 454.4058 0.842 -0.442 0.309 194 174 165
-2186.1140 3483.3933 452.0334 0.856 -0.437 0.276 202 178 171
-2196.2290 3510.7126 451.7945 0.907 -0.306 0.290 208 180 172
-2222.1509 3562.3101 454.7150 0.801 -0.485 0.350 208 177 167
-2837.2395 5259.3896 433.3192 0.808 0.229 0.543 180 140 132
-2427.5427 6000.4551 88.5292 0.549 -0.125 0.826 32 22 10
-1994.1974 5249.5171 18.2873 -0.070 -0.813 0.578 173 145 141
-1982.7261 5261.4995 10.3153 -0.140 -0.847 0.513 177 149 145
-1978.8508 5272.3369 6.3196 -0.113 -0.841 0.528 203 174 170
-1974.4771 5281.9014 2.3215 -0.124 -0.832 0.540 239 210 206
-1964.9506 5277.9253 -1.6269 -0.124 -0.832 0.540 245 218 214
-1942.3331 5239.2515 -5.3927 -0.147 -0.836 0.528 233 210 209
-1886.8760 5133.4980 -12.5301 -0.199 -0.892 0.405 229 210 216
-1934.0101 5366.0527 -33.8358 -0.132 -0.981 0.144 232 213 217
-1697.1160 5727.4526 -220.3269 0.726 0.053 0.685 250 240 248
-4368.1484 2712.0640 1667.6829 0.928 -0.116 -0.353 45 44 38
-4390.0874 2874.4436 1647.1025 -0.329 -0.941 -0.083 92 79 70
-4227.3657 2818.5811 1577.7252 0.626 -0.118 -0.771 48 55 61
-4220.2231 2824.8157 1573.0007 0.624 -0.151 -0.767 122 136 156
-4278.1069 2925.6335 1582.0320 0.574 -0.769 -0.281 109 185 218
-4341.4570 2976.7419 1603.3660 0.759 -0.567 0.320 109 182 219
-3506.8730 2690.0161 1247.5770 0.955 -0.132 0.267 75 41 23
-3006.7861 2569.9116 1024.3917 0.008 -0.946 -0.325 102 52 27
-2885.6265 2642.5996 950.6425 0.534 -0.406 -0.742 200 171 161
-2882.4556 2658.1108 946.0816 0.126 -0.615 -0.779 180 146 130
-2919.7991 2708.3235 954.7748 0.504 -0.342 -0.793 150 105 80
-2934.7161 2730.4329 957.8507 0.881 -0.472 0.010 137 86 58
-2924.2588 2730.8142 952.6245 0.879 -0.476 0.020 115 60 28
-2772.1621 2820.9297 860.2629 0.195 -0.716 -0.670 68 39 22
-2765.6052 2824.3083 856.3790 0.215 -0.707 -0.674 70 38 22
-2760.8430 2829.3762 853.0529 0.222 -0.707 -0.671 75 30 15
-2747.3474 2835.7029 845.1804 0.293 -0.735 -0.612 125 67 43
-2311.0566 2923.2849 613.2803 0.809 -0.559 -0.180 197 109 61
-2305.7344 2936.5444 608.0947 0.452 -0.837 0.308 204 116 68
-2371.1304 3044.8223 619.3852 0.855 0.478 0.199 145 75 35
-2364.3257 3314.1199 563.9739 0.203 -0.651 0.731 181 91 58
-2223.2703 3414.7625 475.0175 0.981 0.173 -0.089 26 23 18
-2233.1123 3440.7974 474.8340 0.993 0.076 0.085 26 23 18
-2249.5867 3476.7178 476.0074 0.364 -0.762 0.536 28 22 18
-2242.1077 3477.5840 472.1550 0.364 -0.762 0.536 35 25 20
-2232.9514 3475.9365 467.9619 0.107 -0.815 0.570 54 35 27
-2223.7778 3474.2109 463.7755 0.107 -0.815 0.570 70 47 39
-2214.9070 3472.8831 459.6613 0.105 -0.812 0.575 105 82 76
-2203.0793 3467.0854 454.9543 0.099 -0.921 0.377 151 128 122
-2193.1157 3464.0015 450.6412 0.110 -0.918 0.382 196 176 167
-2188.8906 3469.4963 447.4973 0.906 -0.386 0.175 201 181 172
-2185.4612 3476.1941 444.5127 0.906 -0.386 0.175 201 178 170
-2211.4937 3551.8577 442.7127 0.925 -0.244 0.292 209 176 167
-3012.2451 5069.9961 543.7843 0.662 -0.445 0.604 210 173 165
-2916.6492 5127.9995 485.4694 0.799 0.303 0.519 192 151 145
-2921.5691 5266.4263 461.1340 0.678 0.170 0.715 180 141 134
-2868.0701 5210.0801 445.6663 0.702 0.241 0.670 183 142 136
-2953.2410 6067.4048 321.9002 0.417 0.011 -0.909 191 138 122
-2197.1675 4600.8872 232.8636 0.189 -0.051 -0.981 186 135 118
-2218.7346 4730.8071 218.3750 0.199 -0.222 -0.955 183 126 109
-2618.1853 5726.0659 222.7966 -0.178 -0.984 0.002 165 110 89
-2395.6665 5310.2231 193.5446 -0.031 -0.962 -0.272 155 98 78
-1669.3760 3867.2461 114.6319 0.990 0.023 0.137 134 88 65
-2421.2515 5811.8530 109.1796 0.866 -0.499 -0.034 113 86 67
-2318.9282 5906.5674 40.4534 0.759 0.151 0.634 96 76 65
-2010.9655 5280.6079 9.7196 -0.345 -0.936 0.073 173 145 141
-1983.2612 5292.6558 -6.2598 -0.328 -0.938 0.113 238 210 206
-1920.1348 5230.8818 -25.4219 0.402 -0.092 -0.911 223 204 208
-1918.2213 5331.9790 -45.9080 -0.139 -0.980 0.141 228 212 217
-1916.2885 5348.2983 -50.0150 -0.156 -0.978 0.137 230 216 221
-1864.9386 5228.7471 -52.2054 0.584 -0.787 0.200 235 222 229
-1875.6741 5279.6494 -56.7559 0.812 -0.367 0.454 241 228 235
-1879.0020 5310.3770 -61.0562 0.750 -0.443 0.491 241 228 235
-4350.6909 2687.4648 1652.4586 0.958 -0.111 -0.263 54 49 42
-4371.9116 2709.8850 1658.5089 0.928 -0.116 -0.353 61 55 47
-4468.2061 2850.8789 1678.3174 0.697 0.118 0.707 98 92 89
-4446.3887 2892.7378 1659.4545 0.671 0.073 0.737 110 97 88
-4395.4253 2873.0891 1638.2639 -0.330 -0.940 -0.082 84 71 62
-4239.0371 2821.2620 1571.5887 0.610 -0.096 -0.787 67 74 80
-4228.9102 2825.6833 1565.7563 0.624 -0.151 -0.767 139 154 176
-4411.9634 3005.3147 1620.6287 0.700 -0.448 0.556 109 185 218
-4362.7266 2985.4717 1600.3234 0.679 -0.552 0.484 109 182 219
-3530.4600 2712.1128 1245.0126 0.893 0.134 0.430 98 74 57
-3061.6812 2528.1340 1050.7263 0.870 0.209 -0.447 194 175 151
-2918.5815 2558.2166 974.6206 0.126 -0.964 0.232 81 54 45
-2896.4690 2602.4822 955.1440 0.514 -0.538 -0.668 151 126 119
-2904.1963 2617.8442 955.9452 0.413 -0.677 -0.609 150 125 118
-2907.4656 2647.7205 951.7311 -0.032 -0.658 -0.752 147 120 112
-2892.3198 2644.1047 945.0004 0.534 -0.406 -0.742 193 168 155
-2887.3743 2667.2595 938.0627 0.126 -0.615 -0.779 130 95 73
-2925.2151 2708.7078 948.5656 0.503 -0.348 -0.791 111 71 47
-2937.6899 2728.7036 950.7947 0.880 -0.474 0.004 103 58 30
-2919.0444 2731.4016 941.1163 0.890 -0.456 0.010 79 26 0
-2735.9131 2772.9395 843.1281 0.974 0.216 -0.069 52 35 22
-2779.5544 2823.4207 854.7191 0.267 -0.703 -0.659 53 35 22
-2771.1606 2825.0825 850.2749 0.240 -0.704 -0.668 55 33 22
-2766.2073 2829.9780 846.8897 0.240 -0.704 -0.668 56 21 12
-2741.3503 2825.4741 835.5649 0.066 -0.838 -0.541 91 41 21
-2657.8699 2927.3555 774.7413 0.856 0.126 -0.502 202 110 63
-2330.9434 2941.9287 611.4171 0.384 -0.896 0.221 197 109 61
-2310.0999 2927.1018 604.0731 0.816 -0.553 -0.170 201 113 65
-2303.6501 2929.2283 600.4927 0.771 -0.321 0.551 210 122 74
-2354.3027 3019.5620 607.7632 0.855 0.478 0.199 145 75 35
-2340.5234 3344.0930 537.7897 -0.034 -0.890 -0.455 133 85 48
-2236.0623 3404.1218 474.8185 0.985 0.102 0.139 29 26 21
-2235.1680 3414.4199 472.3737 0.717 -0.316 0.622 31 28 23
-2233.5364 3435.3547 467.4953 0.995 0.090 0.038 25 23 18
-2248.0945 3468.3953 468.2063 0.361 -0.761 0.538 27 23 17
-2241.7551 3470.9202 464.6026 0.372 -0.755 0.541 33 24 18
-2232.7139 3469.4368 460.4532 0.099 -0.912 0.399 42 24 15
-2222.2043 3465.7280 456.0165 0.099 -0.913 0.396 39 19 10
-2213.6838 3464.9077 451.9936 0.099 -0.913 0.396 55 32 26
-2205.1421 3464.0100 447.9754 0.099 -0.921 0.377 91 68 62
-2196.4971 3462.9109 443.9458 0.432 -0.884 0.178 153 133 126
-2188.7739 3463.1492 440.1081 0.901 -0.398 0.171 189 169 160
-2181.4592 3463.9653 436.3584 0.776 -0.627 0.068 201 178 170
-2177.0264 3469.1116 433.1801 0.776 -0.627 0.068 199 173 165
-2799.2681 5079.0771 425.0578 0.675 -0.283 0.682 198 157 151
-2239.9893 4765.0015 211.6851 0.195 -0.244 -0.950 184 127 110
-2714.7183 5853.5088 232.7155 0.440 -0.175 -0.881 171 114 95
-2422.3311 5824.0352 94.9254 0.600 -0.181 0.780 117 88 70
-2330.8965 5899.7617 35.2915 0.734 0.166 0.658 105 84 73
-2332.3274 5949.9512 26.2185 0.708 0.081 0.701 143 123 112
-2338.0427 5987.8247 21.6474 0.740 0.246 0.626 161 141 130
-1995.2056 5228.0879 1.3264 -0.220 -0.949 0.225 173 145 141
-1960.9204 5263.8652 -22.4723 -0.286 -0.928 0.240 221 199 197
-1975.6769 5323.8818 -26.9180 0.339 -0.302 -0.891 218 197 199
-1883.2313 5287.9229 -65.2950 0.775 -0.437 0.456 241 228 235
-1880.9846 5303.2041 -69.3743 0.372 -0.339 -0.864 238 226 230
-1850.2086 5347.3403 -93.0785 0.177 -0.305 -0.936 249 238 242
-4353.5879 2684.8264 1643.0251 0.958 -0.111 -0.263 67 58 48
-4447.1631 2769.4712 1672.1796 0.744 0.269 0.612 88 79 70
-4395.6206 2750.5957 1650.6759 0.608 0.027 0.794 89 81 73
-4494.2520 2883.5789 1672.8177 0.742 0.120 0.659 124 114 105
-4422.6016 2873.9075 1639.6740 0.671 0.073 0.737 122 111 101
-4247.9961 2822.2695 1564.4132 0.597 -0.096 -0.797 82 93 99
-4241.0649 2828.6682 1559.7677 0.629 -0.146 -0.764 150 169 190
-4408.8696 2998.5959 1608.4905 0.653 -0.420 0.630 108 185 219
-4380.8252 2992.1624 1596.0372 0.712 -0.552 0.434 109 182 219
-3673.7542 2748.5854 1298.0297 -0.114 -0.966 -0.233 84 38 21
-2910.6138 2619.0742 950.2172 0.413 -0.677 -0.609 131 104 96
-2906.3252 2624.5403 947.0472 0.413 -0.677 -0.609 136 109 101
-2912.0093 2647.3918 945.3430 0.348 -0.518 -0.781 179 151 143
-2898.2910 2644.9937 939.1045 0.534 -0.425 -0.731 176 152 139
-2886.4905 2662.3467 929.9280 0.504 -0.414 -0.758 98 66 46
-2735.3401 2834.3735 822.2486 0.317 -0.609 -0.728 179 106 71
-2724.3792 2833.4043 817.0782 0.293 -0.587 -0.755 189 103 61
-2412.9688 2781.1672 675.0282 -0.013 -0.979 0.203 194 101 50
-2318.5466 2932.2664 599.1994 0.509 -0.774 0.377 205 117 69
-2363.5901 3046.0234 598.9060 0.835 0.386 0.393 102 43 12
-2390.1648 3088.4551 603.5765 0.858 -0.323 0.399 82 30 4
-2385.2231 3092.8149 600.3041 0.869 -0.312 0.384 66 19 2
-2300.0325 3122.1448 552.8849 -0.191 -0.968 -0.160 152 112 96
-2263.9858 3159.8384 527.8591 0.896 0.053 0.440 192 87 51
-2280.7422 3203.3359 527.5184 0.827 -0.018 0.562 186 88 50
-2337.0845 3344.9976 527.2753 -0.016 -0.912 -0.411 134 87 49
-2331.8152 3349.1709 523.8794 -0.037 -0.901 -0.432 123 83 45
-2201.0354 3381.9734 453.4825 0.857 -0.187 0.481 24 23 18
-2207.4343 3402.8420 452.5169 0.858 -0.178 0.483 26 24 18
-2206.2200 3424.2903 447.7143 0.782 -0.024 0.623 30 13 5
-2221.6025 3458.7080 448.4835 0.113 -0.911 0.397 28 10 3
-2215.0725 3460.8325 444.8731 -0.030 -0.989 0.143 43 22 16
-2207.2031 3460.9380 441.0037 0.099 -0.921 0.377 59 38 32
-2198.8965 3460.3513 437.0564 0.432 -0.884 0.178 89 71 64
-2189.5901 3458.2202 432.9231 0.901 -0.398 0.171 162 144 136
-2183.4277 3460.7673 429.4095 0.776 -0.627 0.068 199 178 170
-2178.9971 3465.9106 426.2333 0.776 -0.627 0.068 201 177 170
-2828.9424 4942.1846 454.4105 0.752 0.232 0.617 202 163 156
-2747.1616 5104.2329 382.6155 0.506 -0.371 0.779 200 157 148
-2751.6145 5874.7422 233.5962 0.377 -0.797 0.471 175 118 102
-2646.2712 5938.0020 169.6628 0.317 -0.913 0.257 144 93 72
-2401.5588 5762.4448 84.4317 0.266 -0.944 -0.192 117 85 66
-2316.6672 5897.3496 16.4417 0.708 0.081 0.701 169 148 136
-1980.7358 5324.8550 -35.5104 0.308 -0.312 -0.899 212 191 193
-1933.8036 5221.9507 -38.2704 0.353 -0.029 -0.935 212 192 197
-1934.3153 5350.5205 -63.2494 -0.367 -0.930 -0.018 221 205 211
-1892.4399 5387.5503 -90.9956 0.265 -0.611 -0.746 242 230 234
-1884.7358 5387.9517 -94.8422 0.256 -0.613 -0.748 247 236 240
-1832.5616 5306.1411 -104.3052 0.154 -0.252 -0.955 249 238 242
-1811.4164 5267.5552 -107.0749 0.402 -0.026 -0.915 249 238 242
-1823.2998 5323.3608 -112.2139 0.410 -0.021 -0.912 249 238 242
-1692.9989 5313.1147 -173.9291 0.570 -0.767 0.294 239 229 237
-4393.6250 2640.9421 1659.8483 -0.030 -0.868 -0.495 33 23 14
-4491.3672 2705.0745 1694.7941 -0.145 -0.987 -0.076 48 34 21
-4461.4966 2709.6060 1679.3442 -0.251 -0.944 -0.215 72 55 40
-4400.5923 2707.0149 1650.1812 -0.136 -0.989 -0.060 92 75 60
-4378.1416 2704.7966 1639.6808 0.990 -0.113 -0.090 92 76 60
-4382.1753 2717.5317 1639.1287 0.883 0.117 -0.454 92 76 60
-4351.7563 2710.6736 1625.6631 0.810 -0.500 -0.307 95 78 65
-4396.1406 2757.0942 1638.1121 0.703 0.118 0.702 69 52 39
-4428.5430 2829.4146 1639.6031 0.746 0.169 0.644 136 119 106
-4260.1592 2825.2209 1558.3885 0.626 -0.116 -0.771 101 120 130
-4260.5596 2836.1306 1556.4269 0.626 -0.116 -0.771 150 184 208
-4273.8066 2854.9705 1559.1570 0.563 -0.009 -0.827 146 186 214
-4275.7183 2866.9084 1557.7284 0.563 -0.009 -0.827 134 180 208
-4428.8638 2995.1096 1607.0035 0.940 -0.072 -0.333 118 184 225
-4413.5034 2996.7444 1599.1963 0.603 -0.475 0.641 115 185 227
-4378.4839 2985.9395 1584.2693 0.712 -0.552 0.434 107 178 217
-3646.0173 2686.0488 1286.6654 0.036 -0.920 -0.391 119 157 180
-3060.1367 2572.4934 1023.6481 0.033 -0.948 -0.317 204 165 145
-2986.7136 2586.8181 985.0416 -0.154 -0.691 -0.706 101 65 50
-2912.7527 2625.7795 941.3025 0.413 -0.677 -0.609 125 87 77
-2910.6804 2642.1602 937.0547 0.507 -0.514 -0.692 165 128 118
-2902.8689 2644.7075 932.7449 0.288 -0.827 -0.483 157 122 118
-2839.5886 2870.8000 857.2166 -0.348 -0.937 -0.034 69 25 20
-2751.9155 2836.1658 821.3453 0.073 -0.836 -0.544 143 78 43
-2741.9368 2836.2058 816.4754 0.320 -0.600 -0.733 181 105 72
-2732.1951 2836.4336 811.6838 0.293 -0.587 -0.755 188 102 69
-2657.6245 2898.1421 763.1508 0.981 0.190 -0.045 197 101 52
-2655.3435 2905.5935 760.5664 0.986 0.166 -0.004 195 99 50
-2657.3486 2917.4392 759.2017 0.986 0.166 -0.004 195 99 50
-2651.2441 2921.0166 755.5201 0.978 0.210 0.005 195 99 50
-2319.3538 2928.3972 592.3501 0.509 -0.774 0.377 196 110 61
-2373.0215 3083.1641 587.9039 0.790 -0.318 0.524 53 22 4
-2201.7708 3423.3403 437.2149 0.857 0.006 0.515 26 19 16
-2215.5071 3455.3545 437.5790 0.109 -0.918 0.381 27 20 17
-2206.1631 3453.2637 433.4395 0.469 -0.866 0.172 36 28 26
-2201.2944 3457.7935 430.1718 0.432 -0.884 0.178 54 47 44
-2193.4604 3457.8772 426.3382 0.387 -0.914 0.126 73 65 62
-2187.0708 3460.0923 422.7870 0.387 -0.914 0.126 139 130 126
-2180.1575 3461.4944 419.1414 0.353 -0.916 0.188 194 179 176
-2171.6501 3460.4536 415.2020 0.363 -0.922 0.136 199 178 171
-2825.7595 4962.5425 436.9680 0.766 0.251 0.592 206 169 161
-2569.9939 4608.8052 382.2776 0.474 -0.219 -0.853 205 168 160
-2564.5955 4632.2065 375.0211 0.465 -0.242 -0.851 205 168 159
-2452.0176 4451.5820 355.8755 0.607 -0.786 0.117 203 165 156
-2754.7673 5035.3174 387.9911 -0.149 -0.916 0.372 201 163 152
-2753.1172 5050.4321 384.1989 -0.092 -0.978 0.188 198 160 149
-2440.9221 5235.6118 195.4769 0.622 -0.652 0.434 183 127 111
-2508.8716 5458.2393 184.5742 0.069 -0.728 0.682 173 116 97
-2622.9412 5874.2925 157.9053 0.741 -0.571 -0.354 156 102 79
-2480.5051 5821.8638 98.8689 0.297 -0.941 -0.163 124 82 59
-2420.6211 5772.2095 79.5069 0.222 -0.957 -0.189 108 74 53
-2407.1238 5762.8394 74.7828 0.266 -0.944 -0.192 120 87 63
-2399.0342 5766.0527 70.2060 0.266 -0.944 -0.192 122 88 64
-2380.7917 5745.2471 65.4305 0.276 -0.931 -0.238 123 87 66
-2312.5803 5850.7998 11.3285 0.721 0.077 0.689 173 143 126
-2305.9607 5857.3267 6.8131 0.721 0.126 0.682 179 149 134
-2137.1465 5479.6494 -0.7784 0.744 0.265 0.613 176 147 130
-1953.9542 5369.4419 -68.2508 -0.408 -0.913 -0.019 177 156 159
-1885.3944 5290.1621 -85.9835 0.325 -0.830 0.454 240 229 233
-1890.1674 5324.8477 -90.5148 0.079 -0.892 0.445 224 213 217
-1883.1636 5327.0625 -94.3651 0.066 -0.884 0.462 219 208 212
-1875.1914 5326.5376 -98.1457 0.079 -0.882 0.464 230 219 223
-1830.4375 5309.0195 -116.4887 0.531 -0.146 -0.835 242 231 237
-1661.5038 5224.6118 -182.1140 0.150 -0.944 -0.293 235 224 230
-1683.6919 5315.8936 -189.3481 0.657 -0.752 0.051 250 239 247
-1684.3624 5624.7944 -250.0872 0.785 0.110 0.610 250 238 246
-4492.7310 2701.5095 1684.5352 -0.142 -0.988 -0.063 51 36 22
-4388.8252 2716.9817 1631.0161 0.877 0.114 -0.466 103 86 70
-4356.2095 2708.9038 1616.7925 0.810 -0.500 -0.307 103 86 70
-4344.6782 2712.7456 1610.4301 0.804 -0.533 -0.264 91 74 58
-4350.5552 2726.5503 1610.5337 0.931 -0.357 -0.079 78 61 45
-4278.8350 2842.8149 1552.5660 0.533 0.005 -0.846 151 185 207
-4283.9966 2856.7075 1552.3049 0.556 -0.017 -0.831 151 192 219
-4285.8330 2868.6060 1550.8268 0.563 -0.009 -0.827 144 188 216
-4408.3311 2977.5420 1588.5959 0.631 -0.473 0.615 115 179 220
-4406.3721 2987.5200 1585.6578 0.603 -0.475 0.641 113 180 222
-4440.0962 3019.9709 1595.5658 0.646 -0.579 0.496 107 176 213
-3656.8647 2689.1697 1281.2472 0.044 -0.922 -0.384 118 157 181
-3545.7515 2719.9136 1221.1884 0.308 -0.951 -0.036 154 163 177
