ply
format ascii 1.0
element vertex 796
property float x
property float y
property float z
property float nx
property float ny
property float nz
property uchar diffuse_red
property uchar diffuse_green
property uchar diffuse_blue
end_header
-2088.8804 6420.8481 752.5183 0.943 0.239 -0.231 77 47 33
-2133.9639 6612.7061 760.9135 -0.288 -0.082 -0.954 56 35 26
-1887.3784 5895.2041 683.7106 0.692 0.018 -0.722 54 36 28
-1759.6918 5832.7798 614.5940 0.963 0.173 0.205 52 41 37
-1640.0376 5622.3374 564.1489 -0.329 -0.942 -0.074 31 24 18
-1687.2963 5884.5020 567.1942 0.058 0.020 -0.998 22 17 11
-1700.1334 5954.8608 568.1019 0.059 0.022 -0.998 14 9 3
-1679.1674 5965.0234 554.8288 0.025 0.023 -0.999 13 8 2
-1677.4186 6097.9482 541.2710 0.832 -0.520 0.193 9 6 1
-4292.2773 2975.9456 2358.7058 0.619 -0.761 -0.197 198 195 186
-4279.3379 2979.5354 2350.7876 0.612 -0.763 -0.209 193 190 183
-4267.6230 2983.9072 2343.5107 0.910 -0.292 -0.295 205 202 195
-4400.2510 3578.5610 2364.2178 0.161 -0.429 -0.889 218 209 202
-4212.5430 3485.3660 2263.2559 0.928 -0.329 -0.173 217 208 201
-4186.2891 3477.9805 2248.5938 0.914 -0.403 -0.049 217 208 201
-4476.9487 4103.7524 2358.8330 0.686 -0.686 0.243 39 29 27
-4540.2026 4175.9204 2388.9526 0.756 -0.655 0.015 39 29 27
-4597.0947 4242.8853 2415.8459 -0.173 -0.335 -0.926 39 29 27
-3127.1331 3073.7224 1667.2661 0.728 -0.655 0.204 144 88 88
-3120.8743 3079.3699 1663.0614 0.728 -0.655 0.204 169 122 113
-3117.3550 3087.6096 1660.2123 0.722 -0.681 0.126 179 135 124
-3111.3684 3093.5093 1656.1429 0.805 -0.583 0.112 196 153 141
-3131.1582 3124.0645 1664.8025 0.954 0.290 0.074 208 164 153
-3117.8684 3134.7507 1655.9994 0.908 -0.193 0.371 234 191 180
-3100.3230 3188.5593 1640.5764 0.318 -0.912 0.259 239 230 221
-4401.6147 4785.3804 2249.4712 0.712 -0.236 -0.662 217 212 206
-4383.8203 4947.8389 2223.5002 -0.256 -0.962 -0.090 107 91 82
-3766.0571 5675.3662 1792.2042 0.992 0.048 0.117 145 115 91
-3749.9133 5672.6313 1783.0154 0.984 0.175 -0.034 159 129 105
-3764.3108 5715.0161 1787.3856 0.343 -0.939 -0.004 166 138 114
-3731.2683 5687.1455 1770.7109 0.990 0.125 0.069 164 136 112
-3732.3228 5709.8506 1769.1543 -0.024 -0.969 0.244 126 100 75
-3716.3564 5707.1660 1760.0647 -0.024 -0.969 0.244 65 39 16
-3695.5154 5697.0571 1748.8322 -0.247 -0.963 -0.108 69 43 20
-3690.0439 5709.9849 1744.3914 -0.200 -0.906 -0.374 80 54 31
-3670.1484 5701.0908 1733.5961 -0.217 -0.900 -0.378 77 51 28
-3675.0608 5793.9878 1727.5775 0.722 -0.393 -0.569 119 92 64
-3664.1968 5842.0981 1716.6115 0.794 -0.375 -0.478 122 95 66
-3665.5659 5909.8604 1710.9252 0.771 0.169 -0.614 124 97 68
-3669.4058 5960.1509 1708.3582 0.266 -0.837 0.479 120 90 62
-3613.9675 5894.2168 1682.2170 0.064 -0.909 0.412 120 90 62
-3470.1970 5729.2036 1613.8524 0.546 -0.595 0.590 107 78 48
-3658.6929 6215.7056 1677.6191 0.826 -0.094 -0.556 97 70 43
-3609.9353 6180.9727 1652.4016 0.786 -0.583 0.204 93 66 39
-3371.4395 5913.9019 1538.3558 0.217 -0.841 -0.495 86 65 38
-3088.5652 5702.4023 1393.0101 -0.291 -0.956 -0.031 72 61 43
-3089.8811 5726.3687 1391.4858 -0.277 -0.960 -0.033 71 59 43
-2850.8850 5823.9609 1242.2333 -0.266 -0.633 -0.727 37 33 22
-2775.8823 5696.6831 1210.5125 -0.019 -0.982 -0.187 37 33 21
-2793.6987 5754.3481 1215.4213 0.185 -0.859 -0.478 36 34 21
-2876.7373 5989.6577 1241.5028 0.831 -0.416 0.368 33 30 23
-2881.5317 6022.6011 1241.1554 0.815 -0.445 0.372 33 30 23
-2393.0583 5790.3687 977.4366 0.161 -0.975 0.152 20 19 15
-2407.7434 5966.8105 969.1403 0.318 -0.914 0.254 36 36 34
-2397.9165 5967.1289 963.3570 0.145 -0.698 -0.701 36 36 34
-2415.9626 6059.5093 965.0764 0.347 0.000 -0.938 17 18 13
-1959.2856 5762.5986 726.1638 -0.433 -0.372 -0.821 45 18 13
-1950.7679 5762.7661 721.1614 -0.433 -0.378 -0.818 49 18 12
-1947.1196 5851.3843 710.5411 0.547 -0.825 0.138 88 50 33
-1968.9185 5940.2974 714.7894 0.208 -0.899 0.386 93 54 39
-1945.4983 5897.0430 705.2204 0.572 -0.769 0.283 88 53 35
-1928.6394 5872.7046 697.6815 0.577 -0.656 0.487 85 48 28
-2093.9722 6415.8286 742.4672 0.960 0.229 -0.162 60 33 22
-2130.9351 6554.1997 750.8573 0.935 0.226 -0.275 47 30 21
-1928.9751 6243.2056 662.4051 0.308 0.048 -0.950 60 49 43
-1760.8658 5817.3032 604.7708 0.433 0.140 -0.891 40 31 26
-1710.1227 5731.0718 583.3216 0.031 -0.966 0.255 19 12 6
-3707.7910 2541.4766 2047.1663 0.230 -0.065 -0.971 198 194 185
-4300.8257 2977.3342 2350.7849 0.552 -0.790 -0.266 198 195 186
-4283.4639 2977.9868 2340.5923 0.616 -0.749 -0.244 194 191 184
-4438.8877 3603.3574 2370.4746 0.256 -0.243 -0.936 217 210 203
-3114.4612 3079.7949 1648.6705 0.911 -0.410 0.047 109 60 49
-3109.7751 3086.9031 1645.2456 0.911 -0.407 0.060 130 80 70
-4034.4897 5646.1611 1935.9470 0.366 -0.621 0.693 109 83 61
-3735.8833 5661.3022 1760.2610 0.990 0.140 -0.006 159 131 108
-3728.0967 5670.7617 1754.7983 0.990 0.125 0.069 166 138 115
-3743.2996 5714.4404 1759.4219 0.128 -0.935 0.331 147 120 98
-3728.4329 5713.4429 1750.8453 0.128 -0.935 0.331 91 64 42
-3712.7478 5711.1338 1741.9187 -0.021 -0.993 0.117 48 21 1
-3705.0508 5720.7583 1736.4926 0.015 -1.000 -0.003 63 36 14
-3690.8567 5720.5610 1728.2305 -0.236 -0.886 -0.399 67 40 18
-3657.6665 5819.6704 1699.2316 0.429 -0.902 -0.052 122 96 68
-3674.2524 5933.0151 1697.8894 0.726 0.182 -0.663 123 96 68
-3667.9241 5945.1328 1693.0192 0.066 -0.494 -0.867 120 93 65
-3641.7468 5925.7568 1679.6302 0.066 -0.537 -0.841 120 93 65
-3621.2932 5915.2773 1668.7161 -0.023 -1.000 0.011 120 94 66
-3596.6987 5942.1514 1651.7545 -0.118 -0.992 -0.051 110 83 55
-3462.7542 5747.6567 1592.5159 0.498 -0.855 0.148 109 82 54
-3628.5156 6198.4229 1645.4036 0.823 -0.549 0.146 98 71 44
-3599.2126 6172.6235 1630.8157 0.871 -0.452 0.190 89 63 38
-3497.6104 6047.6621 1583.6865 0.088 -0.945 -0.316 79 55 27
-3397.6025 5923.1821 1537.4410 0.120 -0.801 -0.587 75 50 23
-3366.4143 6072.0962 1504.7683 -0.188 -0.951 -0.245 85 61 34
-3358.3477 6080.7744 1499.2184 -0.179 -0.950 -0.255 85 59 30
-3075.3813 5644.4399 1376.5475 -0.272 -0.946 -0.179 73 61 44
-3103.6306 5716.4326 1386.0299 -0.260 -0.965 -0.022 73 62 45
-3094.9155 5744.0112 1378.2643 -0.301 -0.932 -0.203 54 41 25
-3004.4075 5795.8945 1320.4160 0.632 -0.775 0.024 25 20 14
-3147.0266 6086.9131 1375.3318 0.549 0.202 -0.811 30 23 14
-2985.9116 5939.5522 1295.6592 -0.356 -0.685 -0.636 19 12 1
-2967.4194 5949.0703 1283.9451 -0.294 -0.886 -0.358 22 19 8
-2952.8459 5943.3325 1276.0004 -0.290 -0.888 -0.356 22 20 8
-2839.0681 5921.6069 1211.7318 0.657 -0.513 -0.552 30 27 20
-2862.8601 6016.2095 1216.4158 0.430 -0.840 -0.330 20 17 10
-2650.3901 6252.3169 1069.5024 -0.551 -0.829 -0.101 19 19 17
-2406.5317 5806.4580 970.5739 -0.009 -0.987 0.160 15 15 13
-2413.4294 5988.2778 956.9224 0.155 -0.713 -0.684 35 38 36
-2409.1062 6001.9692 953.0691 0.382 0.012 -0.924 35 37 35
-2436.0054 6091.6406 960.0453 0.382 0.023 -0.924 19 21 19
-2362.6597 6009.6660 925.2228 0.325 -0.498 -0.804 23 21 23
-2336.5432 5969.2524 913.9148 0.963 0.195 -0.186 20 18 19
-2367.0840 6069.6797 921.9698 0.958 0.284 -0.037 17 16 15
-1984.3805 5816.4141 723.3128 -0.289 -0.916 -0.277 28 16 8
-1964.9080 5785.5752 714.9500 -0.276 -0.845 -0.457 29 13 5
-1965.2980 5811.3311 712.6737 -0.239 -0.910 -0.338 34 17 6
-1965.0739 5835.4746 710.1958 -0.214 -0.824 -0.524 41 23 9
-1969.8235 5874.1401 709.2080 -0.290 -0.792 -0.537 45 25 10
-1973.6084 5910.2720 707.9036 0.640 -0.767 0.046 49 27 13
-1962.7478 5929.2886 699.7186 0.590 -0.722 0.361 54 33 20
-1943.3855 5897.8276 691.4807 0.659 -0.707 0.256 52 31 15
-2090.9756 6470.2705 721.9379 0.891 -0.448 -0.074 37 26 18
-1756.1929 5783.2964 593.4022 0.991 0.134 0.012 36 30 25
-1754.5962 5829.7231 587.9572 0.396 -0.917 0.050 19 14 10
-1612.9291 5495.3975 537.8068 -0.398 -0.638 -0.659 12 8 4
-2850.7734 1868.9609 1604.2650 0.864 -0.282 -0.417 198 194 183
-4325.8452 2844.9219 2365.6326 0.682 0.094 -0.726 190 187 178
-4302.2998 2974.0264 2339.2014 0.482 -0.680 -0.553 201 198 191
-4914.7886 4080.8655 2586.1047 0.950 0.261 -0.169 165 160 157
-3111.5518 3071.9915 1637.1738 0.907 -0.416 0.068 118 50 40
-3106.6785 3078.8911 1633.6594 0.976 -0.203 0.076 126 56 47
-3094.6526 3078.9714 1626.6591 0.978 -0.193 0.081 131 61 52
-3106.6501 3101.9961 1631.3628 0.882 -0.470 0.043 140 70 61
-4388.2520 4772.4556 2211.7007 0.440 0.355 -0.825 211 200 194
-4477.3667 4976.8379 2243.3469 -0.063 -0.486 -0.872 147 128 119
-4279.3730 4906.3267 2135.1821 0.904 -0.062 -0.424 91 59 48
-3825.5291 5100.0630 1852.1759 -0.449 -0.867 -0.216 149 114 95
-3721.4233 5649.2646 1737.4459 0.990 0.126 0.064 160 127 109
-3751.2732 5714.5493 1748.3595 0.121 -0.934 0.335 163 127 112
-3725.0635 5696.6616 1734.8851 0.992 0.054 0.118 139 102 87
-3726.8770 5720.5063 1733.5864 -0.014 -0.991 0.136 71 36 21
-3710.6450 5717.3442 1724.4604 -0.014 -0.992 0.127 50 13 1
-3697.9788 5719.4600 1716.8868 0.003 -1.000 -0.003 54 16 2
-3718.4292 5857.8926 1715.1166 0.495 -0.861 -0.116 109 85 66
-3683.0850 5846.8101 1695.6594 0.072 -0.973 0.218 113 89 70
-3671.0852 5871.6738 1686.2285 0.984 0.166 0.058 106 82 63
-3676.0427 5901.2925 1686.1881 0.730 0.172 -0.662 108 83 62
-3693.0208 5972.1211 1689.0702 0.989 0.146 -0.010 118 91 68
-3652.3215 5929.9087 1669.5714 -0.004 -0.997 0.073 116 91 66
-3634.4282 5923.5605 1659.7938 -0.008 -0.998 0.065 117 92 67
-3620.1902 5922.9214 1651.5782 -0.008 -0.998 0.065 114 89 64
-3631.5823 5963.2622 1654.2211 -0.179 -0.980 0.082 110 85 61
-3573.8672 5914.6865 1625.4564 -0.151 -0.986 -0.070 110 84 59
-3660.7195 6238.4658 1644.0045 0.909 -0.416 0.002 101 74 47
-3336.8982 6029.2627 1476.3639 -0.175 -0.985 0.015 83 58 30
-3321.7849 6025.2725 1467.9701 0.103 -0.992 0.068 76 54 27
-3156.5293 5776.2871 1396.4534 -0.283 -0.959 -0.021 76 61 47
-3125.3494 5742.3027 1381.6775 -0.293 -0.954 -0.068 75 61 48
-3124.3718 5762.2354 1379.1422 -0.298 -0.931 -0.209 75 61 48
-2978.0947 6024.4473 1268.2130 0.315 -0.833 -0.455 18 17 11
-2795.5503 5686.4009 1195.4327 0.195 -0.974 0.119 20 20 13
-2408.1807 5794.8130 959.4981 0.086 -0.993 0.083 28 29 30
-2402.4133 5874.4038 948.2904 0.255 -0.885 0.391 17 23 22
-2455.6885 6122.7207 954.7621 0.425 0.029 -0.905 19 20 26
-2335.7607 5950.7788 901.9982 0.961 0.196 -0.192 26 21 30
-2345.1272 5998.2314 902.7614 0.955 0.293 -0.042 19 14 23
-2011.3179 5900.0527 718.3569 -0.141 -0.929 -0.341 21 17 9
-2002.3269 5899.4438 713.1892 -0.132 -0.931 -0.341 23 18 11
-1997.5823 5936.1538 706.8078 0.133 -0.817 -0.561 25 20 11
-2001.1654 5971.8833 705.3652 0.393 -0.870 0.298 25 19 11
-2019.6648 6051.2202 708.2924 0.379 -0.883 0.275 30 24 16
-1994.3209 6003.1553 698.2994 0.432 -0.886 0.171 34 29 21
-1959.3239 5977.3975 680.4922 0.970 0.244 -0.004 32 26 19
-2121.5862 6541.6401 719.1575 0.892 -0.447 -0.070 32 26 19
-1947.9138 6261.8564 645.7862 -0.290 -0.934 -0.207 50 46 41
-1753.4750 5781.2397 580.1593 0.927 -0.216 0.307 25 23 20
-1673.6857 5650.8784 546.6305 0.299 -0.131 -0.945 14 11 8
-1670.6025 5666.0938 543.3363 0.813 0.138 -0.565 13 12 8
-1680.4862 5724.0859 543.3602 0.813 0.184 -0.552 12 11 7
-2854.0168 1868.3826 1597.9435 0.864 -0.282 -0.417 199 195 184
-4507.5537 3631.7004 2379.5349 -0.116 -0.479 -0.870 162 157 154
-4644.0229 3826.8877 2439.0679 0.357 0.334 -0.872 113 109 106
-3113.8787 3069.1606 1628.2686 0.895 -0.439 0.074 128 54 45
-3106.9072 3074.0596 1623.7383 0.976 -0.203 0.076 133 59 50
-3104.7666 3083.5425 1621.5480 0.976 -0.203 0.076 141 64 56
-3081.5769 3107.5474 1605.7059 0.960 -0.226 -0.165 113 46 40
-3076.7488 3126.1074 1601.0494 0.874 -0.485 0.032 246 214 213
-3615.3596 3747.6531 1850.9144 0.290 0.193 -0.937 220 214 208
-4529.6841 4968.7773 2258.4495 -0.109 -0.493 -0.863 223 205 195
-4520.5552 4977.5405 2252.2815 -0.109 -0.493 -0.863 231 211 202
-4492.1196 4984.0371 2235.1531 -0.068 -0.489 -0.870 158 138 129
-3862.8232 5531.5210 1815.6581 0.264 -0.654 0.709 101 74 54
-3717.5007 5611.1455 1723.4722 0.973 -0.002 0.231 169 136 119
-3711.5850 5623.1821 1718.8386 0.976 0.199 -0.090 162 129 112
-3737.3491 5682.1968 1727.8580 0.161 -0.921 0.355 167 129 116
-3711.8430 5665.2925 1714.7708 0.994 0.065 0.087 141 103 90
-3718.6763 5696.4873 1715.6063 0.081 -0.992 0.099 91 55 41
-3699.7781 5689.2656 1705.3785 0.994 0.083 0.073 76 38 25
-3719.4392 5739.9409 1711.6965 0.752 -0.126 -0.648 66 26 14
-3717.1450 5843.6968 1699.9758 0.645 -0.757 -0.109 85 62 44
-3666.9600 5852.8965 1669.9733 0.984 0.166 0.058 100 77 59
-3632.0962 5885.3608 1646.5192 -0.001 -0.999 0.048 118 94 70
-3618.0291 5884.9502 1638.4087 -0.001 -0.999 0.048 116 92 68
-3613.4084 5899.5039 1634.2734 0.066 -0.994 0.083 115 91 67
-3607.4668 5911.9810 1629.5808 0.066 -0.998 0.021 110 86 62
-3594.1846 5912.6968 1621.8124 0.066 -0.998 0.021 110 86 62
-3531.1155 5898.6548 1586.6715 -0.245 -0.788 -0.564 106 79 52
-3558.3894 5965.2754 1595.8041 -0.026 -0.591 -0.807 99 72 45
-3420.5464 6002.9565 1512.1532 0.003 -0.789 -0.614 99 72 45
-3405.5862 5999.7866 1503.8015 0.479 -0.810 0.338 96 69 42
-3349.8074 6038.3916 1467.6125 -0.176 -0.984 0.014 83 59 30
-3310.8174 6014.9141 1447.3699 0.075 -0.996 0.038 73 54 38
-3052.8047 5706.2690 1328.7682 -0.362 -0.867 -0.342 34 22 13
-2659.7603 6240.8169 1047.4717 -0.445 -0.855 -0.267 14 12 13
-2634.3264 6231.9150 1033.6248 -0.445 -0.855 -0.267 29 29 29
-2424.1587 5793.5698 955.7378 0.975 -0.023 -0.219 35 35 35
-2368.3137 6039.0952 898.7872 0.939 0.299 -0.168 17 16 24
-1994.4691 5859.1494 700.1738 -0.251 -0.856 -0.452 22 19 12
-1993.5461 5881.4004 697.4105 -0.249 -0.869 -0.427 23 20 13
-1990.5490 5897.8154 694.0298 -0.247 -0.885 -0.395 23 20 13
-2001.4071 5954.2856 694.6663 0.391 -0.877 0.281 23 20 13
-1992.2267 5953.1006 689.4651 -0.044 -0.356 -0.933 25 22 15
-1927.3800 5814.5850 665.7603 -0.210 -0.463 -0.861 26 23 16
-1985.7991 6036.8911 677.3487 0.985 -0.160 0.061 29 24 18
-2007.0172 6152.1533 678.1005 0.952 -0.304 0.041 30 25 19
-1925.1714 6143.9688 631.4922 -0.473 -0.876 -0.098 36 33 28
-1882.4639 6064.6646 614.6866 -0.315 -0.903 -0.294 36 33 28
-1861.9264 6026.9312 606.5646 -0.396 -0.853 -0.340 29 26 21
-1750.8950 5703.6016 574.6061 0.926 0.207 -0.315 24 21 16
-1666.2773 5633.0601 532.6367 0.922 0.199 -0.332 20 19 15
-1604.8416 5505.7441 509.7868 0.202 -0.050 -0.978 12 11 7
-1556.1079 5392.5811 492.8801 0.681 -0.662 0.314 9 8 4
-1635.5417 959.7883 978.3374 0.788 -0.017 -0.616 172 163 154
-1645.7670 1043.6715 975.7189 0.620 -0.021 -0.785 192 185 177
-4529.6196 3643.3059 2377.0178 -0.118 -0.473 -0.873 30 25 22
-4586.1528 3760.1963 2397.7886 0.177 0.262 -0.949 56 52 49
-4663.2471 3836.2922 2434.5791 0.334 0.305 -0.892 48 44 41
-4674.3691 3860.1958 2438.5732 0.334 0.305 -0.892 42 38 35
-3107.9614 3070.0256 1614.2466 0.907 -0.413 0.086 113 36 28
-3106.0586 3079.7146 1612.1632 0.887 -0.447 0.119 119 40 33
-3093.9644 3091.2234 1604.0092 0.865 -0.497 0.075 152 76 68
-3644.7859 3770.7407 1853.0664 0.292 0.216 -0.932 213 207 201
-4424.7910 4618.7070 2217.3630 0.568 0.204 -0.797 212 203 198
-4572.9487 5006.2368 2263.5471 0.080 -0.434 -0.898 224 204 195
-4560.4429 5011.5322 2255.7869 0.041 -0.435 -0.899 231 211 202
-4542.3193 5010.7534 2245.3992 0.034 -0.493 -0.869 234 214 205
-4527.9883 5013.9800 2236.7952 0.022 -0.498 -0.867 142 122 113
-4280.9209 4908.7817 2104.8003 0.971 0.084 -0.223 165 133 122
-3896.3306 5172.1104 1855.9366 -0.227 -0.302 -0.926 149 114 95
-3829.3455 5160.9185 1818.3893 -0.538 -0.801 -0.262 141 109 85
-4008.6733 5619.2329 1875.3818 0.293 -0.700 0.651 118 92 65
-4005.2869 5635.3262 1871.7908 0.643 -0.372 0.670 110 84 57
-3629.9397 5273.2114 1691.8195 0.510 -0.756 -0.410 101 74 55
-3617.3867 5274.8447 1684.4039 0.498 -0.742 -0.449 125 98 79
-3713.4819 5593.8179 1707.4877 0.973 -0.006 0.230 169 136 119
-3699.3853 5593.7280 1699.3560 0.976 0.205 -0.075 159 126 109
-3719.5933 5644.3105 1705.8864 0.975 -0.078 0.206 153 115 102
-3711.6262 5653.3633 1700.3654 0.994 0.066 0.085 126 88 75
-3712.3408 5675.3491 1698.5439 0.995 0.065 0.081 93 57 43
-3701.4954 5680.1313 1691.7947 0.994 0.088 0.066 104 66 53
-3716.1929 5723.2329 1695.9028 0.968 0.246 -0.038 101 61 49
-3825.7019 5997.6494 1731.2610 0.131 0.090 -0.987 76 53 35
-3658.9158 5849.7520 1649.9685 0.683 0.199 -0.703 96 71 51
-3694.7756 5927.6118 1662.7664 0.982 0.186 0.026 97 72 51
-3592.8369 5876.0527 1609.1346 -0.132 -0.988 0.081 110 86 62
-3453.6865 5890.2383 1527.3322 0.410 0.027 -0.912 101 74 45
-3479.8770 6000.6021 1531.2428 0.465 -0.013 -0.885 86 59 30
-3323.7451 6024.2031 1438.6766 0.082 -0.995 0.052 69 49 32
-3147.0762 5776.6963 1361.7983 -0.550 -0.693 -0.466 63 49 36
-2599.4128 6111.0229 1011.5436 0.831 0.391 -0.396 13 13 11
-2560.9177 6046.8247 995.8357 0.076 -0.994 0.079 23 23 21
-2451.6130 5841.8115 953.5433 0.904 0.117 -0.411 37 37 35
-2432.2085 5819.9180 944.5616 0.384 -0.856 0.347 44 42 43
-2375.7451 5826.1860 911.3165 0.305 -0.948 -0.091 24 22 22
-2373.6833 5844.5996 908.2546 0.282 -0.956 0.080 24 20 24
-2373.2917 5867.1079 905.7414 0.001 -0.997 0.079 25 21 26
-2432.6260 6082.4697 918.1236 0.531 -0.679 0.507 31 30 38
-2451.8098 6254.0698 911.7654 0.173 -0.477 -0.862 11 11 17
-1911.9064 6136.7617 611.8849 -0.416 -0.893 -0.170 24 21 16
-1746.8132 5672.2896 563.7388 0.876 0.212 -0.434 12 9 4
-1718.3574 6077.7915 506.1002 0.963 0.227 0.147 13 8 5
-4558.6279 3689.0803 2374.8816 0.062 0.089 -0.994 26 22 19
-4629.5996 3803.6438 2403.9207 0.320 0.290 -0.902 41 37 34
-4687.2212 3864.5005 2430.8118 0.331 0.304 -0.894 46 42 39
-4713.5518 3900.7000 2442.2351 0.926 0.204 -0.317 42 38 35
-4997.0229 4143.9668 2580.3118 0.919 -0.017 -0.394 42 38 35
-3098.0710 3055.6624 1599.5488 0.362 -0.491 -0.792 123 46 38
-3101.1306 3081.4800 1598.6487 0.896 -0.431 0.110 131 52 45
-3653.6316 3773.2219 1845.3386 0.294 0.165 -0.942 208 202 196
-3071.0774 3227.9028 1566.2589 0.815 -0.504 0.288 210 201 196
-4632.4194 5023.2559 2279.8315 0.119 -0.441 -0.890 214 200 193
-4598.8989 5043.8726 2258.4138 0.021 -0.631 -0.775 230 210 201
-4366.3696 5051.0254 2123.8445 0.423 -0.406 -0.810 174 138 125
-4097.3208 4890.3149 1985.5590 0.998 0.064 0.017 169 131 120
-3599.5398 5375.7539 1649.0245 0.823 -0.377 -0.425 155 124 106
-3671.1558 5540.8208 1673.2288 0.980 0.177 -0.088 154 121 104
-3690.0203 5589.1362 1679.1061 0.968 0.096 0.230 136 98 85
-3700.5627 5646.2036 1679.2916 0.956 0.290 -0.052 88 52 38
-3817.2241 5972.2324 1712.8306 0.319 -0.822 0.473 81 58 40
-3814.4944 5990.1851 1709.4089 0.337 -0.820 0.463 85 62 44
-3692.2388 5824.2935 1656.1440 0.102 -0.971 0.218 89 66 48
-3629.2749 5769.9521 1625.5066 0.922 -0.257 -0.289 89 66 48
-3622.7751 5781.2339 1620.6028 0.917 -0.213 -0.338 89 63 46
-3692.1592 5911.0532 1647.1555 0.983 0.179 0.032 88 63 42
-3594.0891 5800.6841 1602.0876 0.806 -0.367 0.465 84 60 36
-3584.8899 5807.6885 1596.0710 0.800 -0.371 0.472 84 60 36
-3565.9749 5820.8096 1583.8320 0.804 -0.367 0.467 98 74 50
-3485.2617 5777.4502 1541.8469 -0.135 -0.645 -0.752 102 75 48
-3461.5933 5781.9985 1527.7557 -0.074 -0.829 -0.555 102 75 48
-3493.6343 5965.9072 1527.2405 0.421 0.026 -0.907 104 77 48
-3541.5781 6229.1309 1527.7028 0.847 0.034 -0.530 96 71 41
-3339.6821 6016.1392 1433.4558 0.088 -0.996 0.029 76 54 25
-3327.3552 6017.0176 1426.2705 0.088 -0.996 0.029 65 46 28
-2667.5947 6275.3481 1019.9183 0.864 0.381 -0.328 30 30 30
-2396.9954 5861.0122 906.8829 0.855 0.156 -0.495 26 15 21
-2383.0229 5851.1235 899.8603 0.671 0.032 -0.741 26 16 21
-2376.0962 5857.9644 895.1685 0.638 0.233 -0.734 25 15 23
-2400.1377 5963.1284 898.1658 0.074 -0.628 -0.774 26 23 32
-2407.2800 6052.8916 893.0242 0.032 -0.998 -0.055 27 22 32
-2445.2415 6220.5264 897.5938 0.917 0.280 -0.284 18 15 26
-1845.5792 5588.6489 617.5897 -0.000 -0.989 0.148 21 16 10
-1839.5126 5740.8359 598.4113 0.008 -0.974 -0.227 25 22 15
-1777.3923 5699.6392 566.9044 0.056 -0.946 0.321 15 12 7
-1634.4534 5541.5542 500.9306 0.308 0.009 -0.951 26 25 21
-1691.0414 5936.6646 492.7737 0.976 0.162 0.146 14 10 7
-1700.4949 5995.9341 492.1054 0.973 0.166 0.158 16 11 8
-1700.8185 6024.3799 489.3596 0.972 0.175 0.159 15 11 8
-1705.8085 6069.0928 487.6228 0.968 0.179 0.174 18 14 11
-1243.9204 711.1382 770.6817 0.613 0.216 -0.760 177 173 162
-2870.2932 1832.3824 1586.3461 0.752 0.157 -0.640 202 198 187
-2874.5461 1842.5453 1587.7233 0.760 0.167 -0.629 187 183 172
-4306.3906 2816.7402 2307.1794 0.579 -0.042 -0.814 177 174 165
-4335.5967 3077.6160 2296.6619 0.720 -0.612 -0.327 209 206 201
-4490.4976 3462.7368 2345.2534 0.889 -0.197 -0.412 213 206 198
-4569.4673 3764.7305 2358.9812 0.285 0.035 -0.958 27 23 20
-3111.1729 3051.6216 1597.0615 0.360 -0.500 -0.788 90 16 8
-3573.5608 3673.4614 1797.2797 0.819 0.258 -0.513 202 203 192
-4569.5210 5041.0903 2225.5903 0.054 -0.513 -0.857 160 140 131
-4076.9402 4769.1133 1971.4813 0.728 -0.065 -0.682 172 136 122
-4080.1211 4790.3721 1971.0836 0.194 -0.975 0.109 179 143 129
-3674.9060 5494.4604 1665.0557 0.779 -0.620 -0.096 165 134 116
-3721.1453 5943.8223 1644.6049 0.684 0.342 -0.644 88 63 43
-3695.6375 5970.0010 1627.2372 -0.377 -0.850 -0.368 93 69 45
-3638.4006 5901.5938 1601.5575 -0.397 -0.724 -0.564 81 57 33
-3539.0845 6096.2285 1524.2450 0.612 0.067 -0.788 106 79 50
-3483.0586 6024.4692 1499.6102 0.746 -0.222 -0.627 101 74 45
-3511.1248 6094.5190 1508.3862 0.825 -0.134 -0.548 94 67 38
-3587.2048 6246.6597 1536.1213 0.700 -0.123 -0.703 87 60 31
-3353.0444 6026.0864 1424.8665 -0.175 -0.965 -0.197 79 57 28
-3345.1118 6034.7544 1419.4102 0.090 -0.996 0.026 64 45 28
-3278.3887 5939.5806 1391.0873 -0.552 -0.466 -0.691 58 43 30
-3226.0496 5891.1655 1366.1271 -0.564 -0.436 -0.702 58 44 31
-2442.0266 5698.3555 936.5743 0.978 -0.053 -0.204 26 26 28
-2646.5564 6210.8032 1000.3227 0.864 0.381 -0.328 43 41 42
-2413.9163 5885.3887 900.8992 0.759 0.089 -0.645 44 25 36
-2406.3838 5890.9727 895.9951 0.702 0.046 -0.710 42 26 36
-2429.1147 5992.7300 898.3962 0.574 0.139 -0.807 27 20 30
-2369.3152 5943.7856 869.2121 0.547 -0.622 0.559 25 19 31
-2446.5154 6231.6309 883.4040 0.840 -0.541 -0.040 14 12 27
-2059.4888 5792.5806 707.3046 -0.148 -0.008 -0.989 21 16 12
-1896.5619 5844.0957 608.4663 -0.267 -0.688 -0.675 21 16 10
-1732.5472 5566.8926 543.3660 0.700 0.224 -0.678 11 8 3
-1825.1443 5931.9180 558.3215 0.539 0.059 -0.840 19 18 14
-1830.0400 5973.5132 556.7816 0.554 -0.620 -0.556 19 18 14
-1688.6943 5908.4526 482.5081 0.952 -0.061 0.299 12 8 5
-1700.7550 5976.2783 482.3359 0.970 0.058 0.236 12 7 4
-1685.8274 5952.4551 476.2639 0.961 0.147 0.234 11 7 4
-1691.1765 5997.9370 474.5778 0.960 0.143 0.242 17 13 10
-4322.1118 3589.9651 2221.7942 0.560 -0.533 -0.635 29 25 22
-3119.0703 3054.0698 1590.8921 0.363 -0.492 -0.792 125 52 43
-4584.2725 5048.1216 2217.1074 0.051 -0.519 -0.853 165 145 136
-4055.7280 4667.1562 1955.3506 0.768 -0.045 -0.639 174 142 130
-4081.8137 4766.1265 1959.7725 0.721 -0.059 -0.690 177 141 127
-4197.0215 5006.4175 2000.1613 0.983 -0.173 -0.056 178 140 129
-3685.2925 5498.4639 1655.4879 0.600 -0.800 0.016 166 135 117
-3682.3477 5514.4243 1652.1129 0.736 -0.639 -0.224 159 128 110
-3703.5308 5627.5620 1652.2307 0.751 0.283 -0.596 90 54 40
-3723.2302 5698.5620 1655.9666 0.967 0.024 0.252 94 54 42
-3701.5227 5708.0752 1642.5493 0.699 -0.466 0.542 90 56 41
-3771.0276 6008.9507 1650.3916 0.760 0.324 -0.563 89 64 45
-3587.1099 5829.6763 1564.2587 0.890 -0.302 0.342 100 76 52
-3435.7937 5953.8472 1464.6005 0.773 0.229 -0.591 95 68 39
-3560.9932 6234.8159 1506.3895 0.964 -0.255 0.079 103 78 48
-3418.9009 6036.8320 1446.1484 -0.427 -0.248 -0.870 103 77 50
-3452.4668 6163.3779 1451.9236 -0.265 -0.841 -0.472 94 70 41
-3272.9729 6189.6343 1346.5358 0.312 -0.950 0.022 23 18 14
-3235.8652 6144.3145 1330.1271 0.509 -0.806 0.303 30 25 19
-2412.9219 5890.6865 886.5853 0.708 0.043 -0.705 64 45 55
-2423.5420 5987.1001 882.4374 -0.008 -0.998 -0.056 31 27 37
-2363.8025 5890.5405 858.5225 0.969 0.071 -0.236 18 15 26
-2397.2747 6019.6768 863.9694 0.930 0.253 -0.269 24 20 31
-2445.1030 6210.9683 871.0352 0.677 -0.421 -0.604 11 13 29
-2452.6912 6254.9062 870.7159 0.610 -0.594 -0.524 10 13 32
-2170.1279 6001.4160 736.0598 -0.198 -0.035 -0.980 29 24 20
-2176.8811 6069.6265 732.6907 -0.347 -0.134 -0.928 30 25 21
-1997.8748 5726.0225 666.7823 0.022 -0.828 -0.560 19 16 9
-1973.5721 5682.2271 657.5319 -0.088 -0.783 -0.616 19 16 9
-1813.0142 5748.0752 558.7722 -0.002 -0.976 -0.218 13 10 5
-1817.3700 5888.3467 546.3950 0.703 0.042 -0.710 19 18 14
-1832.7649 5988.9658 544.5308 0.581 -0.536 -0.612 19 18 14
-1838.9066 6034.9009 543.1732 0.451 -0.055 -0.891 27 26 22
-1674.1079 5839.1470 469.7160 0.978 0.099 0.185 21 17 14
-1678.6060 5880.8149 467.8709 0.969 0.086 0.233 14 10 7
-1673.0854 5888.6880 463.8807 0.967 0.124 0.221 8 4 2
-1674.9712 5921.8970 461.4390 0.965 0.076 0.250 14 10 7
-1248.2272 688.2720 768.8624 0.644 -0.418 -0.640 191 187 176
-1442.8783 849.2749 862.4537 0.685 0.243 -0.687 194 185 176
-2327.9309 1437.8265 1303.4197 0.733 -0.100 -0.673 198 191 183
-2877.0471 1955.5872 1560.6139 0.725 -0.350 -0.593 185 182 173
-4350.2959 3078.7209 2279.2300 0.606 -0.781 -0.149 209 206 201
-4421.4570 3649.7876 2258.4138 0.903 -0.046 -0.428 29 25 22
-3124.9663 3054.6353 1583.7675 0.356 -0.553 -0.753 146 72 63
-3942.1460 5365.8467 1800.9845 -0.240 -0.922 0.305 149 117 92
-3704.3840 5474.7183 1653.8380 0.722 -0.628 -0.290 134 105 87
-3687.8604 5511.3169 1640.4927 0.727 -0.619 -0.298 160 129 111
-3677.1790 5515.9917 1633.9054 0.690 -0.645 -0.327 139 107 90
-3650.8059 5579.0562 1612.1055 0.915 -0.397 -0.071 94 54 42
-3624.4031 5621.8833 1592.4628 0.652 -0.534 0.538 82 58 40
-3603.1233 6131.0708 1525.6329 0.704 0.014 -0.710 95 68 41
-3554.0652 6072.1147 1504.0195 0.430 -0.201 -0.880 95 68 39
-3450.8105 5966.1475 1456.5822 0.703 0.180 -0.688 96 69 42
-3519.3633 6150.0835 1475.8734 0.977 -0.212 0.015 103 77 50
-3196.1985 5877.4697 1321.0613 -0.512 -0.682 -0.522 34 21 7
-3043.5974 5952.0039 1226.1191 0.611 -0.072 -0.788 21 18 9
-3055.8269 6020.7598 1225.6989 0.547 0.136 -0.826 20 17 10
-3030.4397 5994.7100 1214.0350 0.501 0.162 -0.850 18 17 12
-3098.6604 6196.4429 1231.2250 0.442 0.267 -0.856 19 18 13
-2471.0918 5848.2173 911.1228 -0.033 -0.986 -0.166 48 44 45
-2433.4976 5994.8037 873.9568 -0.013 -0.999 0.035 60 51 59
-2375.8223 5927.2642 848.3565 0.935 0.202 -0.291 28 18 29
-2438.6902 6178.0972 857.2219 0.829 0.324 -0.456 14 12 28
-2463.0867 6263.3975 861.9554 0.617 -0.582 -0.530 12 12 33
-2368.9006 6054.6655 830.7254 -0.194 -0.506 -0.840 14 11 32
-2224.9158 6181.6304 735.0585 -0.345 -0.134 -0.929 36 28 25
-2201.0728 6142.6504 725.6635 -0.156 -0.015 -0.988 32 27 23
-1940.3083 5596.1641 635.8248 -0.013 0.022 -1.000 19 16 9
-1936.9760 5657.5625 627.3298 -0.196 -0.577 -0.793 19 16 9
-1925.3345 5648.3271 621.6900 -0.010 -0.316 -0.949 19 16 9
-1956.2545 6168.0581 583.4647 0.739 0.177 -0.650 14 11 6
-1830.2002 5935.3979 536.6506 0.628 0.103 -0.772 19 18 14
-1840.2852 5993.2773 536.1773 0.587 -0.528 -0.614 19 18 14
-1737.9763 5848.1743 493.4835 -0.474 -0.445 -0.759 35 34 30
-1722.9492 5851.0527 484.6136 -0.196 -0.164 -0.967 32 33 28
-1667.9681 5798.7158 458.9149 0.978 0.099 0.185 48 44 41
-1672.0007 5838.5073 456.9370 0.975 0.114 0.189 32 28 25
-1664.5630 5839.6802 452.5738 0.968 0.121 0.222 23 19 16
-1668.9275 5881.0225 450.6184 0.965 0.076 0.250 14 10 7
-4354.6880 3077.2627 2269.0461 0.606 -0.781 -0.149 209 206 201
-4479.4668 3791.7778 2262.0845 0.950 0.139 -0.278 33 29 26
-3139.5923 3051.9583 1581.9479 0.246 -0.689 -0.682 183 110 104
-3134.8281 3058.9072 1578.4865 0.309 -0.581 -0.753 141 65 57
-3131.2495 3066.9705 1575.5768 0.250 -0.633 -0.733 136 59 51
-4080.0715 4232.9878 1987.2903 0.379 -0.848 -0.370 210 198 193
-4559.6074 4750.5688 2203.1809 -0.095 -0.707 -0.700 211 199 194
-4197.5898 4808.7065 1991.3199 -0.276 -0.928 -0.250 185 153 141
-1934.2129 2320.2908 977.2814 0.708 -0.690 0.149 187 151 137
-3981.9832 5310.1143 1814.3143 -0.361 -0.905 0.226 163 130 106
-3967.9810 5311.3413 1806.2311 -0.364 -0.904 0.224 164 131 107
-3948.2161 5363.5698 1789.3228 -0.240 -0.922 0.305 153 120 95
-3839.0725 5453.5874 1717.5560 0.003 -0.756 -0.654 60 33 14
-3693.9382 5488.8638 1631.3169 0.720 -0.634 -0.282 161 132 114
-3696.9346 5513.3965 1630.3467 0.743 -0.599 -0.298 157 126 108
-3687.3674 5519.7153 1624.2269 0.727 -0.619 -0.298 133 101 84
-3593.5510 5751.2642 1545.7507 0.615 -0.731 0.296 94 69 46
-3532.0430 5846.3994 1500.4713 -0.116 -0.662 -0.740 90 62 38
-3569.9778 6085.4126 1495.9822 0.969 0.230 0.089 97 70 44
-3541.8960 6061.1636 1482.6796 0.300 0.164 -0.940 94 66 40
-3403.7908 5852.2407 1427.0217 -0.248 -0.940 -0.235 94 67 40
-3379.9143 5855.5630 1413.1044 -0.215 -0.953 -0.214 104 77 52
-3490.4797 6178.8311 1440.6759 0.484 0.208 -0.850 93 67 43
-3424.3799 6087.2954 1413.1161 -0.376 -0.860 -0.345 93 69 41
-3240.8604 5921.8403 1326.9417 -0.458 -0.812 -0.363 36 20 5
-3219.7439 5906.2983 1316.6454 -0.516 -0.680 -0.521 33 20 7
-3089.3167 6070.7607 1224.6888 0.391 0.060 -0.918 27 24 17
-3092.8345 6100.5688 1223.4403 0.407 0.025 -0.913 25 22 15
-3152.2312 6285.9517 1236.9758 0.295 0.011 -0.955 20 16 9
-2789.3474 6286.0044 1030.9479 0.239 -0.868 0.436 12 11 6
-2455.3530 5774.0225 897.0765 0.837 -0.186 -0.514 46 47 42
-2453.2795 5792.0259 893.9389 0.837 -0.186 -0.514 46 44 41
-2384.7754 5885.6958 844.8470 0.030 -0.965 0.259 65 49 58
-2336.3909 5839.1475 822.4460 -0.073 -0.077 -0.994 41 23 33
-2374.7844 6052.5737 821.0036 -0.168 -0.499 -0.850 14 11 30
-2464.5898 6697.4077 801.7737 -0.084 -0.873 -0.480 23 15 12
-2332.0874 6372.7861 761.8952 -0.173 -0.018 -0.985 27 19 16
-2097.0974 5991.1025 670.0441 -0.204 -0.230 -0.951 28 25 18
-1994.4824 5730.4106 640.1725 -0.014 0.023 -1.000 29 26 19
-1988.6107 5884.4922 620.0611 -0.129 -0.057 -0.990 19 16 9
-1993.0656 5922.2495 618.4789 -0.129 -0.057 -0.990 19 16 9
-1816.2251 5821.5649 529.0436 0.674 0.135 -0.726 39 38 34
-1853.0336 5961.7119 534.6807 0.736 0.121 -0.666 36 35 31
-1849.8193 5977.7119 531.1136 0.399 -0.247 -0.883 28 27 23
-1848.6830 6000.3203 528.0066 0.577 -0.549 -0.605 20 21 16
-1865.4902 6079.7515 528.8995 0.444 -0.047 -0.895 24 25 20
-1714.8036 5804.9282 473.2746 -0.351 -0.205 -0.914 37 38 33
-1699.0725 5804.8779 464.3489 -0.360 -0.206 -0.910 37 38 33
-1661.9141 5758.8486 448.2648 0.978 0.099 0.185 61 60 56
-1666.2505 5799.3691 446.3146 0.975 0.114 0.192 51 49 45
-1659.4227 5802.4463 442.1031 0.974 0.094 0.207 41 40 36
-1661.3512 5835.2256 439.6287 -0.496 -0.831 -0.252 28 27 23
-4368.0234 3069.4238 2264.6389 0.749 -0.658 -0.077 206 203 198
-4443.8267 3771.2925 2230.0864 -0.309 -0.908 0.284 30 26 23
-3142.7502 3061.3538 1572.2791 0.311 -0.575 -0.756 150 78 66
-3140.4058 3070.5811 1569.9346 0.240 -0.615 -0.751 123 46 34
-3981.9783 5397.8828 1789.3049 -0.375 -0.886 0.271 153 116 96
-3955.5486 5382.6294 1776.0342 -0.375 -0.886 0.271 152 116 96
-3877.1816 5336.9712 1736.7325 -0.376 -0.885 0.273 143 114 90
-3691.7332 5514.9482 1612.1700 0.735 -0.598 -0.319 150 117 102
-3640.9761 5707.0742 1562.2537 0.748 -0.102 -0.656 95 72 58
-3702.9639 5909.6099 1574.9789 0.130 -0.982 0.140 107 77 58
-3519.4668 5988.3994 1462.4644 0.208 -0.266 -0.941 108 82 58
-3554.9011 6069.6841 1473.5441 0.296 0.096 -0.950 107 81 58
-3355.9080 5845.5884 1385.6813 -0.351 -0.869 -0.349 109 87 63
-3461.6631 6115.4951 1415.7362 0.923 0.371 -0.104 84 59 37
-3241.0364 5930.9751 1311.2665 -0.518 -0.683 -0.515 32 20 6
-3100.2810 5787.1938 1247.4924 0.917 -0.309 0.250 21 17 7
-3094.6890 5820.5264 1240.6508 0.708 -0.525 0.472 30 26 15
-3073.9988 5959.3413 1213.6281 0.349 0.214 -0.912 49 41 32
-3097.6064 6026.6445 1219.5592 0.358 0.212 -0.909 49 41 32
-3148.7480 6240.5977 1224.8881 0.593 -0.008 -0.805 30 24 16
-3216.6763 6420.4644 1243.4755 0.488 0.031 -0.872 20 14 6
-2526.3813 6038.6045 895.0448 0.208 0.144 -0.967 51 43 38
-2391.6165 5862.8828 838.1843 -0.156 -0.946 0.284 71 44 52
-2373.5193 5842.9536 830.1439 -0.235 -0.960 0.155 71 44 52
-2367.6243 5875.4653 823.2213 -0.082 -0.088 -0.993 61 36 45
-2366.3650 5895.9048 820.2537 -0.073 -0.077 -0.994 62 35 43
-2337.7571 5920.6475 801.3374 0.043 -0.874 -0.484 22 20 33
-2456.8401 6685.1401 784.3628 -0.281 -0.222 -0.934 25 15 13
-2399.1223 6559.0771 765.6157 -0.196 -0.045 -0.980 33 22 21
-2380.0515 6589.3779 751.4824 -0.270 -0.065 -0.961 33 25 22
-2074.4956 6035.7344 639.6879 -0.045 -0.003 -0.999 28 25 18
-2052.1672 5997.8071 631.2394 -0.022 0.009 -1.000 25 22 15
-2118.2778 6237.6211 642.1842 0.109 -0.400 -0.910 23 20 13
-1829.7861 5744.7236 533.3421 0.045 -0.962 -0.270 17 12 6
-2015.5862 6336.8003 573.1391 0.878 0.153 -0.454 24 19 13
-1838.4330 5846.2920 527.0278 0.719 0.131 -0.683 44 41 36
-1858.8223 5934.7729 528.8013 0.794 0.124 -0.595 52 51 46
-1861.9281 5996.3081 523.7690 0.767 -0.065 -0.638 32 33 28
-1859.3383 6014.3940 520.3081 0.317 -0.731 -0.604 22 23 18
-1878.1874 6100.0825 521.5184 0.444 -0.047 -0.895 24 25 20
-1770.2639 5966.7197 475.1707 -0.227 -0.180 -0.957 33 35 30
-1741.3516 5898.4810 466.3416 -0.363 -0.212 -0.908 33 35 30
-1715.1653 5864.6055 455.2632 -0.352 -0.203 -0.914 33 35 30
-1683.0547 5836.1484 440.2351 -0.449 -0.889 -0.089 51 52 47
-1650.3419 5752.1924 430.9899 0.961 -0.031 0.276 47 48 43
-1657.8186 5803.4331 429.5664 0.948 -0.038 0.315 39 40 35
-4355.4604 2839.3560 2270.4651 0.948 0.121 -0.294 183 179 168
-4615.5996 3585.4744 2333.7446 0.662 -0.721 -0.204 93 90 83
-4462.5518 3780.8013 2225.6147 -0.172 -0.973 0.153 26 22 19
-4042.9316 3822.8425 1984.3115 0.913 -0.350 -0.208 65 22 16
-3155.7100 3068.4871 1568.3710 0.280 -0.568 -0.774 128 56 44
-3149.4331 3074.0588 1564.2089 0.240 -0.615 -0.751 111 34 21
-3194.1692 3162.6094 1579.5353 0.031 -0.778 -0.627 150 48 46
-3144.1042 3161.6062 1551.4182 0.152 -0.646 -0.748 216 184 177
-3400.3257 3459.7629 1662.5614 -0.215 -0.776 -0.593 205 197 182
-3865.2576 5448.3750 1702.4285 -0.284 -0.796 -0.534 105 78 59
-3640.0591 5631.5107 1554.9789 0.803 -0.173 -0.571 143 120 106
-3645.2749 5660.1182 1554.7220 0.688 -0.189 -0.701 138 115 101
-3586.5669 6109.1899 1471.4225 0.817 0.416 -0.398 104 78 55
-3390.8220 5870.1416 1387.7720 -0.354 -0.869 -0.345 106 81 59
-3372.1238 5860.2837 1378.3308 -0.353 -0.869 -0.345 98 76 53
-3357.6880 5857.5269 1370.4994 -0.353 -0.869 -0.345 85 63 42
-3328.1267 5828.8574 1357.0358 0.986 -0.042 0.163 72 51 30
-3329.8938 5853.5771 1355.2689 0.995 -0.048 0.088 75 53 32
-3371.1499 6013.0864 1360.7014 -0.505 -0.775 -0.381 79 64 47
-3283.9302 5993.9819 1313.6578 -0.552 -0.450 -0.702 32 20 6
-3087.5015 5729.3945 1232.4767 0.941 -0.264 0.211 21 17 6
-3064.0244 5708.2891 1221.5980 0.973 -0.014 0.230 21 17 6
-3063.1060 5728.0273 1218.8739 0.973 -0.014 0.230 24 20 9
-3130.4407 6074.7275 1218.0868 0.418 0.204 -0.885 65 56 47
-3145.8730 6150.1792 1218.3545 0.531 0.079 -0.843 58 51 43
-3192.2576 6333.7510 1223.9889 0.443 -0.005 -0.897 22 15 7
-3213.3247 6398.7500 1228.6021 0.469 0.014 -0.883 19 15 6
-3204.0610 6453.8511 1217.2196 0.476 -0.520 -0.709 21 18 11
-2789.7766 6158.7246 1016.6133 0.730 -0.622 0.283 17 14 9
-2794.8733 6193.6245 1015.5860 0.606 -0.778 0.164 16 13 8
-2772.8247 6169.8926 1005.8067 0.520 -0.851 0.073 16 13 8
-2514.4287 5878.2925 892.7044 0.671 0.123 -0.731 47 42 36
-2506.7095 5883.7778 887.7386 0.095 -0.691 -0.717 62 57 51
-2470.1965 5962.6050 858.3396 -0.079 -0.988 0.135 52 45 39
-2403.2341 5992.8521 817.2016 0.137 0.107 -0.985 70 44 51
-2348.0271 5906.0063 795.7806 0.951 0.309 0.023 35 23 33
-2380.8306 6010.1899 802.6313 0.953 0.296 0.068 23 20 32
-2458.5312 6225.7876 822.3436 -0.208 -0.372 -0.905 18 13 23
-2514.5952 6790.6714 790.8130 -0.298 -0.816 -0.495 21 11 9
-2484.8757 6740.0454 779.7145 -0.281 -0.222 -0.934 23 13 11
-2462.9053 6709.4849 770.7425 -0.204 -0.052 -0.978 25 15 13
-2377.1047 6589.4902 735.7766 -0.375 -0.464 -0.802 29 24 18
-2123.4084 6155.4028 641.2515 -0.129 -0.535 -0.835 34 31 24
-2108.4294 6190.7139 628.8585 0.248 -0.796 -0.553 29 26 19
-2067.6770 6100.1270 616.0059 0.098 -0.708 -0.699 29 26 19
-1859.8445 5970.6309 513.2939 0.998 -0.061 -0.013 32 33 28
-1862.2394 6004.1460 510.8980 0.997 -0.071 0.011 22 23 18
-1869.0797 6051.8423 509.4235 0.686 -0.348 -0.639 24 25 20
-1710.3723 5855.2715 441.9085 -0.428 -0.897 -0.110 45 46 41
-1685.3456 5824.1641 431.2743 -0.425 -0.904 -0.042 47 48 43
-4355.3784 2823.6113 2259.7756 0.982 0.029 -0.184 175 171 160
-4361.9414 2851.2161 2260.3381 0.947 0.162 -0.277 202 198 187
-2863.0879 1991.2968 1515.4681 0.520 -0.749 -0.410 212 209 200
-4388.2051 3074.2061 2249.8491 0.877 -0.447 -0.176 206 203 198
-4548.4902 3515.9897 2289.8972 0.844 -0.302 -0.443 130 127 120
-3173.6992 3068.8298 1568.0072 0.256 -0.932 0.256 122 53 40
-3220.2307 3170.3850 1582.6560 0.626 -0.088 -0.775 142 44 38
-3185.5723 3161.0186 1564.2413 -0.032 -0.769 -0.639 157 62 58
-3369.5530 3423.9526 1637.8536 -0.533 -0.549 -0.644 205 196 181
-3554.3899 3618.1025 1719.7347 -0.266 -0.822 -0.503 208 195 182
-3907.1528 3979.1597 1877.0790 0.760 0.278 -0.587 209 191 181
-3724.4514 4752.7710 1686.8275 0.988 0.081 0.133 178 140 127
-3893.8450 5223.0127 1728.7717 -0.298 -0.895 0.332 171 128 111
-3865.4355 5437.9937 1688.4678 -0.304 -0.817 -0.490 90 63 44
-3819.8481 5395.1694 1667.7001 -0.230 -0.970 -0.074 82 55 36
-3802.6523 5391.1641 1658.4910 -0.233 -0.969 -0.078 73 46 27
-3660.2781 5629.7290 1551.4781 0.787 0.219 -0.577 128 103 90
-3647.7114 5631.4985 1544.2164 0.803 -0.173 -0.571 133 110 96
-3654.7930 5662.8848 1544.6420 0.688 -0.189 -0.701 144 121 107
-3612.9988 5640.9937 1523.6357 0.962 -0.170 -0.212 113 90 76
-3418.3179 5903.6685 1384.5012 -0.393 -0.828 -0.400 98 73 51
-3410.7180 5912.7412 1379.2036 -0.389 -0.817 -0.426 85 63 42
-3343.8140 5930.2368 1339.6283 -0.042 -0.795 -0.605 68 49 29
-3341.0391 5969.6758 1333.6036 0.153 -0.978 0.143 77 64 48
-3286.2620 5962.4019 1303.6472 -0.414 -0.864 -0.286 33 20 4
-3081.4685 5705.5684 1217.6490 0.641 -0.759 0.111 21 17 6
-3066.2568 5699.4004 1209.7998 0.621 -0.777 0.102 21 17 6
-3166.8135 6199.0005 1209.7394 0.531 0.079 -0.843 43 39 30
-3153.1143 6219.6641 1199.7020 0.943 0.331 -0.003 30 26 17
-3192.0500 6366.4658 1204.9597 0.406 -0.196 -0.893 19 15 6
-2676.3225 5922.7661 965.3998 0.716 -0.590 0.373 17 14 9
-2677.0547 5947.2998 963.0336 0.730 -0.545 0.412 16 13 8
-2665.4578 5968.2798 954.1417 0.685 -0.623 0.378 27 24 19
-2651.0200 5959.8901 946.9788 0.680 -0.629 0.377 36 33 28
-2538.6741 5849.0381 896.4004 0.384 -0.900 -0.208 32 27 21
-2530.5645 5853.6763 891.3184 0.384 -0.900 -0.208 31 26 20
-2526.7388 5867.9570 887.5518 0.704 -0.520 -0.484 33 28 22
-2516.3145 5867.3237 881.7659 0.699 -0.510 -0.501 38 33 27
-2403.3140 5790.2627 826.9939 0.522 -0.851 0.061 50 44 38
-2388.5491 5824.3525 814.8376 -0.285 -0.942 0.180 54 36 40
-2387.7971 5892.2690 806.7256 0.006 -0.181 -0.983 55 37 41
-2392.8311 5927.8638 805.5241 -0.016 -0.199 -0.980 56 36 38
-2380.3154 6016.5835 788.4466 0.963 0.267 0.026 18 13 23
-2525.1919 6855.0557 774.9230 -0.210 -0.059 -0.976 19 9 7
-2523.3411 6878.3530 771.2454 -0.292 -0.118 -0.949 19 9 7
-2144.2219 6169.6436 638.4524 -0.222 -0.562 -0.797 40 37 30
-2135.3594 6170.5942 633.3647 -0.129 -0.535 -0.835 40 37 30
-2128.8701 6282.8477 617.0089 0.170 -0.866 -0.471 24 21 16
-1868.1459 6029.4878 499.1892 0.887 -0.184 -0.423 24 25 20
-1714.2061 5848.4131 433.1892 -0.520 -0.481 -0.705 33 34 29
-1698.5492 5822.5874 427.3154 -0.429 -0.901 -0.058 37 38 33
-1690.2299 5820.9004 422.8316 -0.441 -0.892 -0.103 44 45 40
-4496.0225 3458.0403 2253.4124 0.852 -0.505 -0.137 160 157 150
-4561.5620 3520.4929 2282.9529 0.855 -0.302 -0.423 130 127 120
-4625.7393 3582.3623 2311.7974 0.662 -0.721 -0.204 92 89 82
-4425.7480 3796.9521 2175.2009 0.996 0.047 -0.072 37 33 30
-3923.0015 3988.1399 1871.7498 0.769 0.282 -0.575 172 155 145
-3721.5425 4740.3882 1672.6846 0.988 0.081 0.133 179 141 128
-3705.2090 4737.4116 1663.8793 0.713 -0.534 0.454 179 141 128
-3696.6611 4744.0518 1658.3312 0.695 -0.576 0.430 177 139 125
-3687.9036 4750.4121 1652.6979 0.695 -0.576 0.430 174 135 119
-3822.2451 5101.1309 1687.7142 -0.157 -0.880 -0.448 172 131 113
-3829.7617 5398.2646 1657.8546 -0.230 -0.970 -0.074 89 62 43
-3812.5981 5394.3428 1648.6930 -0.233 -0.969 -0.078 79 52 33
-3802.1323 5399.5854 1642.2312 -0.235 -0.968 -0.086 75 48 29
-3779.6560 5388.1162 1630.9597 0.999 0.018 0.029 84 57 38
-3783.7561 5413.5317 1630.3417 1.000 0.018 0.026 79 52 33
-3721.8420 5485.1348 1587.4609 0.983 0.074 0.168 135 108 91
-3684.6931 5593.0127 1554.2889 0.409 -0.843 0.349 97 56 42
-3654.3259 5629.9282 1533.0511 0.947 -0.030 -0.321 87 64 50
-3656.9233 5654.5049 1531.6877 0.946 -0.057 -0.320 103 80 66
-3676.0491 5704.1982 1536.7001 0.717 0.049 -0.696 119 95 83
-3631.5029 5826.0742 1497.7809 0.666 -0.746 0.006 132 101 83
-3431.9656 5870.1919 1380.9849 -0.267 -0.945 -0.188 103 77 54
-3413.7261 5883.1313 1369.2874 -0.222 -0.956 -0.191 91 66 44
-3409.6204 5898.0210 1365.2809 -0.279 -0.907 -0.317 75 53 32
-3310.9680 5882.2974 1311.8401 -0.089 -0.832 -0.548 61 44 28
-3342.8528 5959.6138 1320.8301 0.178 -0.971 0.161 62 49 33
-3361.7415 6014.7671 1325.0837 -0.480 -0.792 -0.377 57 45 31
-3210.0894 5771.5601 1268.0466 -0.400 -0.835 -0.379 43 31 17
-3362.0183 6105.4946 1314.8361 -0.575 -0.486 -0.658 33 20 5
-3088.1064 5704.6421 1207.4109 0.609 -0.787 0.094 22 18 7
-3073.7002 5699.9600 1199.8805 0.622 -0.782 0.044 22 18 7
-3343.2439 6374.9014 1273.4330 0.071 0.163 -0.984 29 20 11
-3133.1985 6190.1899 1176.9896 0.910 0.410 -0.067 26 22 13
-3201.8992 6346.4985 1197.5388 0.909 0.411 -0.068 26 22 13
-3136.0171 6242.6440 1172.5538 0.345 -0.923 0.171 25 21 12
-2656.9727 5866.3628 947.4404 0.833 -0.449 0.325 15 12 7
-2657.9827 5891.2334 945.1544 0.869 -0.398 0.294 12 9 6
-2639.7883 5920.3013 931.6329 0.863 -0.418 0.284 74 71 66
-2625.9390 5912.9531 924.7200 0.864 -0.448 0.229 65 62 57
-2555.7083 5895.0161 887.4486 0.324 -0.904 0.278 64 59 53
-2437.7671 5786.7339 833.8188 -0.221 -0.967 0.128 32 25 19
-2491.8188 6125.2568 825.2725 0.944 0.325 -0.057 38 27 29
-2568.1111 6358.0771 841.3002 -0.273 -0.948 0.163 40 27 29
-2193.8552 6263.5283 642.5638 0.378 -0.293 -0.878 32 29 22
-2182.1450 6257.0317 636.7512 0.193 -0.824 -0.532 32 29 22
-2163.0913 6229.8564 629.1973 0.234 -0.869 -0.437 31 28 21
-2165.1147 6287.8574 623.6801 0.309 -0.837 -0.451 34 31 24
-2157.6572 6293.1157 618.9011 0.304 -0.836 -0.456 34 31 24
-2142.2358 6275.6768 612.2648 0.167 -0.685 -0.709 33 30 23
-2136.6880 6286.2422 607.9467 0.170 -0.866 -0.471 24 21 16
-1200.1394 626.5947 729.3032 0.403 0.268 -0.875 175 167 154
-2854.4988 1795.9559 1516.7719 0.722 -0.145 -0.677 187 180 170
-2899.3696 1875.6393 1532.5616 0.798 0.222 -0.560 181 177 166
-4568.4292 3520.3674 2273.0469 0.843 -0.305 -0.443 130 127 120
-4626.6450 3577.7036 2298.8782 0.653 -0.727 -0.211 92 89 82
-4541.5098 3555.7114 2253.9214 0.633 -0.720 -0.283 19 16 9
-4407.4673 3761.4868 2155.2288 0.167 -0.918 0.359 19 15 12
-4420.7651 3786.9438 2159.6946 0.996 0.059 -0.066 26 22 19
-4428.5054 4948.2051 2029.1992 -0.630 -0.686 -0.363 186 154 139
-3739.3320 4736.3335 1669.1993 0.974 0.176 0.142 190 152 139
-3555.0547 4559.0771 1586.9407 0.922 -0.038 -0.385 173 135 121
-3635.7834 4693.5591 1616.3793 0.659 -0.138 -0.739 172 133 116
-4016.4709 5421.7295 1744.2882 -0.361 -0.893 0.270 171 133 114
-3828.7727 5327.8311 1650.4432 0.319 -0.114 -0.941 131 100 79
-3798.0295 5383.3745 1626.8385 0.817 -0.151 0.557 99 72 53
-3613.0811 5597.4580 1498.7734 0.953 -0.231 -0.197 131 108 94
-3635.7476 5820.5571 1485.5222 0.502 -0.853 -0.145 114 83 65
-3350.7458 5872.4033 1320.4565 -0.245 -0.925 -0.291 56 31 9
-3259.8193 5845.6719 1272.8179 -0.242 -0.894 -0.378 55 43 29
-3464.3618 6272.7529 1337.3827 -0.520 -0.518 -0.679 32 20 6
-3204.5972 6034.5820 1220.0697 0.365 0.313 -0.877 40 33 23
-3456.8638 6571.2402 1298.5458 0.100 0.149 -0.984 25 16 7
-3129.7573 6215.8184 1157.2646 0.392 -0.918 -0.059 36 32 23
-2679.4119 5899.7764 942.6372 0.691 -0.718 0.080 14 11 6
-2670.5120 5903.4229 937.2474 0.258 -0.383 -0.887 17 14 9
-2668.1228 5921.0874 933.8633 0.283 -0.368 -0.886 56 53 48
-2661.0186 5928.6001 929.0265 0.381 -0.328 -0.865 94 91 86
-2654.6169 5937.6328 924.4055 0.843 -0.533 0.079 103 100 95
-2642.8186 5934.8755 918.1414 0.705 -0.698 0.128 105 102 97
-2604.5298 5873.9185 903.8510 0.429 -0.830 -0.357 106 103 98
-2541.2654 5870.3892 868.9556 0.650 -0.572 -0.501 63 58 52
-2528.7678 5865.1382 862.5908 0.585 -0.465 -0.664 64 59 53
-2579.6152 6394.0112 829.5679 0.977 0.212 0.023 28 24 28
-2598.3367 6464.8979 831.7859 -0.206 -0.935 0.289 15 11 19
-2182.7502 6318.7295 616.8350 0.178 -0.962 -0.208 30 27 20
-2160.3738 6281.9717 608.6150 -0.044 -0.918 -0.393 29 26 19
-2151.1089 6282.0366 603.4373 -0.059 -0.917 -0.394 30 27 20
-2134.1348 6260.0576 596.5163 -0.116 -0.862 -0.493 23 20 15
-1666.8085 5704.6274 400.2042 0.775 -0.461 -0.432 35 36 31
-1674.5729 5755.8481 398.5908 0.655 -0.446 -0.610 36 37 32
-4468.4541 3733.5356 2178.6560 -0.008 -0.890 0.456 29 26 21
-4456.2505 3738.0308 2171.3408 0.240 -0.894 0.377 24 21 16
-4420.3481 3751.8838 2149.7463 0.163 -0.908 0.387 19 15 12
-3459.6653 3481.8457 1647.2179 -0.221 -0.240 -0.945 168 156 142
-4431.0654 4960.5815 2013.6534 -0.631 -0.685 -0.364 187 155 140
-3595.0977 4403.9390 1614.1663 0.541 -0.841 0.016 189 153 137
-3583.7505 4406.4678 1607.5586 0.573 -0.819 0.019 188 152 136
-3467.6509 4330.5762 1551.9111 0.090 -0.748 -0.658 184 146 133
-3678.9207 4619.7021 1635.4249 0.961 0.273 -0.047 184 146 133
-3620.3245 4648.5874 1599.4431 0.970 -0.005 -0.242 162 123 106
-3530.0232 4552.5352 1560.5125 0.753 -0.492 0.436 167 128 111
-3522.4763 4559.6265 1555.4819 0.753 -0.492 0.436 174 135 118
-3517.1377 4586.1182 1549.3995 0.773 -0.543 0.329 178 139 122
-3937.1494 5504.0933 1675.0951 -0.119 -0.992 0.051 130 103 82
-3732.2139 5558.6841 1554.7084 0.974 -0.217 -0.071 103 64 49
-3648.2593 5827.9438 1476.3738 0.535 -0.836 -0.124 91 60 42
-3626.4622 5815.2690 1465.7413 0.483 -0.871 -0.090 83 52 34
-3562.2068 5735.7798 1439.3490 0.561 -0.808 -0.181 76 45 27
-3548.0217 5755.5913 1429.1318 0.383 -0.918 0.105 96 65 44
-3529.0684 5746.6719 1419.6396 0.610 -0.791 -0.045 111 80 59
-3438.7119 5856.1138 1356.5273 0.524 -0.526 -0.670 90 64 41
-3433.7776 5891.2339 1349.6558 0.507 -0.059 -0.860 78 53 31
-3417.4673 5885.6382 1341.2427 0.572 -0.017 -0.820 68 46 25
-3314.1799 5927.5239 1278.8788 0.926 0.344 -0.153 46 36 24
-3338.6445 6014.6758 1282.2418 -0.261 -0.933 -0.248 32 20 6
-3258.7068 6426.0825 1189.4351 0.957 0.271 -0.108 43 39 30
-3270.4836 6473.1323 1190.4550 0.256 -0.815 -0.520 44 40 31
-2685.2209 5920.2261 929.9533 0.289 -0.341 -0.895 26 23 18
-2681.5151 5935.0981 926.1446 0.291 -0.351 -0.890 76 73 68
-2674.4097 5942.6675 921.3035 0.787 -0.608 -0.103 101 98 93
-2653.7129 5920.7227 912.3724 0.852 -0.516 0.086 99 96 91
-2620.6868 5871.6660 899.7711 0.876 -0.482 0.023 98 95 90
-2611.5330 5874.3848 894.3608 0.429 -0.830 -0.357 97 94 89
-2542.2769 5857.5884 857.8193 0.660 -0.560 -0.501 74 69 63
-2518.5510 5827.0674 848.2117 0.639 -0.502 -0.582 66 61 55
-2510.0110 5830.5293 843.0555 0.662 -0.490 -0.567 59 54 48
-2581.7695 6016.0054 861.1644 0.579 -0.690 -0.434 61 54 48
-2482.0725 5835.3750 826.9486 -0.044 -0.948 -0.316 51 42 37
-2183.4224 6328.1753 602.9434 0.187 -0.801 -0.569 23 20 13
-2178.6157 6341.0757 598.7542 0.449 -0.780 -0.435 23 20 13
-2166.1172 6332.1577 592.8514 0.383 -0.797 -0.467 21 18 13
-4499.0435 3444.9280 2216.1152 0.532 -0.806 -0.261 160 157 150
-4461.4985 3722.2148 2162.3225 -0.043 -0.900 0.433 29 26 21
-3185.6033 3163.8889 1521.6257 0.343 -0.867 -0.360 168 126 120
-4249.3467 5096.6147 1881.2539 -0.180 -0.724 -0.666 189 153 139
-3477.9526 4241.6895 1555.4382 0.135 -0.730 -0.670 189 153 137
-3511.8757 4488.7544 1544.8490 0.961 0.087 -0.262 151 114 98
-3553.9912 4557.4741 1560.0153 0.682 -0.012 -0.731 155 118 100
-3413.5833 4462.9800 1493.4404 0.135 -0.890 0.435 180 138 122
-3398.3696 4459.8384 1485.3826 0.135 -0.891 0.433 180 138 122
-3879.3904 5278.7573 1654.5540 0.806 0.023 -0.591 158 128 104
-3870.6638 5305.6416 1646.5195 0.416 0.317 -0.852 159 127 104
-3976.7324 5467.1055 1686.0967 0.885 0.360 -0.295 154 122 99
-3992.9216 5508.8110 1690.1079 0.885 0.362 -0.293 149 119 95
-4017.4731 5562.0415 1697.3826 0.878 0.368 -0.306 142 111 90
-3942.8125 5481.1597 1665.6262 0.724 0.084 -0.685 137 108 86
-3935.4333 5491.1074 1660.3533 -0.126 -0.950 -0.284 134 107 86
-3862.8801 5412.0869 1629.5435 -0.419 -0.904 -0.088 137 110 89
-3448.2412 5859.3198 1346.5460 0.524 -0.526 -0.670 82 57 35
-3417.1619 5829.2651 1332.8969 0.434 -0.302 -0.849 72 47 25
