ply
format ascii 1.0
element vertex 785
property float x
property float y
property float z
property float nx
property float ny
property float nz
property uchar diffuse_red
property uchar diffuse_green
property uchar diffuse_blue
end_header
-2827.5205 3314.1860 -0.1806 0.584 -0.612 -0.533 149 111 124
-2816.5930 3345.5652 -14.7900 0.325 -0.638 0.698 156 114 120
-2783.1436 3384.5999 -40.5869 0.350 -0.437 0.829 142 107 110
-2809.5298 3426.2480 -44.2785 0.111 -0.454 0.884 131 102 104
-2793.3259 3418.6829 -47.9890 0.101 -0.467 0.879 125 97 99
-2764.1838 3395.9417 -51.6302 -0.149 -0.947 0.285 119 91 92
-2754.7625 3396.0686 -55.2895 -0.126 -0.944 0.305 113 85 87
-2655.2146 3366.5745 -83.7204 0.243 -0.801 0.548 9 4 1
-2615.5684 3329.7302 -86.7139 0.681 -0.352 -0.642 14 9 6
-2609.0051 3332.6914 -90.2165 0.634 -0.674 -0.378 13 9 6
-2606.0100 3339.9771 -93.7843 0.015 -0.867 -0.499 13 9 6
-2599.2910 3342.7297 -97.2775 0.013 -0.863 -0.506 13 10 7
-2590.7097 3343.1821 -100.7222 -0.003 -0.879 -0.476 14 12 13
-2583.2896 3345.0273 -104.1835 -0.003 -0.879 -0.476 16 12 13
-2574.1138 3344.6814 -107.5915 0.007 -0.869 -0.494 16 12 13
-2577.2139 3370.5325 -114.9806 0.435 -0.842 -0.318 22 16 18
-2566.2576 3367.9387 -118.3262 0.425 -0.838 -0.343 22 15 17
-2613.3323 3460.6155 -131.0102 0.852 -0.478 -0.213 33 27 39
-2590.6936 3443.3713 -133.9789 0.489 -0.813 -0.317 37 31 45
-2589.3145 3452.9626 -137.6915 0.882 -0.452 -0.134 44 38 52
-2597.6606 3486.4385 -145.5970 0.644 -0.076 -0.761 54 48 62
-2563.7651 3454.4329 -147.9886 0.892 -0.340 -0.299 55 49 62
-2449.2922 3318.3596 -146.7784 0.488 -0.851 0.195 54 48 62
-2527.7214 3510.7375 -180.5131 0.947 -0.194 0.256 126 108 124
-2522.5354 3538.7690 -191.8071 0.259 -0.924 0.281 179 142 158
-2503.8464 3525.3623 -194.5329 0.497 -0.866 -0.055 191 153 169
-2502.2952 3534.9487 -198.3100 0.751 -0.446 -0.486 188 150 166
-2501.8704 3546.0913 -202.1711 0.698 -0.513 -0.500 196 159 175
-2500.3713 3555.8147 -205.9736 0.334 -0.750 -0.571 201 164 180
-2494.1819 3559.1709 -209.4637 0.418 -0.716 -0.559 208 171 185
-2492.2317 3568.3162 -213.2476 0.413 -0.722 -0.555 215 178 190
-2479.0603 3562.0703 -216.2316 0.593 -0.626 -0.506 219 189 193
-2490.6267 3589.8533 -221.0114 0.508 -0.672 -0.539 219 189 193
-2510.6655 3629.5222 -226.4831 0.803 -0.597 0.003 219 189 193
-1720.2898 4482.4868 -813.0104 0.975 0.220 -0.015 224 197 204
-1730.2511 4525.8457 -823.5757 0.978 0.208 -0.029 224 193 201
-1732.2330 4548.8013 -830.4332 0.987 0.137 -0.084 225 194 202
-1809.1774 4786.2617 -879.6998 0.741 -0.654 -0.155 227 195 204
-1797.3392 4774.1240 -880.2165 0.619 -0.783 0.062 228 197 205
-1799.0680 4797.6611 -887.3643 0.667 -0.736 0.118 228 197 205
-1705.6578 4605.4946 -859.4515 0.966 0.130 0.221 228 202 208
-1653.3455 4519.2793 -850.9228 -0.129 -0.881 -0.455 227 203 209
-1676.0148 4617.5361 -874.8286 -0.182 -0.917 -0.354 230 204 210
-1700.2202 4721.5273 -900.0477 0.978 0.052 -0.201 232 201 207
-2747.3335 1474.6234 573.2255 0.986 0.059 -0.157 52 42 33
-2655.2810 2050.1997 346.1696 0.267 -0.841 -0.470 122 101 94
-2651.3445 2054.2339 343.3202 0.298 -0.835 -0.463 159 138 131
-2634.6482 2049.3784 338.5571 0.250 -0.920 -0.301 162 141 134
-3101.3257 2598.4270 333.9035 0.990 -0.025 -0.137 153 100 86
-3113.3181 2616.3464 332.5137 0.940 -0.335 0.061 153 100 86
-3265.5105 2874.0981 304.7623 0.898 -0.402 -0.178 124 85 68
-3075.8896 2923.3630 215.8622 0.169 -0.779 -0.603 93 52 40
-3003.3367 2944.6743 181.0266 0.996 -0.043 0.084 118 54 40
-2694.2573 2886.3455 82.3338 0.869 0.140 -0.475 252 194 176
-2725.5759 3063.4160 35.2771 0.233 -0.739 0.632 193 120 115
-2728.7476 3076.7590 32.0414 0.855 -0.188 0.483 172 113 118
-2709.8677 3066.6897 28.1818 0.985 0.043 0.166 171 113 121
-2725.2683 3093.1279 25.2549 0.989 0.040 0.145 168 114 121
-2872.5308 3325.7095 4.0097 0.846 -0.457 -0.276 153 113 123
-2842.5627 3303.6763 -0.0999 0.838 -0.516 -0.178 154 113 123
-2832.0972 3302.9570 -3.8603 0.643 -0.618 -0.452 156 112 123
-2841.6899 3324.3970 -7.3408 0.619 -0.658 -0.430 161 116 128
-2774.2556 3346.7793 -40.5770 0.077 -0.978 0.192 164 121 130
-2785.8870 3371.0947 -44.2369 0.275 -0.506 0.817 164 122 130
-2803.2996 3413.3701 -51.6741 0.111 -0.454 0.884 165 124 129
-2775.0327 3391.8059 -55.2898 0.076 -0.416 0.906 159 118 122
-2760.8899 3386.4824 -58.9210 0.076 -0.416 0.906 151 110 114
-2749.5957 3384.4080 -62.5463 0.045 -0.454 0.890 142 102 105
-2651.0952 3356.0444 -90.7403 0.251 -0.797 0.549 25 11 10
-2609.9602 3317.4526 -93.5982 0.720 -0.330 -0.610 16 6 5
-2627.0854 3349.0500 -97.5857 0.486 -0.384 0.785 25 20 16
-2613.4790 3365.4893 -108.2665 0.435 -0.299 0.849 56 56 54
-2603.6599 3364.4851 -111.6848 0.554 -0.358 0.752 69 66 65
-2638.8521 3452.7380 -127.6532 0.397 -0.757 -0.519 60 40 44
-2630.5310 3465.0806 -134.9481 0.462 -0.711 -0.530 47 22 29
-2607.7524 3482.0205 -149.3016 0.647 -0.083 -0.758 46 30 39
-2616.9746 3505.2781 -153.5297 0.657 -0.084 -0.749 47 30 39
-2451.7456 3315.9968 -153.5860 0.478 -0.858 0.188 65 46 55
-2558.0713 3533.3245 -185.3933 0.665 0.244 0.706 150 112 125
-2524.5400 3512.2246 -191.1759 0.947 -0.194 0.256 140 102 114
-2518.4597 3515.7427 -194.6727 0.954 -0.194 0.231 190 150 160
-2527.5142 3539.4900 -199.1283 0.307 -0.925 0.224 193 152 162
-2522.3755 3544.3181 -202.7018 0.431 -0.510 -0.744 194 153 163
-2509.8682 3539.2153 -205.7813 0.770 -0.416 -0.484 197 156 165
-2506.6877 3546.6465 -209.4742 0.698 -0.513 -0.500 207 167 175
-2505.7397 3557.1211 -213.3283 0.406 -0.725 -0.556 207 167 175
-2481.3933 3559.2739 -223.3517 0.599 -0.617 -0.510 218 184 187
-1708.6945 4754.1387 -917.0088 0.964 0.102 -0.247 235 203 208
-2650.3320 2043.4147 339.5491 0.329 -0.826 -0.457 78 57 52
-2647.1289 2047.9393 336.8153 0.345 -0.769 -0.538 125 104 99
-2640.9109 2050.3699 333.6354 0.306 -0.840 -0.447 135 114 109
-2633.3271 2051.8337 330.2595 0.250 -0.918 -0.307 143 122 117
-2624.1663 2052.1719 326.6604 0.214 -0.912 -0.350 150 128 122
-3102.4829 2603.6326 324.0202 0.958 -0.091 0.273 153 100 86
-2679.3806 2848.2424 81.1195 0.745 0.365 -0.559 223 161 138
-2685.9109 2863.9912 78.3312 0.833 0.131 -0.538 249 189 165
-2697.6357 2885.0105 75.7548 0.869 0.140 -0.475 253 193 172
-2843.3330 3309.8745 -11.0637 0.849 -0.495 -0.184 162 116 127
-2840.2593 3317.3240 -14.7276 0.844 -0.506 -0.178 167 121 132
-2763.9175 3362.2961 -58.8351 0.915 -0.002 -0.403 165 123 128
-2736.7451 3363.8230 -69.6858 0.076 -0.423 0.903 158 113 118
-2736.5549 3374.6338 -73.3779 0.277 -0.483 0.831 156 111 116
-2612.9585 3315.5696 -100.6318 0.737 -0.309 -0.601 16 6 4
-2623.7715 3339.4968 -104.5289 0.491 -0.372 0.787 23 17 13
-2608.5491 3353.8872 -115.1397 0.601 -0.152 0.785 102 102 100
-2632.0376 3393.6748 -119.5241 0.758 0.195 0.622 119 115 114
-2631.3931 3404.0320 -123.2373 0.755 0.191 0.627 124 113 115
-2653.0591 3453.2832 -131.4839 0.792 0.321 0.520 122 99 104
-2622.1995 3483.0745 -153.2016 0.608 -0.216 -0.764 76 54 63
-2619.6538 3491.3254 -156.9330 0.648 -0.086 -0.757 67 45 55
-2536.8789 3465.0737 -179.6402 0.761 0.336 0.556 160 116 131
-2542.1067 3483.3416 -183.7677 0.763 0.344 0.547 156 112 127
-2544.9214 3640.2549 -235.2364 0.750 0.022 0.661 219 184 187
-2524.8699 3624.8149 -237.6965 0.759 0.028 0.650 218 184 185
-2638.5537 2052.1089 325.1734 0.250 -0.918 -0.307 121 100 95
-2629.6680 2052.6553 321.6236 0.245 -0.915 -0.319 148 126 120
-2620.4214 2052.9207 318.0316 -0.155 -0.986 0.061 160 129 123
-2607.6252 2050.6555 313.9462 -0.155 -0.986 0.061 163 128 122
-3187.1882 2933.4961 236.5814 0.244 -0.491 0.837 100 67 50
-2649.9902 2787.2883 82.2566 0.736 0.356 -0.576 177 113 88
-2674.0925 2829.1794 77.2984 0.736 0.356 -0.576 225 164 140
-2705.3928 2878.6907 72.5041 0.855 0.222 -0.469 255 198 174
-2711.8113 2894.4468 69.6365 0.958 0.187 -0.217 248 188 165
-2622.4573 2973.5610 9.1812 0.255 -0.954 0.158 166 115 122
-2596.2805 2974.4626 -1.0380 0.319 -0.921 0.222 170 119 128
-2908.8396 3354.3523 -10.3986 0.425 -0.812 -0.400 169 123 134
-2861.2878 3335.0388 -21.9163 0.716 -0.319 -0.620 174 128 139
-2867.9055 3353.2988 -25.5505 0.694 -0.361 -0.623 174 128 139
-2767.6377 3350.0325 -62.4344 0.915 -0.003 -0.403 175 132 141
-2767.1299 3360.4307 -66.1239 0.915 -0.002 -0.403 166 121 127
-2740.9001 3374.1194 -80.6636 0.059 -0.496 0.866 177 132 137
-2647.8416 3341.0383 -104.7897 0.375 -0.563 0.737 25 7 7
-2617.3506 3315.3586 -107.7036 0.733 -0.319 -0.601 18 8 5
-2620.1824 3329.6372 -111.4329 0.491 -0.372 0.787 19 13 9
-2602.8267 3341.3521 -121.9472 0.601 -0.152 0.785 131 127 126
-2621.4438 3375.0835 -126.2391 0.753 0.191 0.630 154 145 146
-2622.7388 3387.7554 -130.0102 0.752 0.189 0.632 166 151 154
-2635.4778 3414.5767 -134.2049 0.794 0.317 0.519 163 142 147
-2631.1189 3488.5327 -160.7283 0.626 -0.197 -0.755 157 129 141
-2595.7439 3478.0059 -170.5885 0.792 -0.453 -0.409 169 141 152
-2492.0632 3367.6768 -172.7588 0.530 -0.264 -0.806 188 156 168
-2544.0886 3549.7146 -214.2724 0.959 -0.275 -0.068 206 165 173
-2627.1184 2054.2490 313.1560 -0.148 -0.989 -0.014 155 125 118
-2609.0056 2048.2698 308.3454 -0.051 -0.994 -0.100 163 129 122
-2600.3108 2048.8613 304.8667 -0.050 -0.994 -0.094 165 128 122
-2590.6147 2048.7163 301.2593 -0.050 -0.994 -0.094 165 128 122
-2580.7559 2048.4229 297.6406 -0.093 -0.992 -0.082 161 126 120
-3083.9199 2887.3625 204.0012 0.072 -0.960 -0.269 101 66 47
-3075.0701 2889.1333 200.0657 0.072 -0.960 -0.269 90 55 36
-2632.4504 2747.7649 80.9047 0.593 -0.037 -0.804 141 77 50
-2679.3889 2829.7866 70.8994 0.736 0.356 -0.576 243 183 159
-2705.7168 2874.3123 65.7875 0.853 0.237 -0.465 255 204 180
-2711.9387 2889.8459 62.8867 0.948 0.194 -0.254 248 183 163
-2868.5710 3337.5469 -29.2751 0.720 -0.326 -0.613 178 132 143
-2767.0193 3354.7439 -73.3796 0.951 0.023 -0.309 164 119 125
-2727.5190 3341.9819 -83.9644 0.021 -0.502 0.865 184 139 144
-2646.7544 3334.2070 -111.7948 0.372 -0.562 0.738 24 6 7
-2622.7559 3316.3545 -114.8144 0.733 -0.319 -0.601 19 7 6
-2614.4543 3317.2292 -118.2404 0.504 -0.363 0.784 17 11 7
-2597.6309 3329.4937 -128.7274 0.599 -0.150 0.787 125 116 117
-2592.0247 3333.5662 -132.2171 0.599 -0.150 0.787 153 139 141
-2586.4226 3337.6350 -135.7041 0.599 -0.150 0.787 171 149 154
-2615.0042 3383.7283 -140.4957 0.760 0.193 0.621 170 143 150
-2602.6318 3480.9817 -178.0125 0.769 -0.495 -0.405 189 155 169
-2498.8430 3381.8621 -183.6702 0.673 -0.584 -0.453 183 138 152
-2504.2825 3400.0239 -187.7539 0.741 -0.465 0.485 170 124 137
-2512.5020 3421.8850 -192.0387 0.970 0.109 0.216 156 108 122
-2634.0452 2055.7253 308.2903 -0.146 -0.989 -0.021 85 55 48
-2621.5059 2053.6907 304.2734 -0.072 -0.997 -0.036 122 88 81
-2636.0017 2070.6567 303.9591 -0.099 -0.865 -0.492 151 114 108
-3145.6768 2703.4617 280.6007 0.696 -0.164 0.699 142 95 79
-3140.8660 2708.6057 277.0495 0.700 -0.159 0.696 142 95 79
-3151.4556 2902.8149 215.1361 0.431 -0.731 0.529 116 83 66
-3077.7920 2896.2517 189.7096 0.114 -0.964 -0.240 97 62 43
-2648.2566 2758.6230 75.1555 0.578 -0.065 -0.814 145 81 54
-2670.7241 2789.4253 73.1396 0.862 0.130 -0.489 152 88 63
-2687.6011 2824.0876 67.7155 0.854 0.270 -0.445 198 136 111
-2695.7056 2841.2244 64.9440 0.872 0.416 -0.258 247 189 163
-2977.9519 3396.0635 -17.3397 0.380 -0.895 -0.235 184 133 142
-2952.2971 3390.5237 -25.0910 0.193 -0.850 -0.490 184 138 149
-2943.2954 3391.8369 -28.9157 0.185 -0.845 -0.501 184 138 149
-2649.1067 3331.4937 -118.8813 0.384 -0.546 0.745 26 6 7
-2640.6499 3332.2886 -122.3256 0.358 -0.654 0.666 22 10 8
-2627.3398 3327.2200 -125.6025 0.451 -0.441 0.776 17 11 8
-2602.6648 3308.3740 -128.4717 0.601 -0.150 0.785 15 13 8
-2591.5334 3316.5737 -135.4323 0.601 -0.150 0.785 78 63 66
-2584.7261 3319.1475 -138.8609 0.600 -0.152 0.785 165 144 149
-2580.6677 3325.0642 -142.3918 0.603 -0.149 0.784 175 147 154
-2576.2117 3330.4971 -145.9078 0.544 -0.266 0.796 178 143 153
-2574.4067 3339.1968 -149.5369 0.569 -0.242 0.786 187 145 157
-2494.8459 3382.1821 -193.9873 0.459 -0.755 -0.468 154 108 121
-2504.1821 3405.4043 -198.3610 0.957 0.228 0.180 140 94 107
-2496.8003 3407.0286 -201.6833 0.917 0.328 0.229 156 110 123
-2573.6296 3577.0437 -230.5221 0.983 -0.155 0.097 217 176 184
-2587.2407 3607.0332 -235.5870 0.980 -0.172 -0.097 217 176 184
-2498.0593 3511.3096 -236.5897 0.681 -0.580 -0.447 226 185 193
-2580.0156 3633.3274 -247.2200 0.847 -0.269 -0.459 226 185 193
-2495.8428 3531.6084 -244.3085 0.671 -0.740 -0.043 226 185 193
-3110.2717 2679.7742 266.6333 0.732 0.008 0.681 147 100 84
-3137.7966 2728.6558 260.2631 0.950 -0.287 -0.122 144 97 81
-3141.9050 2741.0220 257.5846 0.804 -0.032 -0.594 144 97 81
-3178.6707 2779.9019 258.0756 0.761 -0.016 -0.648 131 91 74
-3255.4417 2937.9749 232.9019 0.128 -0.850 -0.511 120 87 70
-3077.2488 2890.9976 182.3198 0.039 -0.926 -0.375 102 67 48
-2879.3967 3316.6243 -36.6460 0.671 -0.305 -0.676 184 138 149
-2693.5542 3302.4036 -101.2483 0.217 -0.301 0.929 194 149 154
-2687.6951 3328.0764 -112.1858 0.409 -0.498 0.765 158 116 120
-2672.5408 3321.1274 -115.4810 0.398 -0.490 0.776 129 93 100
-2646.1504 3322.4600 -125.7969 0.342 -0.649 0.680 25 5 6
-2639.7439 3325.6902 -129.2916 0.358 -0.654 0.666 22 10 8
-2625.0107 3318.9192 -132.4901 0.444 -0.454 0.772 18 11 8
-2596.9966 3296.0771 -135.1756 0.601 -0.150 0.785 16 13 9
-2585.8477 3304.1902 -142.1063 0.503 -0.309 0.807 66 45 50
-2576.9368 3304.1748 -145.4310 0.403 -0.357 0.843 145 117 124
-2568.9634 3305.2664 -148.7825 0.403 -0.357 0.843 178 145 154
-2564.5183 3310.6509 -152.2783 0.444 -0.484 0.754 187 146 158
-2586.7031 3348.7795 -156.9802 0.563 -0.223 0.796 191 144 158
-2637.3491 3444.8105 -170.7761 0.553 -0.139 0.821 199 140 158
-2589.5818 3418.9402 -179.8112 0.570 -0.023 0.821 201 153 171
-2565.3291 3399.6135 -182.2888 0.385 -0.165 0.908 203 154 173
-2568.4409 3414.7314 -186.2774 0.383 -0.188 0.904 194 146 164
-2518.6775 3373.8357 -190.9386 0.480 -0.703 -0.524 173 126 144
-2504.7485 3378.1899 -197.6274 0.480 -0.738 -0.475 140 96 110
-2583.2019 3583.7300 -238.3466 0.990 -0.142 0.012 217 176 184
-2501.9797 3510.6743 -243.8053 0.502 -0.654 -0.565 226 185 193
-2314.9658 1814.9595 258.0359 0.857 0.243 -0.455 70 51 45
-3142.6394 2737.0691 250.3541 0.821 -0.019 -0.570 144 97 81
-3148.7166 2751.0615 247.8262 0.804 -0.032 -0.594 133 90 74
-3090.2976 2897.6226 175.9388 -0.170 -0.806 -0.567 109 74 55
-3068.4211 2887.9958 171.0956 -0.077 -0.947 -0.313 109 74 55
-2718.2805 2872.6636 46.0948 0.849 0.219 -0.480 173 103 80
-2671.1211 2881.5559 25.5089 0.950 0.117 -0.289 191 122 100
-2690.8223 3315.3796 -115.6264 0.405 -0.500 0.765 169 127 131
-2680.5117 3325.0090 -122.7572 0.319 -0.507 0.801 128 93 99
-2645.1086 3315.7249 -132.7495 0.342 -0.649 0.680 23 5 5
-2633.1104 3312.2739 -136.0316 0.359 -0.650 0.669 22 10 8
-2592.7515 3285.5256 -141.8908 0.490 -0.367 0.790 17 13 9
-2568.7556 3288.7715 -151.9277 0.371 -0.479 0.796 111 80 88
-2560.5847 3289.5837 -155.2451 0.371 -0.479 0.796 180 142 153
-2548.1531 3285.1531 -158.3534 0.338 -0.553 0.762 196 151 164
-2518.7957 3379.4480 -201.5436 0.430 -0.620 -0.656 159 109 127
-2510.9026 3391.5720 -208.6288 0.632 -0.632 -0.449 175 129 142
-2582.3882 3588.4880 -249.4261 0.990 -0.142 0.012 217 176 184
-2424.3647 3646.1658 -327.9473 0.021 -0.929 -0.370 227 196 194
-2327.1477 1826.3342 252.5599 0.824 0.226 -0.520 72 51 43
-2370.6604 1874.5950 252.0847 0.870 0.194 -0.453 144 110 102
-3150.9751 2748.3235 240.7218 0.802 -0.064 -0.594 133 90 74
-3153.3213 2909.1533 186.3135 -0.424 -0.859 -0.287 121 86 67
-3120.6860 2890.6245 180.5975 -0.415 -0.857 -0.307 121 86 67
-2659.2415 2755.7739 56.0809 0.874 0.426 -0.233 146 81 54
-2694.2646 2872.0928 29.0706 0.913 0.032 -0.406 197 107 92
-2677.7292 3294.6399 -122.2810 0.362 -0.624 0.692 170 127 130
-2642.4409 3307.0762 -139.6219 0.357 -0.632 0.688 24 5 5
-2628.3757 3301.1580 -142.7960 0.460 -0.417 0.784 22 10 7
-2611.0786 3302.0720 -149.5149 0.449 -0.428 0.785 17 13 7
-2565.2256 3279.0520 -158.5815 0.416 -0.403 0.815 85 53 60
-2557.4663 3280.3472 -161.8998 0.416 -0.403 0.815 179 142 151
-2548.4026 3280.0217 -165.1441 0.405 -0.392 0.826 201 155 167
-2421.4434 3218.0698 -190.8620 0.352 -0.467 0.812 143 89 108
-2516.4775 3348.8308 -200.6149 0.919 0.024 -0.394 156 102 121
-2527.8796 3385.4004 -208.9619 0.381 -0.660 -0.647 184 132 149
-2600.3098 3594.3115 -253.9448 0.413 -0.807 0.423 217 176 183
-2430.7407 3649.1589 -335.5842 0.023 -0.901 -0.434 227 196 194
-2314.2783 1808.6447 247.8082 0.867 0.173 -0.467 87 69 56
-2326.7476 1823.1145 247.4095 0.884 0.225 -0.411 111 92 79
-2347.1506 1843.1725 248.0060 0.901 0.170 -0.399 191 166 151
-2363.1233 1884.4879 239.6320 -0.276 -0.796 -0.539 157 130 114
-3102.6965 2879.8311 168.6532 -0.181 -0.834 -0.522 126 89 71
-3107.0808 2893.1282 165.6793 -0.179 -0.789 -0.587 123 86 68
-3121.5164 2924.8438 160.0525 0.017 -0.668 -0.744 123 86 68
-2942.4880 2814.1702 132.2686 0.118 -0.559 0.821 107 76 57
-2881.0076 2814.0593 109.6465 -0.002 -0.516 0.857 117 72 48
-2537.4626 3006.6274 -83.4460 0.889 0.235 -0.394 186 139 142
-2611.2561 3109.0215 -91.5914 0.336 -0.909 -0.246 202 155 158
-2624.7234 3134.3164 -95.3588 0.318 -0.892 -0.321 202 155 158
-2690.3030 3260.9502 -114.8987 -0.039 -0.836 0.547 205 157 158
-2559.2202 3266.3635 -165.0813 0.373 -0.367 0.852 62 43 42
-2552.7786 3269.2295 -168.4448 0.407 -0.400 0.821 143 118 120
-2559.8716 3288.5715 -172.5069 0.344 -0.437 0.831 184 153 157
-2538.1682 3381.7366 -212.6646 0.477 -0.678 -0.559 189 143 151
-1818.5072 3985.1763 -686.2078 0.919 -0.389 -0.068 231 202 204
-1788.4922 3949.5784 -684.9832 0.792 -0.125 -0.597 231 206 205
-1790.3192 3982.5471 -695.6898 0.730 -0.240 -0.640 231 207 205
-2343.0557 1831.4297 244.4017 0.892 0.173 -0.418 184 166 151
-2369.5779 1867.7903 241.5274 0.871 0.142 -0.470 200 174 157
-2367.0181 1872.0511 239.1113 0.944 0.161 -0.288 200 174 157
-2363.7771 1875.8368 236.6100 0.955 0.186 -0.231 202 176 159
-3197.7290 2879.8611 194.5156 0.968 0.116 0.222 140 93 77
-3132.2078 2919.6975 156.6682 -0.238 -0.912 -0.334 123 86 68
-3133.1643 2930.1650 153.3906 0.478 -0.666 -0.573 123 86 68
-2676.7798 2772.6260 40.5673 0.909 0.110 -0.403 166 91 70
-2686.8823 2809.5310 31.4803 0.911 0.142 -0.386 184 109 88
-2716.8628 3232.7927 -104.2455 0.300 -0.722 -0.624 203 154 157
-2672.4895 3235.1775 -121.3515 -0.154 -0.938 0.312 205 157 157
-2574.3284 3163.6863 -132.5815 0.968 -0.244 0.059 192 144 144
-2598.7478 3202.4604 -137.0638 0.936 -0.307 0.173 185 138 138
-2634.5112 3254.7427 -142.0670 0.470 -0.614 0.634 167 124 126
-2629.3237 3259.2932 -145.5477 0.486 -0.596 0.640 144 104 105
-2621.8931 3261.1965 -148.9335 0.482 -0.604 0.634 92 58 57
-2593.9514 3260.0344 -158.7816 0.653 -0.655 0.382 29 14 6
-2591.3704 3267.6111 -162.3551 0.596 -0.680 0.426 25 15 6
-2580.2961 3265.0203 -165.5197 0.452 -0.484 0.749 25 16 7
-2560.2810 3283.6289 -179.3135 0.361 -0.468 0.807 176 148 150
-2526.6555 3350.5464 -214.8468 0.911 0.034 -0.411 200 155 162
-2530.6909 3433.6575 -242.1771 0.797 -0.371 -0.477 215 174 178
-1781.5587 3912.9463 -683.1595 0.684 -0.293 -0.668 241 213 215
-1784.3528 3933.2554 -689.1747 0.675 -0.284 -0.681 237 212 211
-1777.3518 3961.3708 -701.4895 0.701 -0.160 -0.695 237 213 211
-1778.8628 3979.2268 -707.1249 0.701 -0.160 -0.695 227 206 203
-1783.2791 4003.5681 -713.9427 0.679 -0.281 -0.678 228 207 204
-1784.3538 4020.6902 -719.4839 0.610 -0.350 -0.711 231 207 205
-1777.5590 4020.4780 -721.9032 0.610 -0.367 -0.702 233 207 206
-1775.9514 4031.7585 -726.4033 0.610 -0.367 -0.702 237 209 208
-1781.3896 4058.8176 -733.7883 0.911 -0.213 0.353 238 208 208
-1781.1075 4073.2300 -738.8879 0.801 -0.385 0.459 238 208 208
-2371.7639 1818.5031 253.2374 0.690 0.110 0.715 78 60 46
-2378.3652 1828.8958 252.0299 0.732 0.157 0.663 80 62 48
-2373.8230 1831.7520 249.3769 0.731 0.166 0.662 99 81 67
-2372.9705 1837.1233 247.1957 0.727 0.163 0.667 151 133 119
-2372.0039 1866.4641 236.6284 0.871 0.142 -0.470 201 175 158
-2366.6851 1868.7965 233.8741 0.952 0.138 -0.272 200 174 157
-2363.0835 1890.5642 224.9810 -0.268 -0.807 -0.527 220 191 175
-2913.4004 2806.5388 107.0606 0.054 -0.462 0.885 116 85 67
-2678.9941 2770.2432 34.0988 0.797 -0.434 -0.419 166 91 70
-2675.3958 2784.7468 27.7356 0.810 -0.412 -0.416 186 111 90
-2482.2075 2935.4285 -95.2672 0.869 -0.117 -0.481 199 150 153
-2730.7300 3232.4734 -107.9251 0.307 -0.759 -0.574 203 154 157
-2602.2854 3201.3005 -143.9767 0.922 -0.358 0.149 193 146 146
-2627.8630 3241.6108 -148.6698 0.623 -0.668 0.407 181 137 139
-2624.1316 3247.8311 -152.1978 0.625 -0.667 0.405 157 116 118
-2618.1233 3251.3811 -155.6277 0.625 -0.667 0.405 107 69 70
-2612.1221 3254.9268 -159.0536 0.625 -0.667 0.405 58 28 26
-2605.0295 3257.1682 -162.4238 0.692 -0.589 0.417 33 10 6
-2596.4275 3257.5940 -165.7132 0.655 -0.648 0.389 30 13 6
-2592.0981 3263.0818 -169.2046 0.555 -0.753 0.354 26 15 6
-2596.9670 3279.5813 -173.1706 0.220 -0.618 0.755 24 15 6
-2565.5044 3273.8269 -182.6564 0.361 -0.468 0.807 128 108 107
-2558.5715 3276.1221 -185.9872 0.360 -0.450 0.817 168 141 142
-2412.5247 3170.2017 -202.4445 0.346 -0.475 0.809 184 141 148
-1792.0934 4030.1287 -728.3719 0.694 -0.154 -0.703 228 206 203
-1790.7692 4042.0664 -733.0113 0.680 -0.165 -0.715 228 203 201
-1781.2759 4050.8547 -739.5374 0.652 -0.263 -0.711 238 208 208
-1762.0210 4037.6990 -741.9888 0.719 -0.254 -0.648 238 208 208
-2364.5747 1798.9838 251.2714 0.779 0.261 0.570 70 52 39
-2373.8845 1811.0933 250.4216 0.769 0.145 0.623 76 58 44
-2373.0271 1816.4103 248.2511 0.770 0.119 0.627 84 66 52
-2370.6433 1820.7063 245.8828 0.783 0.160 0.601 91 73 59
-2364.1658 1864.0215 228.3851 0.888 -0.460 -0.032 200 174 157
-2849.6050 2789.9888 81.1001 -0.009 -0.531 0.848 111 58 37
-2626.4871 3234.6616 -155.4555 0.641 -0.659 0.393 192 146 149
-2624.6934 3243.1306 -159.0682 0.625 -0.667 0.405 167 126 127
-2618.6892 3246.6804 -162.4916 0.625 -0.667 0.405 116 79 79
-2612.6921 3250.2266 -165.9110 0.625 -0.667 0.405 66 37 34
-2605.8916 3252.8110 -169.2862 0.605 -0.679 0.415 33 10 6
-2597.0093 3252.9062 -172.5480 0.655 -0.648 0.389 29 13 6
-2593.2219 3259.0310 -176.0658 0.555 -0.753 0.354 25 15 6
-2581.3330 3266.1262 -182.8675 0.187 -0.589 0.786 17 6 2
-2554.0078 3265.1743 -192.4664 0.360 -0.454 0.815 163 136 137
-2606.9504 3462.9646 -242.3725 0.607 -0.006 0.795 209 166 173
-2773.0483 3685.2358 -259.7096 0.769 -0.638 0.038 211 170 174
-2766.7581 3689.4250 -263.4604 0.776 -0.629 0.045 211 170 174
-2268.6187 3484.1809 -372.7608 0.437 -0.672 -0.598 229 195 194
-2257.8330 3503.1726 -383.3206 0.545 -0.121 -0.830 226 192 191
-2286.8499 3570.1052 -396.1740 0.492 -0.696 -0.523 226 192 191
-1793.7921 3982.1865 -719.4483 0.804 -0.148 -0.576 149 128 125
-1795.5192 4000.5623 -725.2449 0.692 -0.167 -0.702 161 140 137
-1798.4576 4021.6946 -731.5649 0.702 -0.144 -0.697 185 164 161
-1801.2996 4057.6458 -743.1008 0.699 -0.149 -0.699 241 216 214
-1798.8124 4067.1194 -747.3168 0.684 -0.261 -0.681 238 210 209
-1797.7692 4079.8379 -752.1424 0.968 -0.181 -0.172 238 208 208
-1776.7028 4062.9204 -753.8848 0.520 -0.672 0.528 238 208 208
-1762.6448 4046.3684 -753.2076 0.380 -0.794 0.475 237 207 207
-1750.7201 4034.4626 -753.3796 0.387 -0.793 0.471 236 208 207
-2362.0393 1794.3762 245.8364 0.675 -0.003 0.737 71 53 40
-2355.9216 1796.1138 243.0133 0.702 -0.051 0.710 84 66 52
-2357.0508 1802.7142 241.1044 0.734 -0.002 0.679 128 110 96
-2353.4458 1806.1384 238.5982 0.723 -0.007 0.691 179 161 147
-2352.6562 1841.0460 226.0570 0.872 -0.227 0.433 204 178 161
-2269.9644 1877.8583 183.2184 -0.300 -0.899 -0.319 171 123 111
-2257.8604 1874.9556 179.8589 -0.322 -0.922 -0.215 169 119 108
-2919.3020 2757.1755 109.4083 0.042 -0.990 -0.136 130 98 83
-2908.6873 2765.8914 102.5084 -0.061 -0.822 0.566 130 98 85
-2859.2019 2757.9468 87.3959 0.443 -0.685 0.578 125 91 73
-2707.6870 2761.7771 31.2394 0.142 -0.661 -0.736 129 59 33
-2824.5730 3055.9329 -29.7493 0.101 -0.605 -0.790 193 133 141
-2792.2771 3032.9753 -33.3726 0.178 -0.919 0.351 193 133 141
-2594.7307 3182.0085 -157.1596 0.839 -0.501 -0.211 207 160 160
-2611.8552 3212.3076 -161.6022 0.905 -0.007 -0.426 208 164 166
-2617.2817 3229.1292 -165.5449 0.909 -0.013 -0.416 194 154 155
-2617.3921 3239.8052 -169.2531 0.633 -0.685 0.360 176 141 140
-2611.4954 3243.4570 -172.6683 0.633 -0.685 0.360 155 127 124
-2606.4663 3248.1211 -176.1251 0.605 -0.679 0.415 93 72 67
-2600.3496 3251.4929 -179.5217 0.605 -0.679 0.415 43 30 23
-2580.4805 3259.7107 -189.5946 0.188 -0.650 0.736 30 20 15
-2553.2019 3258.8032 -199.1442 0.352 -0.582 0.733 132 106 107
-2553.5815 3269.9224 -202.9107 0.399 -0.584 0.707 128 96 99
-2283.1011 3487.9060 -377.2895 0.449 -0.725 -0.522 215 181 180
-2268.3887 3489.5439 -383.1868 0.469 -0.141 -0.872 219 185 184
-1955.6793 4051.7178 -693.6817 0.782 0.058 -0.620 238 204 205
-1802.8044 3979.6594 -723.6870 0.964 -0.193 -0.181 77 56 53
-1798.0022 3983.8269 -726.8873 0.983 -0.068 -0.171 81 60 57
-1801.8134 4006.7258 -733.5480 0.798 -0.142 -0.586 79 58 55
-1809.2322 4052.5007 -746.9350 0.700 -0.148 -0.698 121 99 96
-1809.3154 4067.6167 -752.2119 0.696 -0.155 -0.701 166 141 139
-1806.4229 4076.2349 -756.2839 0.740 -0.171 -0.650 215 187 186
-1756.7769 4040.4265 -761.6721 0.415 -0.820 0.394 221 191 191
-1734.6697 4005.4075 -757.3750 0.676 -0.524 0.518 221 191 191
-1738.6716 4029.3979 -764.3499 0.704 -0.367 0.607 233 203 205
-2757.7446 1509.1527 482.7462 0.954 -0.288 0.077 52 42 33
-2339.1279 1753.2653 245.9575 0.750 0.081 0.656 73 60 54
-2352.1921 1773.3413 243.5833 0.686 0.020 0.727 57 42 37
-2349.9412 1777.6198 241.2644 0.686 0.017 0.728 69 54 48
-2348.8098 1782.6495 239.0838 0.684 0.016 0.729 87 69 56
-2270.0957 1886.9912 173.9559 0.216 -0.611 -0.761 168 119 107
-2281.2405 1907.3936 170.7755 0.957 0.085 -0.278 160 112 100
-2303.7688 1930.3314 170.8000 0.950 -0.047 -0.308 161 111 100
-2898.4009 2743.3145 98.2748 -0.090 -0.989 0.114 130 98 83
-2889.2727 2753.2219 91.4952 -0.059 -0.827 0.559 128 96 81
-2852.1714 2792.2754 64.3681 0.162 -0.829 0.536 120 59 41
-2653.7981 2759.2441 4.5884 -0.199 -0.980 -0.010 196 121 102
-2806.3477 3002.9844 -26.4184 -0.058 -0.848 -0.527 193 125 134
-2787.9275 3033.4282 -43.7840 0.338 -0.599 0.726 188 128 136
-2612.0911 3186.4656 -161.0493 0.977 -0.200 0.067 207 159 159
-2601.7822 3184.9309 -164.2199 0.968 -0.249 -0.022 206 159 159
-2617.9651 3214.1108 -168.6808 0.719 -0.137 -0.682 201 158 160
-2623.0383 3230.5151 -172.6377 0.706 -0.153 -0.691 201 161 162
-2618.2229 3235.4343 -176.1058 0.633 -0.685 0.360 198 165 164
-2612.3296 3239.0862 -179.5152 0.633 -0.685 0.360 196 168 165
-2605.2153 3241.2886 -182.8532 0.600 -0.680 0.421 171 150 145
-2599.0684 3244.6128 -186.2384 0.600 -0.680 0.421 100 87 79
-2576.0481 3249.0320 -196.0850 0.207 -0.629 0.749 22 13 8
-2566.6406 3248.3721 -199.2396 0.207 -0.629 0.749 31 17 14
-2551.5835 3251.4646 -205.7512 0.352 -0.582 0.733 119 93 94
-2543.4688 3252.2612 -208.9539 0.354 -0.579 0.734 161 128 131
-2540.1790 3258.8950 -212.4772 0.325 -0.577 0.749 178 141 145
-2547.2869 3278.2310 -216.7349 0.388 -0.587 0.711 197 154 161
-2293.0215 3484.8713 -381.1372 0.104 -0.926 -0.364 232 198 197
-2290.4114 3492.6755 -384.8284 0.472 -0.714 -0.517 230 196 195
-2289.9143 3503.5952 -388.8572 0.512 -0.603 -0.612 216 182 181
-2283.0530 3505.1970 -391.8924 0.465 -0.141 -0.874 203 169 168
-2283.7253 3529.6479 -400.2707 0.523 -0.107 -0.845 207 173 172
-1721.2032 3447.6172 -573.8882 0.619 0.025 -0.785 232 198 199
-1831.9717 4005.6885 -730.7589 -0.023 -0.974 0.227 60 37 35
-1805.0035 3976.9336 -730.3311 0.994 -0.094 -0.062 70 49 46
-1804.1075 3989.5496 -735.1015 0.994 -0.094 -0.062 75 54 51
-1794.6165 3983.5637 -736.4084 0.984 0.164 0.075 81 60 57
-1813.5627 4039.4753 -749.2990 0.753 -0.138 -0.643 84 63 60
-1816.4843 4060.7212 -755.7375 0.758 -0.119 -0.642 105 81 79
-1766.8594 4055.4128 -771.7336 0.492 -0.824 0.281 233 203 203
-1748.7159 4029.4983 -769.1298 0.361 -0.928 0.094 236 206 206
-1735.7739 4030.0754 -773.9930 0.710 -0.394 0.584 235 203 208
-1498.0557 4440.0762 -1004.1340 0.037 -0.805 -0.592 232 199 205
-2638.3208 1600.5155 401.2287 0.126 -0.603 0.788 46 36 27
-2599.3503 1613.1191 382.8015 0.945 -0.229 0.233 51 41 32
-2606.7463 1661.8082 368.2141 0.694 -0.514 -0.505 67 54 46
-2603.3035 1671.2319 363.6441 0.826 -0.396 -0.401 70 57 49
-2360.6968 1747.3915 249.7428 0.494 -0.491 0.717 66 53 45
-2350.1399 1751.9297 244.3531 0.464 -0.502 0.730 66 53 45
-2336.9329 1748.9872 240.6621 0.804 -0.012 0.595 69 56 48
-2335.6082 1753.8103 238.4799 0.790 -0.138 0.597 66 53 45
-2344.0134 1765.0677 237.5064 0.752 0.062 0.657 76 61 54
-2342.4612 1769.7832 235.2807 0.768 0.068 0.637 98 84 76
-2341.4114 1774.8412 233.1138 0.772 0.071 0.632 165 147 134
-2292.7676 1900.6873 171.1283 0.807 0.171 -0.565 159 113 100
-2298.0852 1910.7214 169.4814 0.805 0.174 -0.567 160 114 101
-2281.9902 1904.9003 165.7747 0.952 0.076 -0.295 159 113 100
-2304.5388 1927.8148 165.7424 0.867 0.144 -0.477 160 112 100
-2142.1104 1894.5347 119.3186 0.828 0.091 0.553 159 103 90
-2862.5242 2733.9993 80.2783 -0.046 -0.830 0.556 136 103 88
-2869.1582 2775.8564 67.8366 0.429 -0.808 0.403 125 83 59
-2757.1450 3036.2883 -64.5054 0.734 -0.595 0.329 194 138 144
-2757.9009 3046.9587 -68.0122 0.710 -0.573 0.410 191 136 142
-2676.6025 3234.3022 -163.4717 0.962 -0.049 -0.268 207 159 159
-2606.3491 3184.9641 -171.1796 0.937 -0.113 -0.330 206 159 159
-2613.4011 3203.5259 -175.2240 0.819 -0.005 -0.574 202 159 161
-2619.3083 3220.8516 -179.2410 0.833 0.017 -0.553 201 161 162
-2618.0723 3229.9243 -182.8961 0.600 -0.680 0.421 199 164 163
-2609.2034 3230.0823 -186.1302 0.476 -0.645 0.598 198 168 166
-2602.0801 3232.2563 -189.4525 0.476 -0.645 0.598 187 164 159
-2594.4482 3233.8088 -192.7369 0.470 -0.639 0.609 129 112 105
-2584.8806 3243.6035 -199.6332 0.268 -0.472 0.840 24 15 7
-2574.5139 3241.8394 -202.7235 0.207 -0.619 0.758 48 39 34
-2564.9915 3241.0356 -205.8514 0.207 -0.629 0.749 52 37 34
-2538.4211 3251.3757 -219.0336 0.325 -0.577 0.749 201 163 168
-2294.7148 3481.4365 -387.8154 0.116 -0.922 -0.370 233 199 198
-2294.3691 3504.1770 -395.9902 0.516 -0.609 -0.602 216 182 181
-2284.0955 3500.7869 -398.4715 0.696 0.023 -0.718 202 168 167
-1941.7472 3937.8672 -675.8939 0.539 0.016 -0.842 227 191 193
-1849.1991 4020.2825 -738.2364 0.117 -0.960 0.253 52 26 25
-1837.0614 4009.0542 -738.6108 0.436 -0.770 0.466 53 30 28
-1814.1677 3974.6650 -734.6398 0.998 0.064 0.011 56 36 32
-1802.6606 3964.4448 -735.1450 0.994 0.032 0.101 63 42 39
-1807.9634 3990.3843 -742.4283 0.999 0.028 0.019 68 47 44
-1796.7968 3995.3972 -748.2046 0.988 0.151 0.022 109 88 85
-1760.3977 4048.1509 -779.9248 0.388 -0.914 0.118 232 202 202
-1747.6869 4034.4312 -779.6224 0.661 -0.748 0.060 226 194 197
-1746.5233 4046.7974 -784.4175 0.651 -0.759 -0.023 235 203 208
-1744.3051 4056.8167 -788.7596 0.991 -0.133 -0.012 235 203 208
-1752.4161 4090.5325 -797.7896 0.972 -0.225 0.064 235 203 208
-2745.3425 1535.8920 456.0648 0.100 -0.995 0.004 54 44 35
-2602.0017 1595.3052 383.8209 0.982 -0.112 -0.155 43 33 24
-2602.0425 1617.3397 376.0018 0.946 -0.189 0.264 51 38 30
-2614.9302 1646.5785 370.2035 0.977 -0.110 -0.182 58 45 37
-2610.3052 1655.3145 365.4482 0.815 -0.434 -0.384 59 46 38
-2610.7539 1661.2064 363.5136 0.814 -0.428 -0.393 63 50 42
-2617.2056 1676.1176 360.5135 0.986 0.127 -0.109 66 53 45
-2362.6665 1762.9851 238.8508 0.876 -0.163 0.454 62 49 40
-2357.8008 1765.5419 236.2066 0.875 -0.150 0.460 73 60 51
-2336.1333 1757.0160 231.5099 0.771 0.068 0.634 111 95 87
-2335.9490 1762.6102 229.4554 0.768 0.070 0.637 153 137 128
-2349.1064 1782.8623 226.9482 0.761 -0.220 0.610 188 169 155
-2328.5122 1786.4149 218.3403 0.645 -0.169 0.745 200 182 167
-2317.1584 1897.2245 174.8969 0.389 -0.901 -0.194 209 174 161
-2307.6780 1896.4053 171.8070 0.340 -0.932 -0.127 218 179 167
-2302.1826 1898.4730 169.1119 0.447 -0.691 -0.568 192 151 140
-2302.8618 1911.1897 164.8333 0.802 0.169 -0.572 154 113 102
-2305.8037 1925.6689 160.7349 0.850 0.085 -0.521 157 113 103
-2857.2310 2787.7327 50.9254 0.179 -0.837 0.518 119 59 42
-2704.1592 2798.8408 -7.6162 0.243 -0.733 -0.635 195 121 104
-2608.6384 3182.3625 -178.0296 0.940 0.010 -0.341 207 160 160
-2572.7937 3234.4419 -209.3284 0.288 -0.392 0.873 41 31 25
-2525.8564 3230.7778 -224.7657 0.283 -0.395 0.874 202 165 169
-2363.2732 3073.3792 -226.7932 0.201 -0.531 0.823 211 169 174
-2297.1265 3513.9504 -407.0125 0.883 0.056 -0.467 218 184 183
-1920.8199 3875.6633 -669.8137 0.633 0.093 -0.768 225 187 188
-1900.8467 3891.4028 -682.5327 0.814 -0.119 -0.569 224 186 187
-1899.9425 3903.4976 -687.1550 0.819 -0.121 -0.561 225 187 188
-1838.0579 4018.2881 -750.0352 0.323 -0.359 0.876 51 32 26
-1822.4011 3999.3762 -748.8958 0.346 -0.798 0.493 58 38 33
-1798.7599 3992.1462 -754.7570 0.980 0.174 -0.096 115 92 89
-1804.4463 4019.1858 -762.3418 0.980 0.176 -0.094 138 112 110
-1749.3501 4045.4773 -791.3385 0.653 -0.754 0.071 237 203 207
-1740.0320 4039.3279 -792.4756 0.994 -0.103 -0.037 239 202 208
-1736.8632 4047.1431 -796.3842 0.994 -0.099 -0.040 237 203 207
-2742.0403 1537.0735 448.0775 0.124 -0.992 -0.020 47 37 28
-2749.4307 1546.0529 447.4951 0.474 -0.854 0.213 47 37 28
-2709.5945 1532.4236 438.2211 0.855 -0.356 -0.378 50 40 31
-2632.5735 1559.3837 401.2587 0.916 -0.010 0.402 60 50 41
-2649.2366 1573.2439 402.2252 0.931 -0.003 0.366 57 47 38
-2645.6636 1582.3584 397.7032 0.812 -0.304 0.498 57 47 38
-2620.1204 1646.6035 365.7021 0.980 -0.170 -0.105 54 44 35
-2348.5339 1728.2278 240.1658 0.718 -0.388 0.577 72 54 42
-2353.0879 1736.8105 238.7184 0.488 -0.490 0.723 77 59 46
-2347.1619 1738.6433 235.9607 0.488 -0.490 0.723 75 54 42
-2342.6045 1741.3519 233.3761 0.453 -0.529 0.718 62 42 28
-2357.7019 1756.8835 233.1902 0.875 -0.150 0.460 85 64 50
-2355.7366 1761.3262 230.9066 0.875 -0.150 0.460 142 122 108
-2329.8865 1885.1396 177.5315 0.743 -0.227 0.629 186 170 154
-2307.1428 1899.0602 164.4894 0.447 -0.691 -0.568 211 191 181
-2308.9578 1906.4961 162.4790 0.817 -0.031 -0.576 196 176 166
-2308.4558 1912.2520 160.2461 0.817 0.174 -0.549 181 160 150
-2870.7620 2786.3220 47.7999 0.139 -0.990 0.034 112 56 41
-2866.8411 2791.8713 44.4272 0.039 -0.999 -0.014 116 59 44
-2703.4875 2793.6335 -14.1829 0.256 -0.721 -0.644 191 119 115
-2363.2656 2821.1135 -144.7519 0.967 -0.090 0.240 205 156 156
-2387.7344 2866.8904 -152.4087 0.920 -0.217 0.326 202 156 158
-2385.1211 2873.1887 -155.5848 0.920 -0.217 0.326 204 158 160
-2608.3789 3208.0120 -195.8689 0.258 -0.436 0.862 147 106 105
-2597.0283 3205.2307 -198.9049 0.271 -0.445 0.853 143 102 101
-2595.6223 3214.0430 -202.5498 0.342 -0.319 0.884 144 104 104
-2573.7427 3219.7217 -212.3431 0.340 -0.364 0.867 36 7 3
-2568.2810 3223.7441 -215.7176 0.290 -0.391 0.873 36 26 17
-2511.4739 3197.6091 -226.5509 0.364 -0.443 0.820 185 157 155
-2503.4983 3198.3982 -229.6635 0.364 -0.443 0.820 206 172 172
-2309.0173 3501.9968 -407.0739 0.716 -0.696 -0.050 222 186 186
-2300.8152 3513.3928 -414.0534 0.883 0.056 -0.467 222 186 186
-1899.5953 3895.6650 -692.9297 0.486 -0.130 -0.864 217 170 163
-1902.1465 3914.7058 -698.8215 0.547 -0.000 -0.837 217 170 161
-1887.8795 4042.8811 -749.6424 0.483 -0.277 0.831 143 114 105
-1880.5874 4042.2505 -752.0056 0.497 -0.260 0.828 82 60 48
-1857.3446 4022.5291 -753.2151 0.526 -0.142 0.838 43 27 16
-1843.1255 4006.9729 -752.7087 0.455 -0.288 0.843 41 28 18
-1749.5911 4053.3247 -802.4550 0.593 -0.793 -0.136 250 200 207
-1747.8737 4064.5107 -807.0579 0.574 -0.805 -0.149 244 198 202
-1750.5291 4085.7598 -813.7010 0.599 -0.791 -0.126 241 201 203
-2765.2905 1567.4600 439.0090 0.427 -0.528 -0.734 63 53 44
-2644.1309 1573.4052 394.0796 0.787 -0.324 0.524 71 61 52
-2636.3176 1574.8792 390.7913 0.979 -0.195 0.052 71 61 52
-2637.8926 1581.1426 389.1025 0.727 -0.220 -0.650 71 61 52
-2640.2361 1587.8220 387.5359 0.714 -0.250 -0.653 72 62 53
-2634.8201 1590.5178 384.6564 0.896 -0.428 0.114 72 62 53
-2617.2383 1586.8942 379.7448 0.819 -0.570 0.066 72 62 53
-2614.2949 1590.8331 377.2931 0.819 -0.570 0.066 69 59 50
-2361.0063 1727.7711 238.7346 0.805 -0.227 0.549 68 51 44
-2364.4639 1741.3165 235.1004 0.766 -0.126 0.630 71 52 38
-2339.9578 1731.1649 230.0829 0.708 -0.383 0.593 83 61 48
-2335.3508 1733.8210 227.5034 0.714 -0.379 0.589 88 66 52
-2353.4741 1751.2789 227.6473 0.880 -0.148 0.450 147 125 111
-2353.6790 1757.1245 225.6242 0.875 -0.150 0.460 184 162 148
-2332.6973 1872.0264 177.0245 0.777 -0.581 -0.243 187 171 156
-2318.2349 1898.0096 162.6018 0.846 -0.044 0.531 208 194 183
-2311.1035 1898.9084 159.7605 0.700 -0.188 0.689 208 194 183
-2311.5317 1911.4509 155.4158 0.817 0.174 -0.549 130 114 103
-2312.2515 1918.1241 153.2780 0.824 0.170 -0.540 99 82 74
-2312.1497 1936.5869 146.6237 0.648 -0.440 -0.622 151 114 109
-2877.1562 2796.6233 37.9140 0.254 -0.967 -0.002 115 59 44
-2717.7212 2793.6912 -17.3534 0.541 -0.365 -0.757 190 120 114
-2202.4380 2620.1895 -137.1772 1.000 0.017 0.001 205 155 156
-2397.3582 2863.8044 -155.6510 0.921 -0.188 0.343 208 160 163
-2384.3032 2867.5886 -161.6190 0.920 -0.217 0.326 201 155 157
-2602.3013 3195.6719 -202.2197 0.271 -0.445 0.853 183 142 140
-2593.0303 3195.2932 -205.3588 0.271 -0.445 0.853 198 157 155
-2563.6909 3212.9839 -222.0640 0.290 -0.391 0.873 33 22 13
-2515.5320 3186.8235 -229.6980 0.377 -0.444 0.813 105 83 78
-2500.3525 3189.3257 -235.9569 0.364 -0.443 0.820 206 172 171
-2257.1245 3375.8062 -388.7209 0.851 0.492 -0.184 227 189 188
-2306.0713 3457.1836 -400.6018 0.853 0.490 -0.181 227 189 188
-2308.1528 3529.8933 -425.9303 0.883 0.056 -0.467 225 189 189
-1923.6010 3894.5723 -692.4929 0.898 -0.410 0.158 222 168 166
-1909.6490 3908.5833 -702.4437 0.495 -0.117 -0.861 216 166 158
-1886.7828 4033.0789 -755.1479 0.554 -0.393 0.734 141 112 102
-1877.4761 4028.2097 -756.6900 0.473 -0.309 0.825 80 58 45
-1867.3877 4021.6174 -757.8906 0.452 -0.352 0.820 42 24 10
-1852.0077 4003.7576 -756.9213 0.481 -0.443 0.757 42 28 15
-1826.2235 3992.5911 -762.0264 -0.146 -0.842 0.520 55 39 31
-1779.5677 3921.3374 -752.9652 0.258 -0.719 -0.645 102 75 71
-1665.2682 3941.3469 -800.5128 0.652 -0.737 -0.175 234 204 206
-1645.8506 3910.8357 -796.4348 0.727 -0.679 -0.103 231 199 204
-1641.7789 3915.9636 -799.7112 0.738 -0.654 -0.166 232 198 205
-1601.2633 3849.8306 -790.3166 0.669 -0.721 -0.179 233 199 206
-1656.8049 3995.9082 -823.0607 0.722 -0.402 -0.564 234 200 207
-1615.8878 3913.6492 -808.0273 0.798 -0.229 -0.558 235 200 207
-1608.3561 3910.4312 -809.5342 0.804 -0.282 -0.524 235 200 207
-1640.2780 4016.9485 -836.4407 0.452 -0.816 -0.360 233 198 204
-1619.5142 3997.1355 -836.6731 -0.085 -0.786 0.612 233 199 204
-1614.0374 3999.0046 -839.2777 -0.052 -0.837 0.544 239 205 211
-1605.5746 3993.5403 -840.3083 -0.052 -0.837 0.546 243 209 214
-1593.5376 3979.2061 -839.4219 -0.002 -0.810 0.587 239 204 210
-1542.1069 3912.0759 -833.5255 -0.009 -0.835 0.550 229 203 206
-2767.0156 1532.5900 445.6937 0.308 -0.947 0.094 74 64 55
-2763.0657 1536.1869 443.0105 0.307 -0.947 0.089 69 59 50
-2642.1538 1580.6134 384.5149 0.727 -0.220 -0.650 74 64 55
-2645.3218 1587.7155 383.0722 0.868 -0.477 0.138 78 68 59
-2640.1968 1590.5707 380.2429 0.904 -0.056 0.423 79 69 60
-2583.8818 1604.9650 355.2652 0.982 -0.186 -0.017 75 65 56
-2568.7651 1602.3684 350.8858 0.863 -0.242 -0.443 76 66 57
-2565.7832 1628.2457 340.5233 0.629 -0.509 0.588 75 65 56
-2568.0442 1635.0233 338.8785 0.650 -0.512 0.562 76 63 55
-2362.8699 1731.7982 231.9195 0.760 -0.166 0.629 84 64 52
-2359.4521 1735.2653 229.4702 0.758 -0.183 0.626 70 51 37
-2339.0066 1727.7437 224.9902 0.578 -0.623 0.527 96 74 60
-2333.2571 1729.6549 222.2811 0.714 -0.379 0.589 154 132 118
-2351.4836 1747.1438 222.3934 0.880 -0.148 0.450 198 176 162
-2350.8115 1752.4034 220.2640 0.874 -0.149 0.462 205 183 169
-2312.5012 1848.7177 172.1293 0.557 -0.046 -0.829 192 176 161
-2337.2622 1872.2565 172.3611 0.628 -0.026 -0.778 187 171 156
-2322.7419 1867.9526 168.8058 0.932 -0.328 0.152 177 161 146
-2317.0493 1900.1978 155.1985 0.871 -0.162 0.464 177 165 153
-2314.5623 1904.4900 152.7792 0.847 0.173 -0.502 148 135 126
-2317.3960 1912.6938 150.8225 0.847 0.173 -0.502 78 64 55
-2316.5845 1936.7911 141.8636 0.648 -0.440 -0.622 96 64 58
-2383.4875 2862.0032 -167.6377 0.920 -0.217 0.326 178 132 134
-2597.5066 3184.8545 -208.6094 0.275 -0.441 0.855 198 157 155
-2589.0525 3185.4062 -211.7799 0.271 -0.445 0.853 203 162 160
-2565.1870 3199.0229 -225.0706 0.361 -0.288 0.887 56 25 22
-2559.1262 3202.2837 -228.3749 0.290 -0.391 0.873 28 16 8
-2161.1890 3212.0867 -371.7921 0.852 0.520 0.059 231 193 192
-2106.6912 3534.0466 -506.8361 0.374 -0.543 -0.752 229 198 198
-2117.3445 3563.2617 -513.6067 0.302 -0.571 -0.764 229 200 199
-2009.5934 3411.7083 -496.9349 0.817 -0.475 0.326 226 200 199
-2005.9287 3417.2451 -500.2162 0.779 -0.539 0.320 226 200 199
-1991.0446 3404.3518 -500.8076 0.138 -0.781 -0.609 227 201 200
-2007.8640 3467.0200 -517.4517 0.194 -0.830 0.524 227 201 200
-1938.1263 3958.0886 -718.7217 0.500 -0.083 -0.862 211 161 153
-1851.0013 3866.6875 -716.4504 0.681 -0.497 -0.538 213 163 152
-1878.2306 4022.2998 -762.8893 0.431 -0.859 -0.278 81 59 46
-1862.0289 4002.8823 -761.5958 0.657 -0.467 0.592 42 24 10
-1846.8667 3985.4644 -760.6563 0.826 -0.550 0.122 42 28 15
-1823.8812 3980.1331 -766.8176 -0.126 -0.846 0.518 55 39 31
-1757.1681 4085.2622 -828.1096 0.850 -0.452 -0.269 213 169 171
-1684.9929 3994.3916 -820.7738 -0.183 -0.879 0.441 230 200 204
-1622.9451 3864.4253 -795.8058 0.681 -0.592 -0.431 230 200 206
-1659.8254 3965.4111 -819.1899 0.679 -0.543 -0.494 229 200 205
-1660.0493 3980.8477 -824.6674 0.662 -0.552 -0.507 231 201 206
-1661.1649 3998.4778 -830.6210 0.710 -0.410 -0.573 232 202 207
-1654.5768 3997.9214 -832.7367 0.648 -0.406 -0.644 232 201 207
-1652.5371 4008.1628 -837.1400 0.648 -0.406 -0.644 232 201 207
-1607.1544 3929.5166 -824.7858 0.343 -0.366 -0.865 230 200 204
-1606.3514 3942.4685 -829.7299 0.368 -0.356 -0.859 230 200 204
-1595.8439 3961.9419 -840.4329 0.447 -0.416 -0.792 228 198 202
-1601.6287 3991.2388 -848.9445 0.509 -0.801 -0.317 230 199 204
-1599.0737 4000.1982 -853.0675 -0.161 -0.986 0.033 231 201 206
-1587.9667 3988.0430 -852.5969 -0.172 -0.985 -0.013 231 202 206
-1577.2413 3991.9556 -857.7755 -0.212 -0.977 0.022 229 203 206
-1567.7483 3983.5356 -858.0819 0.624 -0.718 -0.309 231 202 206
-1528.1917 3899.4294 -841.7144 0.526 -0.734 -0.429 229 203 206
-1244.8300 3496.7578 -796.3885 -0.178 -0.705 -0.686 233 201 206
-1224.5157 3523.3760 -813.1106 0.022 -0.767 -0.642 231 200 205
-2716.1985 1532.9691 421.3556 0.244 -0.613 -0.751 75 65 56
-2623.3198 1606.5925 362.2551 0.570 -0.455 0.684 77 67 58
-2618.0742 1609.3535 359.4221 0.801 -0.405 0.440 82 72 63
-2551.0801 1617.4895 333.0451 0.849 -0.244 0.468 81 71 62
-2550.6780 1622.7671 330.9970 0.839 -0.251 0.483 80 67 59
-2361.0090 1722.1580 228.7235 0.670 -0.532 0.518 68 51 44
-2359.0681 1726.5531 226.4561 0.758 -0.183 0.626 66 47 34
-2355.1331 1729.6748 223.9512 0.764 -0.179 0.620 117 98 84
-2337.7026 1724.1017 219.8677 0.597 -0.616 0.513 168 146 132
-2347.3394 1741.6200 216.9075 0.877 -0.147 0.457 198 176 162
-2313.8057 1840.7307 169.3563 0.551 -0.042 -0.834 199 183 168
-2318.9768 1850.3187 167.7001 0.567 -0.044 -0.823 192 176 161
-2322.4055 1858.7169 165.8644 0.973 -0.169 0.157 187 171 156
-2313.9458 1894.8915 149.8308 0.788 0.003 0.615 135 122 113
-2315.7271 1902.2865 147.7813 0.906 0.002 0.424 82 69 60
-2316.7285 1909.1375 145.6556 0.936 0.083 0.341 54 41 32
-2311.6292 1923.8236 138.5639 0.900 -0.211 -0.382 60 44 35
-2321.0300 1936.9958 137.0920 0.648 -0.440 -0.622 76 49 41
-2831.2771 2746.1558 23.1502 -0.250 -0.800 -0.545 115 59 44
-1769.5052 1987.0298 -73.9317 0.893 -0.334 0.302 200 144 147
-1753.5449 1976.8662 -75.8419 0.966 -0.215 0.142 200 144 147
-1749.9254 1979.2540 -77.9711 0.733 -0.674 0.095 195 144 147
-1741.9712 1977.1775 -80.0033 0.739 -0.667 0.093 194 144 147
-1745.0928 1986.4955 -82.2789 0.904 -0.291 0.313 194 144 147
-2382.6741 2856.4321 -173.6408 0.920 -0.217 0.326 146 100 102
-2371.5901 2853.1389 -176.3281 0.994 -0.106 0.010 139 93 95
-2794.9556 3352.7371 -208.7837 0.979 0.158 -0.129 176 130 132
-2596.2727 3178.1865 -215.2041 0.279 -0.449 0.849 216 175 173
-2553.3135 3190.1379 -234.5520 0.287 -0.393 0.874 24 12 4
-2536.2083 3180.2539 -236.9638 0.296 -0.382 0.876 33 23 14
-2508.6973 3168.1675 -242.2197 0.164 -0.639 0.752 69 48 43
-2499.2263 3167.1414 -245.1621 0.164 -0.639 0.752 185 157 154
-2491.0730 3167.6572 -248.2008 0.159 -0.640 0.752 205 172 171
-2470.8171 3163.8059 -253.8950 0.764 -0.505 0.401 208 166 168
-1946.0718 3236.6213 -463.7841 -0.035 -0.711 -0.703 231 197 198
-1996.2952 3327.7578 -479.1524 0.147 -0.552 -0.821 231 197 198
-2121.9951 3564.6331 -520.7888 0.291 -0.581 -0.761 229 200 199
-2006.6898 3412.6040 -506.1807 0.779 -0.539 0.320 226 200 199
-1940.1903 3871.5881 -695.3279 0.520 -0.630 0.577 232 178 176
-1891.7443 3831.4529 -697.7704 0.905 -0.416 0.091 223 169 167
-1900.2998 3862.0015 -705.8181 0.996 -0.032 0.077 222 169 164
-1936.7594 3948.1416 -724.1957 0.819 0.427 0.383 210 157 149
-1897.2988 3883.6064 -714.6763 0.997 -0.019 0.076 202 152 140
-1863.2927 3843.1235 -711.9416 0.961 0.222 0.166 202 152 141
-1770.4479 3669.6965 -681.7426 0.985 0.089 0.146 199 149 138
-1875.4261 4008.9753 -767.6382 0.325 -0.942 -0.086 81 59 46
-1853.0236 3976.5713 -763.7641 0.518 -0.824 -0.229 42 24 10
-1677.4937 4029.2688 -844.2156 0.649 -0.516 -0.560 228 203 207
-1615.0068 3955.6299 -839.4612 0.383 -0.348 -0.856 226 202 204
-1611.0699 3961.1167 -842.8216 0.292 -0.400 -0.869 226 202 204
-1605.1863 3961.8831 -845.1569 0.285 -0.409 -0.867 199 175 178
-1602.9094 3971.4077 -849.3957 0.447 -0.416 -0.792 185 161 164
-1605.3545 3992.5276 -856.1733 0.518 -0.796 -0.314 209 185 188
-1560.0588 3986.9558 -870.0054 -0.061 -0.994 -0.093 228 202 205
-1213.6365 3513.1392 -819.9506 0.521 -0.381 0.764 224 192 197
-2609.0217 1574.5487 362.6184 0.579 -0.318 0.750 53 43 34
-2357.0300 1705.6400 227.3213 0.678 -0.298 0.672 62 47 40
-2353.1819 1708.7913 224.8380 0.678 -0.298 0.672 70 53 46
-2351.2771 1713.1737 222.5846 0.795 -0.237 0.558 76 59 51
-2343.0071 1713.5024 219.5863 0.778 -0.286 0.559 130 111 98
-2337.8931 1715.8263 216.9626 0.773 -0.292 0.564 183 164 150
-2336.8215 1720.7386 214.8069 0.597 -0.616 0.513 214 192 178
-2316.4543 1845.5670 162.4175 0.768 0.038 0.639 204 188 173
-2313.8281 1897.8517 142.5297 0.908 0.010 0.420 58 44 35
-2318.0598 1931.6854 131.7249 0.442 -0.875 -0.195 66 45 35
-1779.9213 1994.5240 -78.4198 0.526 -0.739 0.421 195 139 142
-1763.2997 1989.8654 -82.5157 0.588 -0.698 0.409 196 145 148
-1752.5164 1984.9373 -84.4813 0.829 -0.481 0.287 197 147 150
-1749.5427 1987.9974 -86.6270 0.827 -0.475 0.299 199 149 152
-2375.4688 2852.8674 -182.5773 0.991 0.098 0.090 192 146 148
-2794.4922 3357.6335 -219.8780 0.932 -0.057 -0.357 208 162 164
-2540.4583 3169.7185 -240.1219 0.296 -0.382 0.876 30 18 10
-2531.6392 3169.6082 -243.1521 0.296 -0.382 0.876 30 20 11
-2508.5063 3162.7241 -248.7071 0.159 -0.640 0.752 47 25 20
-2499.0024 3161.6587 -251.6291 0.159 -0.640 0.752 159 132 129
-2489.5381 3160.5974 -254.5387 0.159 -0.640 0.752 204 172 170
-2088.7017 3446.2510 -497.7421 0.025 -0.777 -0.629 227 195 196
-2138.0103 3572.2283 -526.2923 0.112 -0.863 -0.493 234 203 203
-1937.7615 3501.7656 -570.4343 -0.200 -0.962 0.186 228 198 198
-1832.8175 3829.3074 -725.8300 0.936 0.244 0.254 208 160 150
-1873.2509 3953.9863 -756.9987 0.706 -0.599 0.378 197 154 148
-1879.8574 3981.9104 -764.8322 0.767 -0.625 0.141 193 156 148
-1880.9974 3998.6682 -770.5166 0.568 -0.680 0.463 135 106 96
-1873.8800 3998.3152 -772.8662 0.700 -0.672 0.241 102 80 67
-1850.2426 3963.3718 -768.4145 0.897 -0.435 0.085 66 49 34
-1673.5488 3952.5249 -825.9904 -0.104 -0.862 0.495 101 85 85
-1644.6857 3900.1699 -817.0394 0.321 -0.337 -0.885 107 92 92
-1641.7139 3937.2202 -831.5191 0.328 -0.331 -0.885 176 159 160
-1638.1105 3943.5146 -835.0577 0.320 -0.347 -0.882 182 165 166
-1627.9244 3963.9619 -846.0239 0.335 -0.387 -0.859 162 146 146
-1626.4325 3975.3831 -850.6879 0.352 -0.364 -0.862 134 118 118
-1620.6417 3976.4858 -853.1040 0.292 -0.400 -0.869 108 90 91
-1571.4779 4007.7563 -881.5671 -0.320 -0.932 0.170 227 201 204
-1554.8643 3981.2800 -877.7428 -0.042 -0.999 -0.022 226 200 203
-1546.2219 3974.7471 -878.3807 0.584 -0.680 -0.444 228 199 203
-1247.5718 3588.6819 -842.2500 0.809 -0.581 -0.093 218 188 193
-2620.6819 1567.0009 363.1927 0.887 0.316 0.335 53 43 34
