ply
format ascii 1.0
element vertex 798
property float x
property float y
property float z
property float nx
property float ny
property float nz
property uchar diffuse_red
property uchar diffuse_green
property uchar diffuse_blue
end_header
-1855.4357 5697.2842 694.8904 -0.217 -0.831 0.512 179 118 101
-1843.3905 5689.8662 685.8875 -0.247 -0.805 0.539 130 76 63
-1830.3807 5679.6528 676.5827 -0.247 -0.805 0.539 100 52 44
-1816.3407 5718.9634 656.9586 0.743 -0.362 -0.562 70 49 44
-1825.5717 5798.7910 649.7427 0.928 -0.241 -0.284 69 50 44
-1829.8566 5838.2930 645.9274 0.947 -0.273 -0.168 69 50 44
-1818.3065 5832.4380 637.0549 0.816 -0.473 0.331 75 56 50
-1814.3530 5848.5293 630.5730 0.817 -0.474 0.329 75 56 50
-1757.1891 5736.7705 602.4215 -0.275 -0.791 0.547 74 56 52
-1695.2932 5690.2134 557.7653 0.992 -0.065 -0.112 28 17 15
-1602.3043 5742.2700 467.4495 0.653 -0.757 0.019 45 33 20
-1581.9530 5706.1655 456.7258 -0.015 -0.915 0.403 165 147 130
-1569.2936 5694.4976 448.0009 -0.007 -0.915 0.404 213 189 171
-1556.7788 5683.1377 439.3424 0.161 -0.723 0.672 218 189 170
-1503.3990 5684.4487 392.9367 0.613 -0.482 0.626 247 202 183
-1452.8407 5663.6060 353.1882 -0.076 -0.795 0.601 253 210 193
-1321.5265 5832.4053 207.5078 0.685 -0.298 0.665 79 58 55
-1312.5908 5832.2554 199.8098 0.698 -0.294 0.653 64 43 40
-1304.3724 5834.8843 192.2031 0.698 -0.294 0.653 69 48 45
-1291.7917 5820.2314 184.1145 0.388 -0.563 0.730 65 44 41
-1291.0308 5960.6040 156.7322 0.919 -0.164 -0.359 50 36 28
-1269.9335 6178.1250 97.0779 -0.013 -0.647 0.762 78 28 17
-1226.6603 6675.9971 -35.1250 -0.433 -0.848 -0.305 228 125 118
-1218.6436 6684.9614 -43.7635 0.481 -0.550 0.682 229 124 118
-139.1964 4520.4209 -565.0462 0.311 -0.455 0.835 255 33 86
-39.1035 3925.5408 -538.3400 -0.178 -0.908 0.381 255 147 153
-34.3974 3931.5576 -543.5547 -0.121 -0.914 0.386 255 174 165
-4169.8848 5050.4819 2802.8584 -0.515 -0.760 0.397 174 168 152
-3415.2622 6287.6235 1912.5150 0.968 -0.249 -0.012 133 84 51
-1862.9208 5695.3330 686.0917 -0.238 -0.807 0.541 147 102 81
-1850.1272 5685.8896 676.8641 -0.247 -0.805 0.539 105 65 49
-1837.1058 5675.6904 667.5856 -0.247 -0.805 0.539 81 46 33
-1821.9579 5819.0117 626.8592 0.816 -0.473 0.331 68 49 43
-1811.8107 5817.1011 618.4643 0.812 -0.474 0.341 68 49 43
-1780.3545 5753.2812 603.6071 -0.427 -0.816 0.390 68 49 45
-1551.0918 5668.1558 422.0256 0.511 -0.696 0.505 215 179 165
-1524.3347 5668.4639 398.8577 0.871 -0.352 0.343 248 200 189
-1512.1188 5657.5410 390.4143 0.854 -0.400 0.332 246 200 184
-1501.3708 5681.1973 376.5691 -0.158 -0.810 0.565 240 195 176
-1436.7164 5766.6396 304.2508 0.327 -0.408 0.853 251 215 201
-1364.2206 5729.3096 248.8407 0.826 -0.495 0.270 249 220 212
-1323.0820 5807.9077 198.1517 0.685 -0.298 0.665 72 51 48
-1314.6299 5809.5166 190.5418 0.695 -0.294 0.656 64 43 40
-1296.4380 5950.0449 147.7253 0.919 -0.164 -0.359 47 37 28
-1282.7671 6531.2905 23.8073 0.404 -0.235 -0.884 235 148 138
-1281.4741 6659.4810 -2.0348 0.272 -0.308 -0.912 231 142 133
-4352.3916 5229.9766 2908.8091 -0.516 -0.760 0.396 230 221 210
-4206.5137 5080.6562 2812.1482 -0.516 -0.760 0.396 189 184 168
-2776.4146 5654.6558 1466.3887 0.898 -0.380 -0.222 31 21 12
-2795.8062 5936.6411 1428.0217 -0.688 -0.457 -0.564 29 21 14
-2750.2637 5868.6807 1402.0146 -0.678 -0.498 -0.540 30 20 14
-1842.8932 5669.1514 658.2953 -0.227 -0.830 0.509 65 43 28
-1793.9635 5741.9077 601.8732 -0.159 -0.820 0.549 61 45 39
-1777.1876 5720.4468 591.5952 -0.427 -0.826 0.367 61 45 40
-1702.6848 5664.2891 538.3008 -0.088 -0.988 -0.126 39 28 26
-1688.0164 5647.7402 528.8809 0.910 -0.369 0.189 39 28 26
-1669.6222 5647.1211 513.1351 0.638 -0.371 0.674 39 28 26
-1622.0267 5724.9863 456.8656 0.653 -0.757 0.019 20 12 5
-1614.8131 5731.0205 449.4642 0.653 -0.757 0.019 22 9 3
-1520.9778 5690.5254 376.4333 -0.108 -0.821 0.560 226 181 167
-1509.9292 5683.5127 368.2727 -0.108 -0.821 0.560 228 183 169
-1505.2211 5697.7021 361.4392 -0.095 -0.814 0.573 230 185 171
-1492.8448 5686.0908 353.0321 0.777 -0.559 0.288 242 197 183
-1383.3038 5738.2666 248.3472 0.767 -0.542 0.342 247 221 213
-70.3203 3871.8081 -519.5728 0.477 -0.353 -0.805 255 42 86
-4386.6172 5256.9087 2915.9268 -0.516 -0.760 0.396 231 225 214
-4234.1084 5100.6191 2815.4551 -0.515 -0.760 0.397 199 195 180
-2937.4746 5796.6460 1560.5845 -0.334 -0.712 -0.618 39 20 17
-1834.3707 5700.6738 629.1719 0.704 -0.328 -0.629 50 37 32
-1800.6760 5737.6768 592.8195 -0.205 -0.824 0.529 43 31 27
-1786.9653 5725.1318 583.4890 -0.238 -0.839 0.490 37 24 21
-1723.4733 5674.9443 538.7171 -0.250 -0.860 0.444 29 21 18
-1718.2135 5686.5566 531.8875 -0.102 -0.987 -0.123 44 36 33
-1705.9177 5677.2876 523.1281 -0.111 -0.986 -0.128 44 36 33
-1627.0857 5715.6973 447.6082 0.786 -0.547 0.288 41 33 29
-1618.4225 5717.1079 439.8651 0.789 -0.549 0.276 27 15 9
-1608.1730 5713.4697 431.7542 0.687 -0.498 0.529 40 28 21
-1600.0675 5716.5903 424.1533 0.687 -0.498 0.529 58 44 37
-1575.6876 5725.7339 401.3391 0.749 -0.602 0.276 152 135 129
-1497.5369 5705.5361 338.0033 0.400 -0.903 0.158 213 173 172
-1490.0107 5710.3462 330.5671 0.415 -0.871 0.263 221 182 181
-1483.7732 5719.5806 323.3657 0.162 -0.866 0.473 225 188 187
-1474.9589 5720.0186 315.6849 0.162 -0.860 0.485 220 195 189
-1464.1655 5713.5776 307.6601 0.052 -0.883 0.466 218 196 188
-1454.2332 5710.0215 299.8063 0.052 -0.883 0.466 217 196 188
-1444.3258 5706.4751 291.9723 0.052 -0.883 0.466 217 196 188
-1431.6870 5724.5415 277.5081 0.065 -0.898 0.436 235 214 207
-1419.7717 5713.7554 269.3765 0.377 -0.835 -0.401 242 226 218
-1250.7784 6109.1338 45.5406 0.388 -0.700 0.599 122 73 69
-1239.3729 6099.4536 37.6293 0.394 -0.701 0.595 222 166 164
-1231.4835 6104.8857 29.7572 0.379 -0.714 0.589 209 146 146
-1222.0118 6103.4170 21.8873 0.379 -0.714 0.589 209 139 138
-1219.0121 6654.5015 -89.7440 -0.319 -0.883 -0.345 243 151 138
-4398.1138 5258.5068 2908.3630 -0.499 -0.764 0.410 226 221 210
-4279.8647 5140.6797 2830.2144 -0.532 -0.759 0.375 207 204 189
-1975.7897 5728.3721 729.7118 -0.261 -0.525 0.810 36 21 14
-1793.0854 5719.2803 574.3095 0.077 -0.787 0.612 31 20 16
-1809.2253 5847.4033 562.5261 0.179 -0.982 -0.064 16 11 7
-1705.1842 5678.4736 506.8438 -0.589 -0.808 -0.019 42 37 33
-1686.9240 5678.5996 491.1048 0.096 -0.981 0.170 52 47 43
-1668.6770 5706.5020 469.8118 -0.557 -0.831 0.014 52 47 43
-1658.2314 5702.5122 461.6224 -0.557 -0.830 0.002 88 83 79
-1639.6027 5701.3315 445.8282 0.789 -0.393 0.472 77 72 68
-1632.3289 5707.0518 438.4227 0.789 -0.393 0.472 50 42 38
-1625.8983 5715.4429 431.2075 0.684 -0.384 0.620 35 24 19
-1617.5740 5717.9126 423.5493 0.684 -0.384 0.620 32 21 15
-1431.2546 5726.6875 261.4561 0.343 -0.830 -0.439 222 203 197
-1424.2908 5733.5327 254.0918 0.330 -0.853 -0.404 230 214 207
-1415.4716 5733.7720 246.4547 0.330 -0.860 -0.390 241 234 229
-1261.6677 6120.7710 36.5563 0.132 -0.765 0.630 89 42 38
-1240.2389 6147.3608 12.7882 0.376 -0.705 0.601 227 159 158
-1346.8199 6788.4434 -23.9503 0.233 -0.181 -0.955 190 103 93
-1255.6527 6739.7524 -92.6469 -0.392 -0.870 -0.300 213 121 108
-1224.1588 6684.2920 -108.6359 -0.283 -0.845 -0.454 207 115 102
-1228.3402 6752.3379 -118.6721 -0.163 -0.553 -0.817 211 119 106
-4422.9009 5274.7939 2909.2178 -0.548 -0.790 0.275 221 215 204
-3803.3010 6096.6333 2209.9434 0.900 -0.271 -0.342 130 89 57
-2494.0134 5963.0703 1111.6996 -0.367 -0.724 -0.584 29 19 17
-2466.6882 5949.1050 1091.0466 -0.346 -0.708 -0.616 29 19 17
-2462.9583 5963.9990 1084.8192 -0.349 -0.713 -0.608 29 19 17
-2451.3154 5961.3818 1075.3431 -0.355 -0.724 -0.592 29 19 17
-1678.9225 5713.2310 461.8093 -0.557 -0.831 0.014 52 47 43
-1667.1219 5705.1714 453.3017 -0.557 -0.831 0.014 36 31 27
-1654.0142 5692.9727 444.5102 0.411 -0.911 0.030 65 60 56
-1641.3408 5681.9565 435.8522 0.757 -0.449 0.476 82 77 73
-1637.4125 5697.9722 429.2267 0.761 -0.438 0.478 79 71 68
-1351.7286 5763.7427 170.3372 0.345 -0.530 0.775 57 41 42
-1286.9264 6844.9336 -104.6998 -0.544 -0.774 -0.324 209 117 104
-1264.3289 6785.9546 -112.1576 -0.054 -0.662 -0.748 215 123 110
-1248.3230 6757.5215 -120.1465 -0.105 -0.565 -0.819 193 101 88
-4415.8521 5255.8535 2889.8513 -0.494 -0.814 0.306 217 212 201
-4365.7373 5213.9951 2855.4255 -0.561 -0.788 0.255 227 224 209
-3805.0667 6065.3442 2199.2700 0.891 -0.269 -0.367 125 84 52
-2939.6943 5889.7070 1492.4410 0.942 -0.262 -0.209 41 31 22
-2561.5508 6067.2275 1131.3594 -0.733 -0.632 0.251 29 19 17
-2480.7996 5960.2891 1083.9978 -0.341 -0.723 -0.600 29 19 17
-2026.7554 6307.4121 622.9274 0.702 -0.551 0.451 26 15 11
-2010.9548 6291.9272 612.5430 0.698 -0.519 0.493 20 9 5
-1679.8689 5691.6973 451.5797 0.216 -0.970 -0.114 52 47 43
-1665.5685 5703.8418 436.8090 -0.557 -0.831 0.014 54 49 45
-1651.3237 5688.1191 427.8092 0.291 -0.955 0.046 67 62 58
-1306.1077 6401.4146 -15.0334 0.365 -0.099 -0.926 229 148 137
-4408.1890 5236.3120 2870.1995 -0.454 -0.837 0.307 228 223 212
-4375.2002 5213.4233 2846.6716 -0.517 -0.800 0.304 228 224 210
-4310.5107 5155.2798 2803.2896 -0.540 -0.776 0.325 199 184 169
-2698.8672 6224.7412 1199.1082 0.332 -0.718 -0.612 38 29 24
-2610.4644 6129.5957 1143.0845 -0.681 -0.703 0.206 36 26 24
-2587.4604 6103.3013 1128.8256 -0.726 -0.643 0.245 36 26 24
-2534.1763 6010.9448 1102.3342 -0.501 -0.756 -0.421 36 26 24
-2380.2715 5948.2788 983.3958 -0.524 -0.783 -0.336 29 21 18
-2308.5596 5877.6147 936.5950 0.426 -0.804 0.416 26 17 12
-1888.7076 5948.0591 561.9549 0.069 -0.803 -0.592 11 1 0
-1858.2299 5888.7578 548.1480 0.743 -0.664 0.081 23 16 13
-1685.7756 5685.3071 442.5672 0.578 -0.774 0.259 48 43 39
-1648.8208 5683.8350 411.1868 -0.546 -0.838 -0.002 56 48 45
-1636.6946 5674.4312 402.7438 0.561 -0.800 0.213 94 85 80
-1624.9038 5665.9390 394.3991 0.776 -0.457 0.436 88 79 74
-1370.1986 5774.1777 153.5067 0.434 -0.399 0.807 58 42 43
-1335.1841 5676.3457 143.8187 -0.514 -0.812 -0.276 56 40 41
-1271.9088 6099.2329 1.6645 0.198 -0.721 0.664 92 40 40
-175.8296 4343.1157 -573.1390 0.773 -0.202 0.601 252 36 89
-4200.0571 4920.2881 2741.3494 -0.013 -0.680 0.733 226 223 208
-4364.6030 5164.0474 2830.9941 0.507 -0.493 -0.707 227 223 211
-4386.4224 5214.7842 2839.0081 -0.443 -0.817 0.368 228 224 210
-3815.4900 5924.4912 2200.7712 0.174 -0.538 0.825 157 114 82
-3819.8813 6020.1699 2184.4065 0.930 -0.251 -0.267 151 110 78
-3795.3196 6002.1914 2167.1531 0.899 -0.274 -0.342 147 106 74
-3804.4685 6070.3584 2160.6497 0.449 -0.565 0.692 127 86 54
-3714.5034 6102.0820 2076.9299 0.816 -0.306 0.491 130 84 51
-3487.1128 6266.5918 1847.5863 0.919 -0.276 -0.282 103 72 41
-3460.8716 6304.4507 1817.1495 0.918 -0.389 0.075 111 80 49
-2935.3799 5709.7944 1492.1989 -0.347 -0.777 -0.525 43 21 19
-3037.2969 6405.0688 1433.2318 0.899 -0.423 0.117 29 13 4
-2691.6108 6189.1826 1182.5948 0.337 -0.729 -0.596 33 24 19
-2671.3906 6169.6772 1169.3810 -0.652 -0.745 0.140 34 25 20
-2650.7688 6149.1309 1156.0420 -0.652 -0.745 0.140 34 25 20
-2638.0474 6145.3022 1145.9528 -0.655 -0.739 0.154 34 25 20
-2389.7920 5949.5918 974.5119 -0.510 -0.731 -0.454 26 18 15
-2321.1631 5910.0674 924.0515 -0.512 -0.686 -0.517 31 22 17
-1925.7836 5973.4976 572.1028 0.123 -0.798 -0.591 27 16 12
-1895.5254 5915.8511 558.3154 0.157 -0.802 -0.577 24 13 9
-1758.2555 5739.7192 477.8052 0.113 -0.687 0.718 38 33 29
-1683.2008 5680.9263 425.8948 0.402 -0.503 0.765 54 49 45
-1667.6506 5661.4272 416.6790 0.441 -0.519 0.733 54 49 45
-1656.6982 5655.7197 408.4998 0.399 -0.576 0.714 54 49 45
-1640.0302 5688.1885 387.3954 -0.545 -0.838 -0.026 70 61 56
-1624.1530 5667.0273 378.2493 0.579 -0.815 0.014 79 70 65
-1613.8567 5663.0801 370.2617 0.291 -0.771 0.567 85 76 71
-1603.8983 5660.1206 362.3559 0.752 -0.424 0.504 84 75 70
-1370.9043 5715.2051 151.2310 -0.483 -0.832 -0.274 76 60 61
-1337.3871 5688.3369 128.1783 -0.562 -0.779 -0.278 46 30 31
-1348.6860 6041.9927 63.4641 0.902 0.100 -0.419 60 40 39
-1345.3143 6065.1396 55.7075 0.934 0.079 -0.348 56 36 35
-1343.0428 6883.6152 -118.4022 0.409 -0.387 0.826 234 142 129
-1352.3611 7322.6914 -202.7808 0.514 -0.019 -0.858 196 100 93
-183.1095 4295.2935 -567.3310 0.831 -0.175 0.529 255 41 92
13.8946 3307.9065 -528.3523 -0.692 -0.664 0.283 255 182 161
-4367.9463 5026.8340 2846.2109 -0.016 -0.684 0.729 228 222 208
-4399.4893 5218.1582 2832.4707 -0.439 -0.817 0.374 228 224 210
-3876.9822 5980.4600 2223.2830 -0.018 -0.500 0.866 156 113 81
-3806.4475 5896.7441 2180.7673 0.174 -0.538 0.825 157 114 82
-3466.2400 6275.5415 1809.1389 0.918 -0.392 0.057 106 73 42
-3461.9128 6288.7549 1802.6251 0.923 -0.314 0.220 106 73 42
-3386.8103 6182.1978 1761.0637 0.910 -0.365 0.196 105 74 45
-3454.7002 6317.8203 1790.2693 0.856 -0.395 0.334 105 74 45
-2929.2798 5682.5684 1476.0432 -0.319 -0.767 -0.556 43 21 19
-3093.8386 6270.0312 1491.7682 -0.268 -0.863 -0.428 49 33 17
-3089.5168 6283.8359 1485.1333 -0.187 -0.854 -0.486 45 29 13
-3076.0967 6280.5264 1474.3583 -0.157 -0.969 -0.192 42 26 10
-3063.0449 6277.8623 1463.7612 -0.163 -0.973 -0.162 43 26 15
-3109.5659 6388.5049 1480.0052 0.248 -0.756 -0.606 46 29 19
-3098.8357 6390.5933 1470.3821 0.623 -0.609 -0.491 49 32 22
-3056.8879 6355.3120 1442.0101 -0.325 -0.723 0.610 47 30 20
-3037.0537 6339.6318 1428.3821 0.915 -0.400 -0.059 42 25 15
-2694.3555 6174.9326 1170.3002 0.217 -0.741 -0.636 26 17 12
-2677.1194 6161.7744 1158.3575 -0.630 -0.760 0.160 27 18 13
-2598.0876 6109.3755 1101.9081 -0.687 -0.697 0.206 39 29 27
-2342.8823 5916.1562 924.7358 -0.509 -0.690 -0.515 38 29 24
-2325.2773 5922.8281 908.2570 -0.516 -0.688 -0.510 29 20 15
-1972.5210 5588.8276 677.6057 0.371 -0.492 -0.788 35 22 14
-1962.4091 5586.9077 669.3648 0.601 -0.545 -0.585 35 22 14
-1859.0162 5843.3135 526.3519 0.772 -0.630 0.083 60 53 50
-1760.0861 5721.2964 467.6992 0.099 -0.696 0.711 38 33 29
-1713.5018 5665.5972 439.7071 0.736 -0.289 0.613 48 43 39
-1668.4425 5639.7266 406.6707 0.417 -0.909 0.010 54 49 45
-1658.0239 5635.5786 398.6417 0.482 -0.875 -0.042 54 49 45
-1650.2434 5695.0693 379.3246 -0.545 -0.838 -0.026 59 48 44
-1638.8326 5687.9097 371.0879 -0.545 -0.838 -0.026 67 56 52
-1418.4427 5606.8750 199.8188 0.627 -0.669 0.400 65 52 49
-1373.8202 5729.6724 135.5136 0.373 -0.599 0.709 67 51 52
-1360.3988 6166.7217 31.0123 0.927 0.077 -0.366 39 18 14
-74.6615 3917.1208 -589.9750 0.231 -0.789 0.569 253 183 153
10.2706 3304.2004 -532.1707 -0.730 -0.646 0.225 255 182 162
-4382.1992 5201.5864 2804.2568 -0.470 -0.790 0.393 225 212 197
-4229.5068 5059.6118 2704.3760 -0.475 -0.783 0.402 134 110 90
-4153.8584 4988.7886 2654.9961 -0.475 -0.784 0.400 125 101 79
-3456.6799 6242.2183 1789.4650 0.882 -0.290 0.372 101 68 38
-3395.1826 6179.2300 1750.4883 0.946 -0.279 0.166 102 72 42
-2944.3953 5693.2192 1470.0121 -0.319 -0.767 -0.556 43 21 19
-3108.8003 6301.3013 1479.5332 -0.219 -0.934 -0.282 59 43 27
-3088.0176 6284.2222 1465.4553 -0.157 -0.969 -0.192 51 35 19
-3069.5513 6271.3672 1452.4469 -0.194 -0.958 -0.212 35 21 9
-3120.5225 6390.1006 1470.4270 0.649 -0.607 -0.458 35 21 10
-3110.8989 6394.3169 1461.2974 0.622 -0.610 -0.491 43 30 19
-3105.2095 6406.0513 1453.9098 0.622 -0.610 -0.491 50 37 25
-2726.3811 6198.9893 1174.8458 0.343 -0.719 -0.604 18 10 4
-2719.8354 6208.5322 1167.1987 0.343 -0.719 -0.604 21 13 8
-2696.4976 6206.0552 1147.7935 -0.665 -0.705 0.246 22 14 8
-2640.3784 6156.7964 1110.4551 -0.724 -0.645 0.247 20 11 9
-2411.3333 5934.4165 962.6562 0.567 -0.533 0.628 55 46 44
-1983.0160 5766.8008 632.8177 0.249 -0.692 0.677 35 20 13
-1958.3810 6016.4619 558.0117 0.349 -0.909 0.229 33 22 18
-1900.3115 5881.8530 537.3853 0.076 -0.833 -0.548 41 30 26
-1886.8102 5871.0264 528.1819 0.307 -0.731 -0.610 47 37 33
-1872.5361 5857.8818 518.8173 0.223 -0.937 0.267 77 68 65
-1683.3931 5688.2915 393.7415 0.610 -0.792 -0.006 54 49 45
-1678.9823 5702.6353 386.8846 0.600 -0.800 -0.007 56 48 45
-1679.8594 5733.2422 381.0432 -0.577 -0.816 0.018 63 53 49
-1650.8855 5700.4805 363.3441 -0.548 -0.836 -0.018 49 38 35
-1626.1370 5680.0708 346.5951 -0.570 -0.821 0.026 56 46 42
-1610.8632 5660.5654 337.7461 -0.553 -0.832 0.042 62 52 48
-1576.7986 5638.0347 313.4947 -0.408 -0.910 0.067 82 76 69
-1565.1511 5629.3574 305.4121 0.759 -0.474 0.446 81 77 69
-1477.9761 5604.6270 236.2598 -0.076 -0.997 0.027 52 36 30
-1465.1835 5591.0469 228.2546 -0.020 -0.897 0.441 42 26 20
-1428.3320 5614.5083 191.7188 0.622 -0.782 -0.049 74 63 60
-1369.7352 5718.3755 119.2913 -0.528 -0.845 -0.087 47 30 31
-1344.6842 5962.4858 45.3250 0.991 0.057 -0.124 49 29 28
-1290.6512 6075.3931 -25.1500 0.399 -0.624 0.672 69 20 16
-1083.4167 6445.7124 -281.9403 0.750 -0.431 0.502 207 105 96
-1072.7482 6488.2622 -300.2172 0.747 -0.432 0.505 207 105 96
-1044.1654 6537.5249 -335.2445 0.667 -0.455 0.590 206 104 98
-1040.6350 6569.9766 -345.2485 0.659 -0.515 0.548 206 104 97
-1038.6287 6611.3140 -355.8636 0.441 -0.626 0.643 204 102 96
-927.1169 7398.6294 -620.6650 -0.432 -0.874 -0.221 195 105 86
-910.9530 7581.1963 -673.7866 -0.325 -0.911 0.254 192 100 82
11.6164 3274.2368 -534.5669 -0.740 -0.672 0.026 254 160 148
-4383.0708 5009.4585 2829.9048 -0.013 -0.654 0.756 224 223 214
-4337.4624 5102.0630 2770.8154 0.355 -0.544 -0.761 225 224 212
-4398.2563 5208.2627 2799.5596 -0.475 -0.796 0.376 227 223 204
-4327.4863 5143.8042 2753.2107 -0.533 -0.778 0.332 171 164 142
-4242.5059 5063.2915 2698.2327 -0.527 -0.781 0.335 119 108 84
-3765.1692 6075.8774 2070.3547 0.953 -0.150 -0.265 150 101 68
-3750.2356 6071.9380 2058.4695 0.967 -0.174 0.186 149 100 67
-3693.1169 6059.6582 2012.4043 0.894 -0.435 0.110 146 100 67
-3674.8171 6050.3257 1998.8217 0.737 -0.350 0.578 156 110 77
-3447.8206 6312.4277 1748.0312 0.894 -0.356 0.274 108 80 51
-3432.5520 6327.9463 1731.6224 0.621 -0.201 0.758 106 78 50
-3028.6313 5945.6655 1470.2183 0.061 -0.662 0.747 22 12 2
-3127.8948 6274.5454 1483.2853 -0.018 -0.842 -0.539 85 70 51
-3128.4099 6297.3140 1478.7655 -0.157 -0.914 -0.374 81 66 47
-3122.4297 6308.0703 1471.3196 -0.228 -0.949 -0.217 73 58 39
-3099.9619 6287.9258 1456.5353 -0.157 -0.969 -0.192 65 50 34
-3142.1697 6389.4565 1470.4365 -0.073 -0.864 -0.499 57 44 32
-3132.1343 6392.9126 1461.1205 0.048 -0.819 -0.572 53 41 29
-2523.5388 5954.7388 1037.2388 0.366 -0.633 0.682 13 9 7
-1976.5388 5778.3174 608.9031 0.352 -0.701 0.620 40 27 21
-1966.9266 5778.3003 600.7048 0.332 -0.697 0.636 50 37 31
-1910.9990 5888.1196 529.0602 0.140 -0.842 -0.522 54 41 35
-1690.2905 5740.4312 372.8955 0.635 -0.760 0.140 46 41 38
-1499.8706 5622.4639 236.1028 -0.061 -0.998 -0.004 71 60 60
-1483.2720 5596.4531 227.6044 -0.049 -0.999 0.017 69 58 58
-1470.9854 5584.6211 219.6973 -0.018 -0.895 0.445 68 57 57
-1460.1912 5577.6689 212.0007 0.002 -0.891 0.455 56 45 45
-1453.0867 5583.1509 204.7444 0.474 -0.674 0.567 51 40 40
-1448.3981 5596.9194 197.7445 0.609 -0.788 -0.086 44 33 34
-1444.5887 5613.8296 190.8105 0.621 -0.783 -0.034 40 29 29
-1437.0874 5618.1270 183.4735 0.624 -0.781 -0.027 91 81 81
-1432.2616 5693.2773 162.9865 0.926 -0.350 0.142 35 25 25
-1354.1379 6075.9507 12.9692 0.992 0.046 -0.121 45 17 15
-1278.0542 6027.3804 -41.3747 0.155 -0.585 0.796 71 35 25
-1350.4763 6704.4937 -127.0633 0.655 -0.676 0.338 241 142 132
-1056.2473 6310.1992 -292.2489 0.886 -0.448 -0.115 217 113 97
-1041.2935 6328.0605 -308.8998 0.890 -0.448 -0.086 217 113 97
-1028.4448 6508.6196 -359.1927 -0.302 -0.727 0.617 214 111 95
-88.7968 3917.9956 -596.7241 -0.244 -0.959 0.147 255 174 150
-4363.9004 4978.9351 2803.8298 -0.013 -0.654 0.756 225 224 219
-4407.5972 5180.8594 2796.5869 -0.271 -0.919 0.286 223 225 213
-4354.5054 5162.6562 2755.3481 -0.537 -0.782 0.315 183 178 156
-4261.6787 5073.7456 2695.8208 -0.543 -0.777 0.319 125 116 92
-4170.4746 4986.1235 2637.3923 -0.541 -0.777 0.323 123 109 85
-3622.4685 5741.9551 2003.8209 0.671 -0.495 0.552 145 100 67
-3615.0203 5748.2441 1996.0873 0.779 -0.446 0.440 151 105 72
-3761.6421 6055.0972 2053.4492 0.958 -0.259 -0.127 163 114 81
-3735.9624 6053.3984 2031.9373 0.962 -0.255 -0.099 162 113 80
-3701.0032 6074.6465 1997.4609 0.843 -0.535 0.058 118 72 39
-3470.6057 6092.4951 1797.1646 0.951 -0.063 0.304 111 71 39
-3425.0281 6195.2998 1735.6709 0.917 -0.133 0.375 91 64 35
-3457.9128 6291.4004 1742.5266 0.911 -0.356 0.209 101 74 45
-3449.3967 6297.5771 1733.9076 0.894 -0.356 0.274 107 80 51
-3450.7292 6320.5273 1729.9872 0.560 -0.301 0.772 111 84 55
-3425.5435 6298.3286 1713.4122 0.860 -0.380 0.340 106 79 50
-3403.0383 6343.1528 1684.3563 0.941 -0.228 0.251 81 61 26
-3031.4832 5933.6270 1457.9065 0.046 -0.668 0.743 22 12 2
-3015.8811 5925.5645 1446.3854 0.032 -0.671 0.741 30 20 10
-3029.6335 6011.7720 1439.1144 0.855 -0.246 -0.457 65 52 35
-3142.2039 6282.5327 1475.4061 -0.198 -0.801 -0.566 78 63 44
-3146.3994 6312.1177 1472.4642 -0.172 -0.734 -0.657 77 62 43
-3151.3577 6343.3105 1469.8181 -0.183 -0.813 -0.553 74 59 40
-3141.6985 6347.3457 1460.6967 -0.183 -0.813 -0.553 70 56 40
-3136.1492 6359.1006 1453.3773 -0.225 -0.974 -0.005 59 46 34
-3122.7185 6356.0562 1442.6016 -0.225 -0.974 -0.005 53 41 29
-2504.5818 5871.9971 1022.4138 0.336 -0.617 0.712 15 11 10
-2484.3401 5873.1279 1004.9128 0.313 -0.631 0.710 31 27 26
-2473.8162 5872.7822 996.0197 0.420 -0.576 0.701 39 33 33
-2464.8936 5875.8950 987.7294 0.515 -0.761 0.394 44 37 37
-2421.3823 5916.8745 941.6174 0.168 -0.844 0.509 38 22 25
-2397.5098 5909.6509 922.8625 0.560 -0.683 0.469 37 21 28
-2369.1809 5915.4185 897.4476 0.191 -0.828 0.528 41 33 42
-2359.2720 5916.2466 888.8201 0.102 -0.774 0.625 45 37 48
-2237.5933 6067.0483 751.8926 -0.227 -0.355 -0.907 33 23 24
-2231.2468 6076.8521 744.3237 -0.216 -0.356 -0.909 33 23 24
-2190.2031 6209.1440 680.1981 -0.048 -0.641 -0.766 58 43 38
-1629.5853 5559.1709 345.5849 0.621 -0.705 0.343 45 41 38
-1507.2856 5592.1626 234.0825 0.490 -0.782 0.385 64 55 56
-1495.6089 5611.7773 219.8093 0.520 -0.793 0.318 69 60 61
-1484.6846 5604.6719 212.0641 0.509 -0.799 0.321 72 63 64
-1457.7148 5602.4087 189.5768 0.071 -0.880 0.470 52 43 44
-1453.5214 5617.9775 182.5728 0.614 -0.789 -0.029 48 39 40
-1443.4196 5613.3545 174.9817 0.624 -0.781 -0.027 60 50 51
-1446.2124 5653.2642 168.5696 0.939 -0.273 0.208 89 79 80
-1387.7394 5727.2446 102.4356 -0.538 -0.841 0.051 81 61 62
-1376.9032 5719.8506 94.8291 -0.538 -0.841 0.051 64 44 45
-1331.2683 5746.4067 50.0846 0.999 0.024 -0.024 57 31 30
-1344.2156 6004.5054 4.2587 0.992 0.048 -0.114 50 22 20
-1082.4802 6216.2490 -265.4628 0.737 -0.588 0.334 219 114 95
-1064.3508 6262.6709 -291.1412 0.828 -0.527 0.190 218 113 94
-1022.3926 6281.6099 -331.0739 0.628 -0.676 0.385 216 113 94
-949.7235 6491.9839 -439.3553 -0.142 -0.890 0.434 213 108 86
-765.7762 7622.7324 -845.2415 -0.450 -0.888 -0.096 190 98 77
-99.5602 3938.8972 -601.4766 -0.006 -0.967 0.253 255 160 145
-4385.1743 5185.4150 2759.5791 -0.537 -0.782 0.315 203 198 176
-4294.0566 5098.6548 2701.3447 -0.543 -0.777 0.319 131 122 98
-4200.5674 5008.7900 2641.7825 -0.543 -0.777 0.319 115 101 78
-3440.5332 6184.1338 1732.9412 0.862 -0.166 0.479 91 61 33
-3439.5127 6202.5142 1727.9774 0.862 -0.167 0.478 91 64 35
-3462.0195 6260.5049 1734.2166 0.898 -0.365 0.245 95 68 39
-3460.0908 6277.6855 1728.7471 0.906 -0.355 0.232 101 74 45
-3450.5005 6282.0010 1719.6218 0.891 -0.361 0.275 107 80 51
-3443.8591 6291.3213 1711.8918 0.561 -0.300 0.772 110 83 54
-3434.6111 6296.2402 1702.9235 0.896 -0.375 0.236 106 79 50
-3418.1973 6288.9233 1690.5812 0.994 -0.042 0.104 93 66 37
-2816.8923 5420.0977 1372.2854 -0.365 -0.793 0.489 44 22 17
-3035.0708 5922.9731 1445.9739 -0.007 -0.714 0.700 22 12 2
-3013.2634 5903.7070 1431.7026 -0.027 -0.722 0.691 30 20 10
-3153.6599 6306.9453 1461.3773 -0.188 -0.795 -0.577 72 57 38
-3154.6658 6330.6963 1456.9420 -0.161 -0.826 -0.540 77 62 43
-3147.5674 6339.4707 1448.9443 -0.125 -0.992 0.037 78 64 48
-3134.6272 6337.3428 1438.4032 -0.040 -0.927 0.372 62 49 36
-3106.2883 6306.2329 1421.2106 -0.202 -0.728 0.656 52 40 28
-2480.5239 5801.4185 1000.9943 0.229 -0.698 0.679 15 11 10
-2489.1030 5841.8716 999.2849 0.306 -0.634 0.710 25 21 20
-2483.6990 5852.4849 992.3199 0.301 -0.636 0.710 31 27 26
-2451.6609 5895.3755 955.4917 0.466 -0.814 0.347 60 44 47
-2442.1396 5897.2012 946.9799 0.466 -0.814 0.347 60 44 47
-2440.5903 5916.6821 941.3209 0.123 -0.949 0.291 46 30 33
-2432.5564 5921.8608 933.3281 0.112 -0.918 0.381 45 28 34
-2422.6130 5922.7856 924.6578 0.221 -0.961 0.165 45 28 34
-2408.5891 5937.7773 909.3798 0.216 -0.969 0.121 33 21 32
-2380.9556 5921.9824 889.3755 0.118 -0.699 0.706 44 31 44
-2322.5359 5905.5342 843.3101 0.544 -0.403 -0.736 27 16 29
-1507.7072 5597.0137 218.4190 0.509 -0.769 0.388 63 54 55
-1501.2152 5604.6431 211.1930 0.520 -0.793 0.318 73 64 65
-1490.3162 5597.6416 203.4750 0.509 -0.799 0.321 80 71 72
-1482.1979 5599.8403 196.0744 0.509 -0.799 0.321 77 68 69
-1462.9391 5593.9692 180.9882 0.074 -0.885 0.460 66 57 58
-1457.9824 5606.8418 173.9009 0.610 -0.751 0.253 61 52 53
-1451.8568 5615.8198 166.6863 0.601 -0.758 0.252 76 66 67
-1381.9648 5709.9097 86.2278 -0.534 -0.841 0.086 63 43 44
-1279.4478 6004.0054 -66.5629 0.473 -0.631 0.616 189 152 138
-1350.3629 7288.8569 -292.4518 0.886 -0.411 -0.215 222 115 99
-101.8463 4076.0039 -639.4572 -0.209 -0.871 0.444 254 182 149
-4346.0762 5092.4883 2730.3850 0.754 -0.631 -0.182 223 225 213
-4323.1919 5119.8896 2704.7554 -0.547 -0.770 0.329 139 130 106
-3695.9160 6054.1968 1960.9495 0.925 -0.375 0.060 114 68 35
-3488.1772 6206.2656 1750.0668 0.842 -0.185 0.507 92 61 33
-3481.5718 6215.3584 1742.4022 0.842 -0.185 0.507 91 61 33
-3470.9504 6258.2417 1723.7108 0.827 -0.378 0.415 95 68 39
-3457.7231 6276.8184 1708.2799 0.498 -0.296 0.815 107 80 51
-3435.1318 6259.1294 1693.0571 0.561 -0.300 0.772 110 83 54
-3443.3577 6293.6060 1692.2841 0.889 -0.356 0.287 106 79 50
-3423.6133 6280.6475 1678.4160 0.992 -0.045 0.114 94 67 38
-3420.1877 6316.2314 1667.4873 0.992 -0.033 0.125 80 58 23
-3408.7410 6317.4136 1657.4886 0.934 -0.237 0.267 82 62 27
-3035.3127 5906.3677 1432.5903 -0.311 -0.950 0.024 22 12 2
-3016.3906 5892.3149 1419.6680 -0.298 -0.951 0.088 29 19 9
-3014.7373 5949.7119 1405.3319 0.861 -0.249 -0.444 74 61 44
-3169.0955 6338.7559 1448.9279 -0.161 -0.826 -0.540 77 62 43
-3159.3167 6342.5679 1439.7548 -0.132 -0.991 0.035 83 68 52
-3133.7217 6316.8564 1423.7856 -0.106 -0.725 0.680 63 50 37
-2866.9436 5921.1704 1286.1038 -0.316 -0.760 -0.567 43 33 21
-2863.4604 5935.3506 1279.9478 -0.228 -0.713 -0.662 51 41 29
-2475.5955 5772.0649 986.9597 0.249 -0.683 0.686 15 11 10
-2501.9155 5850.2319 991.7283 -0.324 -0.837 -0.442 13 9 8
-2407.4556 5938.4028 891.5528 -0.346 -0.778 0.525 41 23 37
-2407.9990 5963.0464 886.4633 0.066 -0.781 0.621 48 29 43
-2393.0942 5952.7520 876.1099 0.067 -0.811 0.581 53 34 48
-2394.9958 5980.6987 871.4310 0.467 -0.692 0.550 49 30 44
-2331.2939 5929.0508 828.9052 0.476 -0.477 -0.739 20 15 30
-2265.9683 6356.8657 676.9860 0.158 -0.984 -0.080 34 19 14
-2265.9180 6384.2773 670.7679 0.137 -0.988 -0.068 40 27 21
-2230.1790 6319.5654 654.9599 0.009 -1.000 0.007 40 27 21
-1474.3633 5577.0786 179.6123 0.153 -0.830 0.537 81 72 73
-1468.7955 5587.7261 172.4799 0.073 -0.885 0.461 75 66 67
-1462.8489 5597.1714 165.2960 0.627 -0.703 0.335 70 61 62
-1453.0352 5623.3979 151.0439 0.617 -0.747 0.248 63 53 54
-1445.8903 5628.9658 143.7147 0.597 -0.741 0.307 73 63 64
-1519.6985 6287.1509 58.1932 0.217 -0.429 -0.877 58 38 39
-1585.5114 6605.5054 42.4306 0.495 -0.470 -0.731 68 43 42
-1364.6740 5813.4814 33.0950 0.299 -0.301 0.905 68 42 41
-1321.7104 5819.0000 -4.6768 0.995 0.031 -0.095 61 33 32
-1367.0667 6291.4551 -72.5480 0.155 -0.152 -0.976 59 27 17
-1359.8286 6990.8740 -236.2662 0.315 -0.946 0.069 226 119 103
-115.1007 3960.1846 -611.8160 -0.706 -0.606 -0.366 255 147 142
-106.6450 3988.3762 -625.3562 -0.604 -0.610 -0.514 254 175 148
-5.5100 3333.0117 -563.7042 -0.083 -0.432 0.898 255 117 133
-4348.5215 5084.5181 2717.6689 0.755 -0.626 -0.194 224 226 214
-4358.1289 5147.3696 2711.5120 -0.536 -0.770 0.347 158 149 125
-3709.7241 6041.0776 1957.3342 0.875 -0.457 0.161 144 98 65
-3709.7708 6059.6523 1953.1434 0.871 -0.472 0.139 137 91 58
-3462.6819 6167.1953 1718.8218 0.976 -0.163 0.145 89 59 31
-3453.4233 6191.7212 1705.3732 0.962 -0.193 0.191 89 62 33
-3159.8115 6281.2490 1435.6478 0.343 -0.839 -0.423 66 51 32
-3174.4543 6329.9956 1436.9799 -0.061 -0.963 0.262 65 50 31
-3162.0405 6328.8989 1426.6879 -0.142 -0.730 0.668 64 50 34
-3137.3560 6304.9312 1411.1848 -0.140 -0.733 0.666 56 44 31
-2898.9165 5943.2520 1291.0800 -0.340 -0.642 -0.687 49 39 27
-2504.6062 5859.0723 975.4059 -0.181 -0.963 -0.198 16 12 11
-2507.9546 5979.2617 950.8746 0.298 -0.791 0.534 67 51 54
-2493.6514 5970.9707 940.6167 0.250 -0.967 0.058 67 51 54
-2392.6956 5955.0430 858.5131 0.408 -0.783 0.470 45 19 36
-2355.6121 5893.9824 840.9293 0.450 -0.527 -0.721 44 18 35
-2353.4072 5912.3613 834.8709 0.432 -0.372 -0.822 44 19 35
-2347.2085 5945.3540 822.0925 0.464 -0.490 -0.738 25 18 34
-2361.9053 6051.8433 810.3185 0.900 -0.424 -0.101 25 24 40
-2296.0637 6144.2998 733.3478 0.964 -0.147 -0.223 24 14 15
-2439.8909 6605.8447 750.3622 0.920 -0.274 -0.280 27 12 7
-2366.5796 6478.1904 717.1814 0.695 -0.657 -0.293 27 12 7
-1497.9095 5571.6270 185.9917 0.868 -0.311 0.386 59 50 51
-1489.6063 5573.0991 178.6053 0.580 -0.571 0.580 62 53 54
-1480.5116 5571.9126 171.1524 0.597 -0.547 0.587 62 53 54
-1478.6417 5594.9053 164.3276 0.710 -0.430 0.558 62 53 54
-1374.9764 5691.8179 54.2221 -0.361 -0.888 -0.284 61 41 42
-120.5256 3972.7852 -619.5205 -0.698 -0.613 -0.370 255 155 150
-4330.7349 4891.3013 2730.4863 0.145 -0.741 0.656 214 214 206
-4221.2129 5038.6079 2603.6765 -0.639 -0.769 0.004 133 99 82
-3980.3271 5971.0068 2184.6819 -0.104 -0.792 0.602 111 72 48
-3720.2964 6023.1729 1952.1208 0.573 -0.436 -0.694 137 91 58
-3717.0796 6036.6987 1946.2782 0.573 -0.436 -0.694 131 85 52
-3724.6216 6066.5752 1945.7963 0.495 -0.666 -0.558 127 81 48
-3718.7717 6228.1665 1903.6284 0.994 -0.058 0.089 130 83 55
-3561.5574 6193.4673 1778.2737 -0.709 -0.680 0.188 125 90 61
-2892.8479 5955.5986 1265.8639 0.080 -0.795 -0.601 48 38 26
-2987.1211 6221.3818 1284.6277 0.910 -0.373 -0.181 46 38 35
-2995.9072 6260.4414 1283.0862 0.956 -0.286 -0.065 46 38 35
-2531.0476 5986.7822 951.8163 0.312 -0.823 0.474 67 51 54
-2432.5432 5931.3159 881.0389 -0.113 -0.740 0.663 99 70 87
-2397.7251 5946.1655 848.0882 0.408 -0.783 0.470 72 39 58
-2378.5583 5926.0742 836.4575 0.244 -0.515 -0.822 72 39 58
-2354.4265 5917.8833 817.8757 0.521 -0.424 -0.740 68 41 59
-2347.7759 5926.1675 810.3274 0.504 -0.686 0.525 34 24 40
-2343.9939 5941.1274 803.6751 0.478 -0.590 0.651 26 22 37
-2317.9753 6227.1924 715.7413 0.879 -0.090 -0.469 25 13 14
-2393.1250 6493.1475 718.2452 0.520 -0.811 -0.267 27 12 7
-2385.2456 6500.9966 709.7549 0.520 -0.811 -0.267 27 12 7
-1322.8287 5631.2012 8.9147 0.358 -0.472 0.806 76 48 47
-1261.6226 5626.7349 -41.9702 0.826 -0.557 0.088 64 34 24
-1263.6586 5668.2700 -49.8066 0.698 -0.694 0.178 67 35 24
-1424.7715 6576.3779 -122.2455 0.239 -0.193 -0.952 221 184 158
-1407.1340 6669.4893 -158.6435 -0.281 -0.921 0.269 233 170 152
-1395.6953 6663.5713 -166.9830 -0.281 -0.921 0.269 246 190 172
-1383.9880 6656.3760 -175.2561 -0.259 -0.925 0.278 184 104 89
-1372.1584 6648.5078 -183.4778 -0.257 -0.923 0.286 206 108 90
-1346.8306 6668.5620 -209.5777 0.424 -0.747 0.513 222 116 100
-1325.0234 6704.7656 -236.4095 0.374 -0.563 0.737 229 123 107
-1287.8696 6671.7661 -260.3242 -0.195 -0.798 0.571 217 110 94
-1259.6434 6632.6533 -275.2592 0.560 -0.827 -0.053 227 120 104
-1248.3936 6625.9849 -283.2656 0.588 -0.788 -0.182 225 118 102
-1245.7944 6659.9209 -293.2837 0.567 -0.823 -0.025 225 118 102
-11.5440 3295.3896 -565.4610 -0.024 -0.490 0.871 243 102 117
-4294.3247 5069.3096 2642.1348 -0.511 -0.763 0.396 128 114 91
-4216.5381 5022.8677 2587.0471 -0.615 -0.782 0.107 132 99 82
-3992.8499 5973.9185 2176.2134 -0.121 -0.785 0.607 104 65 41
-3983.4749 5978.2759 2167.2573 -0.092 -0.823 0.561 116 79 53
-3723.7388 6219.6006 1891.0605 0.953 -0.252 0.170 124 77 49
-3075.3882 5927.0552 1409.9006 -0.597 -0.757 -0.266 23 13 3
-2965.4902 6011.9946 1297.0337 -0.034 -0.791 0.611 40 32 19
-2545.5652 5930.5000 960.2645 -0.262 -0.665 -0.700 51 47 46
-2436.9851 5921.2949 870.4240 -0.044 -0.748 0.663 89 57 73
-2402.5493 5890.5195 848.4145 -0.273 -0.815 0.511 81 45 63
-2395.2639 5897.2339 840.6802 -0.233 -0.887 0.400 76 39 60
-2401.5076 5934.5215 837.2914 0.416 -0.777 0.473 88 51 72
-2379.4246 5907.8628 824.7883 0.473 -0.505 -0.722 88 51 72
-2374.6165 5920.2827 817.8246 0.447 -0.382 -0.809 87 52 72
-2364.5132 5920.6704 809.1755 0.521 -0.424 -0.740 84 53 73
-2353.3130 5918.5137 800.1894 0.482 -0.690 0.539 43 33 49
-2345.3901 5923.8633 792.2325 0.405 -0.488 0.773 30 26 41
-2334.1833 5921.6260 783.2595 0.392 -0.488 0.779 19 16 33
-1446.4000 5796.8057 60.2316 0.560 -0.539 0.629 75 55 56
-1267.7286 5654.3828 -57.9819 0.697 -0.698 0.163 67 35 24
-1458.9271 6478.8755 -87.8945 0.552 -0.152 -0.820 49 19 12
-1425.3462 6666.1880 -159.9356 0.280 -0.946 0.163 197 140 120
-1380.8975 6647.8843 -193.3301 -0.257 -0.923 0.286 193 96 78
-1369.5447 6641.9907 -201.5760 -0.265 -0.925 0.272 215 112 95
-1358.5559 6637.5449 -209.8503 0.160 -0.968 0.194 235 129 113
-1356.0842 6670.1611 -219.5349 0.294 -0.788 0.541 220 113 97
-1351.4517 6693.6758 -228.9319 0.319 -0.605 0.729 230 123 107
-1336.6428 6672.4355 -236.5338 0.025 -0.585 0.811 222 115 99
-1313.4955 6657.9370 -252.7686 0.332 -0.601 0.727 206 99 83
-1303.9336 6659.5449 -261.2431 0.115 -0.839 0.531 213 103 88
-1295.9442 6668.2764 -270.0434 -0.180 -0.806 0.563 218 108 93
-1284.2430 6660.0728 -278.0465 -0.180 -0.806 0.563 225 115 100
-1258.5547 6632.5254 -293.3971 -0.095 -0.772 0.629 227 117 102
-20.4201 3319.0674 -571.1287 -0.093 -0.546 0.833 246 135 134
-15.0781 3290.3318 -568.9666 -0.015 -0.488 0.872 237 95 110
-4325.1191 5092.2666 2646.3137 -0.511 -0.761 0.400 134 120 97
-4003.2083 5973.7974 2166.5940 -0.111 -0.793 0.599 98 61 37
-3992.1296 5975.7866 2156.7524 -0.092 -0.826 0.556 111 75 50
-3742.4285 6025.6211 1933.7554 0.733 -0.448 -0.512 151 106 73
-3694.3127 6176.8872 1857.4644 0.987 -0.056 0.152 112 66 38
-3093.5222 5942.3130 1404.3022 -0.585 -0.790 -0.181 23 13 3
-3060.1877 6086.1807 1342.2582 0.940 -0.255 -0.226 32 18 2
-2988.7021 5995.9321 1303.0009 -0.336 -0.814 0.475 36 26 14
-2988.5337 6016.3418 1298.0577 -0.343 -0.857 0.384 35 25 14
-2958.5217 5981.2495 1280.9183 -0.356 -0.629 -0.692 35 27 14
-2939.8628 5967.1118 1268.4561 -0.489 -0.536 -0.689 43 35 23
-2581.8511 5899.1880 981.5142 0.007 -0.427 -0.904 14 14 10
-2589.9309 5938.2617 979.1599 0.045 -0.363 -0.931 14 14 10
-2471.1804 5931.1470 880.3572 0.321 -0.766 0.556 69 50 52
-2460.4915 5930.5264 871.4592 -0.073 -0.729 0.681 70 49 53
-2406.4495 5925.5547 826.9029 0.416 -0.777 0.473 86 47 66
-2389.5757 5910.7432 816.1096 0.471 -0.501 -0.726 84 48 66
-2374.8318 5900.6118 806.0176 0.517 -0.429 -0.741 83 48 66
-2374.6169 5923.4629 800.4610 0.521 -0.424 -0.740 81 49 67
-2346.0168 5904.9414 780.6184 0.405 -0.488 0.773 33 29 43
-2334.8027 5902.6382 771.6720 0.392 -0.488 0.779 17 14 28
-1455.1976 5768.2705 59.0315 0.577 -0.517 0.633 78 60 60
-1444.2227 5761.0845 51.4356 0.585 -0.512 0.629 79 59 60
-1419.4142 5704.6069 43.7292 -0.248 -0.956 -0.156 80 59 60
-1329.3959 5795.9321 -53.9174 0.875 -0.448 -0.184 64 35 24
-1323.1265 5805.8110 -61.5456 0.778 -0.616 -0.121 66 34 22
-1431.3031 6653.7969 -169.4727 0.507 -0.715 0.481 223 168 147
-1401.7695 6656.2402 -195.0361 0.341 -0.917 0.209 216 148 131
-1394.7802 6669.1152 -203.9783 0.320 -0.933 0.168 200 102 85
-1377.3223 6637.3027 -211.2669 -0.281 -0.925 0.255 185 80 64
-1368.8293 6643.6431 -219.9442 0.173 -0.963 0.206 226 119 105
-1365.6213 6672.9458 -229.5509 0.281 -0.786 0.551 234 125 111
-1342.3553 6658.4990 -245.8385 0.020 -0.585 0.811 204 92 79
-1327.4414 6636.5200 -253.2877 0.007 -0.586 0.810 190 77 63
-1312.8215 6615.4966 -260.7127 0.347 -0.593 0.727 185 71 57
-1271.9192 6608.4790 -293.6701 0.597 -0.798 -0.081 232 116 103
-134.1160 4045.1223 -653.4474 0.713 -0.377 0.591 255 168 145
-4407.4014 5157.8901 2683.6926 -0.483 -0.781 0.396 226 214 194
-4308.0625 5063.0864 2622.2769 -0.520 -0.766 0.377 143 131 109
-3866.8674 5994.8389 2027.9583 0.082 -0.946 0.314 147 109 82
-3677.1406 5948.8271 1878.5594 0.478 -0.607 -0.634 150 107 75
-3411.5952 6275.7983 1576.4320 0.777 -0.326 0.539 100 79 52
-3107.3655 5949.8828 1396.7997 -0.603 -0.777 -0.180 29 19 10
-3059.2910 6066.7749 1328.3881 -0.015 -0.945 0.327 29 19 8
-2600.2207 5918.6455 975.6436 0.058 -0.356 -0.933 9 14 3
-2571.9187 5925.6606 950.0585 -0.042 -0.962 -0.271 28 32 22
-2464.9268 5943.4619 855.4097 0.619 -0.661 0.425 73 50 50
-2429.9749 5912.0176 833.3467 -0.034 -0.811 0.584 74 50 50
-2442.8420 5987.1514 826.3616 0.459 -0.626 0.630 70 47 49
-2381.3333 5872.1816 801.7090 0.686 -0.531 0.497 65 42 44
-2372.6865 5875.7310 793.5582 0.686 -0.531 0.497 58 36 37
-2369.0525 5890.6577 786.9391 0.672 -0.541 0.506 52 32 34
-2359.3208 5891.7812 778.4481 0.253 -0.493 0.832 24 16 25
-2321.2480 5851.1978 755.9196 0.251 -0.499 0.829 21 15 27
-1719.9390 5558.1299 317.4219 -0.487 -0.651 -0.583 47 43 39
-1485.7937 5603.4590 108.7746 -0.250 -0.571 -0.782 61 55 59
-1416.8352 5546.3428 64.0750 0.685 -0.428 0.589 93 66 77
-1428.5808 5678.3594 42.6216 0.662 -0.496 0.563 92 72 74
-1412.2756 5651.7915 35.1573 0.525 -0.673 0.522 98 69 74
-1367.4756 5615.9390 5.8194 0.418 -0.700 0.579 80 71 67
-1360.5872 5622.3135 -1.5172 0.406 -0.722 0.560 85 65 58
-1343.9141 5787.7544 -54.9316 0.779 -0.573 -0.256 63 39 28
-1335.6705 5790.0005 -62.4319 0.839 -0.537 -0.088 82 46 29
-1473.1803 6624.0576 -144.4739 0.366 -0.925 0.103 237 196 171
-1453.0541 6623.9712 -161.4618 0.949 -0.240 0.205 226 176 154
-1447.3557 6641.7114 -170.4941 0.507 -0.715 0.481 244 199 178
-1403.0928 6666.5288 -213.7989 0.336 -0.921 0.198 211 117 101
-1390.3470 6654.9731 -221.8235 0.191 -0.909 0.370 166 66 52
-1376.8794 6640.1206 -229.6745 0.173 -0.963 0.206 149 45 35
-1368.2646 6645.9448 -238.3390 -0.078 -0.607 0.791 182 73 65
-149.6283 3976.6074 -633.7086 0.866 -0.271 0.420 246 97 109
-144.9588 3983.0522 -639.1866 0.866 -0.271 0.420 255 144 139
-134.4510 4057.1379 -665.6763 0.632 -0.493 0.598 255 172 139
47.3207 5370.1777 -1131.3894 0.859 -0.124 -0.496 255 99 123
-4332.5698 4877.8652 2670.9856 0.059 -0.875 0.481 220 216 205
-4387.4263 4947.2690 2700.6191 -0.278 -0.936 0.218 220 216 205
-4339.6929 5086.8467 2626.8066 -0.517 -0.769 0.376 160 148 126
-4116.4780 4869.4541 2490.6118 -0.515 -0.769 0.379 121 108 89
-3893.6660 5982.9761 2035.1075 0.939 -0.106 -0.328 132 96 72
-3885.5737 5989.0942 2026.8077 0.985 -0.170 0.017 135 99 73
-3878.4187 5996.5742 2018.9720 0.077 -0.950 0.302 138 101 74
-3879.4573 6015.8960 2015.2083 -0.013 -0.951 0.308 143 104 76
-3785.8315 5898.3237 1964.4202 0.062 -0.995 0.074 149 108 79
-3772.0210 5895.8550 1953.3562 0.072 -0.992 0.101 144 99 68
-3687.4180 5949.0752 1869.1643 0.634 -0.540 -0.554 149 106 74
-3654.5408 5972.0806 1835.8885 -0.438 -0.883 0.172 115 77 48
-3594.8049 5935.7295 1794.1985 -0.421 -0.895 0.148 99 65 37
-3123.6604 5961.7163 1390.2833 -0.595 -0.783 -0.182 29 19 10
-3102.0552 5943.4707 1376.4293 -0.371 -0.846 -0.383 28 18 9
-2763.4441 6193.0684 1030.6752 0.205 -0.755 0.622 12 13 4
-2708.1101 6101.4355 1005.9776 0.261 -0.732 0.629 10 13 2
-2578.6975 5988.0117 923.9871 0.131 -0.918 -0.375 46 29 22
-2559.7949 5970.2886 912.2888 -0.077 -0.640 -0.764 62 42 35
-2340.3501 5693.6284 793.5105 0.222 -0.926 -0.306 68 47 44
-2376.8088 5842.2188 788.5966 0.691 -0.537 0.483 59 39 38
-2378.3328 5868.5625 783.5557 0.682 -0.534 0.499 52 32 31
-2373.1279 5879.8750 776.4457 0.244 -0.488 0.838 46 28 28
-2358.6218 5870.1270 766.5428 0.244 -0.488 0.838 25 14 22
-2339.0061 5848.6162 755.1522 0.250 -0.495 0.832 24 14 23
-2321.6069 5831.9736 744.4634 0.251 -0.499 0.829 24 14 23
-2261.7583 6026.9194 647.1270 0.942 -0.184 0.282 42 15 8
-2254.1587 6033.4072 639.1544 0.940 -0.183 0.288 42 15 6
-1739.5841 5540.2524 323.2652 0.486 -0.773 0.408 30 25 21
-1823.3513 5806.0674 330.1282 -0.104 -0.444 0.890 43 38 34
-1513.7570 5526.3931 135.9824 0.885 -0.313 -0.343 62 50 50
-1471.7949 5648.7056 71.1879 0.867 -0.496 0.041 95 65 75
-1467.9071 5665.5259 63.8665 0.867 -0.476 0.145 97 64 75
-1462.7120 5678.0020 56.4852 0.765 -0.485 0.424 97 64 75
-1487.1490 6121.4092 -29.3829 -0.012 -0.212 -0.977 91 63 53
-1466.6450 6602.3555 -162.1997 0.951 -0.234 0.202 225 169 148
-1401.5935 6664.8896 -232.1260 0.315 -0.927 0.204 194 110 92
-147.6216 3954.5247 -639.5967 0.852 -0.278 0.443 255 150 142
-4345.4507 4905.8008 2659.0454 -0.287 -0.949 0.129 205 201 190
-4359.9722 5098.2061 2624.5999 -0.513 -0.772 0.375 183 168 147
-3892.0195 5948.3130 2023.8208 0.984 -0.166 -0.068 130 94 68
-3907.8535 5988.4409 2027.4324 0.988 -0.125 -0.086 134 98 74
-3887.4333 5976.9478 2013.0061 0.985 -0.170 0.017 131 95 69
-3881.5916 5986.2710 2005.8190 0.100 -0.952 0.291 127 92 64
-3880.8835 6003.0146 2001.1594 0.012 -0.942 0.334 127 88 60
-3844.5679 6004.0649 1970.2892 0.938 -0.129 0.322 155 109 76
-3796.8862 6006.2334 1929.5659 0.014 -0.647 0.762 152 107 76
-3708.9673 5948.1313 1869.5458 0.809 -0.404 -0.427 153 110 78
-2702.7922 6026.4160 1002.3113 -0.058 -0.869 0.492 18 15 9
-2690.5945 6023.5762 992.7173 -0.061 -0.887 0.458 14 12 4
-2650.0166 5984.1987 968.0638 -0.329 -0.839 0.433 13 12 2
-2624.1462 5974.8169 948.5309 -0.282 -0.831 0.480 14 13 3
-2606.3687 5982.2104 931.7498 -0.117 -0.886 0.450 26 24 14
-2586.6956 5985.5820 914.3466 0.290 -0.749 0.595 33 15 7
-2569.1318 5970.7822 903.1310 0.039 -0.680 -0.732 41 21 12
-2560.6201 5975.1968 894.8840 0.072 -0.666 -0.743 54 31 23
-2555.9863 5987.9443 887.8844 0.039 -0.680 -0.732 62 39 31
-2478.1472 5887.6792 846.5930 -0.531 -0.837 0.131 65 42 34
-2426.1487 5841.5522 813.9493 -0.037 -0.868 -0.496 60 41 37
-2402.2551 5902.4531 779.0285 0.055 -0.900 -0.432 45 25 24
-2394.7029 5955.2627 759.8473 -0.563 -0.749 -0.350 28 13 19
-2336.8904 5940.7061 714.6418 0.666 -0.359 0.653 28 13 20
-2331.9827 5953.1338 707.4888 0.628 -0.491 0.604 30 13 17
-2306.5945 5941.6265 688.8780 0.505 -0.553 0.663 43 16 15
-1537.2969 5577.5815 128.6709 0.921 -0.279 -0.271 62 50 50
-1537.8855 5607.9819 121.7903 0.928 -0.289 -0.237 62 50 50
-1524.1206 5591.9058 114.0871 -0.212 -0.817 -0.536 62 50 50
-1602.3687 5969.3706 88.4603 0.860 -0.508 -0.046 67 53 53
-1640.8643 6162.0220 74.1663 0.368 -0.338 -0.866 95 66 71
-1462.4990 5680.8525 40.5549 0.668 -0.521 0.531 107 66 68
-1487.9458 6026.0845 -21.7636 0.045 -0.179 -0.983 92 62 53
-1507.5626 6200.2622 -47.4904 -0.005 -0.212 -0.977 94 63 52
-1510.9979 6248.1675 -56.2186 -0.007 -0.218 -0.976 105 74 63
-1535.9337 6413.0059 -75.1952 -0.482 -0.835 -0.265 193 162 151
-1529.1819 6424.6714 -83.7178 -0.382 -0.766 -0.517 205 174 162
-1511.5710 6395.4082 -91.4636 0.815 -0.260 -0.517 217 184 164
-1510.1442 6427.2588 -100.3951 0.805 -0.269 -0.528 191 151 129
-1218.7628 6511.6382 -366.5139 0.220 -0.439 0.871 228 100 91
-1204.0668 6487.5845 -373.0667 0.251 -0.433 0.866 235 112 102
-151.8572 3948.8350 -644.0826 0.498 -0.558 0.663 255 154 146
-4417.0576 4957.9189 2690.4661 -0.331 -0.923 0.197 216 212 201
-4343.9653 4906.5386 2641.5171 -0.094 -0.982 0.164 213 209 198
-4328.9351 4903.1260 2629.6980 -0.094 -0.982 0.164 204 202 190
-4387.8110 5117.6733 2626.6799 -0.485 -0.776 0.404 198 183 162
-3894.7476 5937.5635 2010.5382 0.984 -0.166 -0.068 152 116 90
-3895.7437 5974.0537 2002.4320 0.985 -0.170 0.033 130 94 68
-3882.6660 5973.0083 1991.6769 0.984 -0.170 0.044 120 85 57
-3822.9944 6011.4116 1932.0193 0.925 -0.146 0.350 152 107 76
-3792.9521 5985.3750 1913.1060 0.024 -0.655 0.756 151 106 75
-3727.1626 5960.1001 1863.9060 0.792 -0.441 -0.422 150 107 75
-3123.7600 5755.1362 1406.0797 0.547 -0.742 -0.386 91 70 43
-3131.2954 5786.7881 1404.6658 0.512 -0.619 -0.596 87 66 39
-3147.9661 5872.6792 1397.6482 0.121 -0.966 -0.229 38 24 9
-2710.6985 6023.5747 992.4770 -0.109 -0.922 0.372 18 15 9
-2698.8938 6021.5586 983.0314 0.030 -0.999 0.015 17 11 4
-2666.7065 5999.6719 961.2947 -0.335 -0.845 0.416 17 11 3
-2649.6917 5986.6470 950.1607 -0.325 -0.847 0.420 17 11 3
-2638.0374 5984.6538 940.8364 -0.372 -0.853 0.366 31 25 17
-2622.0964 5973.6562 930.1099 -0.369 -0.852 0.371 38 29 22
-2577.2776 5968.7295 893.5796 0.127 -0.632 -0.764 75 55 46
-2565.9187 5967.0728 884.4216 0.049 -0.758 -0.650 67 44 36
-2554.1621 5964.5220 875.1476 0.037 -0.690 -0.723 60 37 29
-2546.5383 5970.8018 867.1890 -0.441 -0.876 0.196 60 37 29
-2500.2686 5893.7407 847.1195 -0.547 -0.829 0.115 59 36 28
-2441.6833 5833.7993 812.4838 -0.443 -0.869 0.222 56 36 31
-2426.6272 5845.7036 796.8882 0.006 -0.892 -0.451 55 36 32
-2409.2830 5875.3784 775.0101 0.153 -0.506 -0.849 47 28 24
-2409.3010 5898.3447 769.3956 0.160 -0.510 -0.845 41 22 18
-2414.2153 5955.7549 759.4605 -0.543 -0.733 -0.410 32 12 12
-2361.0144 5928.5850 721.3253 0.080 -0.713 0.697 30 13 15
-2333.7009 5936.5098 696.3845 0.662 -0.371 0.651 35 11 11
-2274.4758 5893.1201 657.1526 0.191 -0.644 0.740 56 17 14
-2251.1299 5885.6064 639.3369 0.507 -0.548 0.666 48 10 7
-1604.6989 5769.0156 123.6173 0.484 -0.207 -0.850 62 50 50
-1610.3821 5846.5361 109.4002 0.467 -0.221 -0.856 62 50 50
-1613.2953 5916.5063 94.7013 0.877 -0.478 0.043 66 54 48
-1625.0588 5985.9766 87.5772 0.780 -0.345 -0.522 68 53 48
-1625.3762 6018.2349 79.9370 0.783 -0.352 -0.512 72 51 48
-1531.9891 6293.9453 -66.2803 -0.007 -0.218 -0.976 97 60 52
-1542.3182 6441.0884 -93.6521 -0.457 -0.809 -0.369 250 216 205
-1417.4921 6656.7358 -251.6181 -0.104 -0.769 0.631 123 33 15
-1404.0408 6642.3306 -259.4131 -0.072 -0.601 0.796 174 76 61
-1222.9667 6491.2056 -374.8335 0.223 -0.441 0.869 226 91 84
-1208.5153 6468.3472 -381.3984 0.251 -0.433 0.866 238 107 99
-162.1572 3956.4709 -646.7053 -0.336 -0.726 -0.600 252 115 124
-4396.2935 4926.3477 2664.5286 0.045 -0.941 0.336 225 221 210
-4374.7690 4916.3179 2648.9104 0.095 -0.923 0.372 220 216 205
-4380.3838 4959.2627 2642.9988 -0.529 -0.838 0.135 218 216 204
-4507.4512 5222.6724 2684.6389 -0.316 -0.889 -0.332 248 235 216
-3921.0217 5908.0439 2021.7603 0.129 -0.839 0.529 105 74 49
-3908.3164 5907.4761 2011.2159 0.102 -0.830 0.548 115 81 54
-3897.4670 5926.8462 1997.2958 0.984 -0.166 -0.068 130 94 68
-3899.3574 5946.9595 1993.9055 0.985 -0.168 -0.044 127 91 67
-3883.4004 5941.7808 1981.7681 0.987 -0.157 0.040 122 86 60
-3880.9431 5955.8110 1976.2275 0.987 -0.157 0.040 113 78 50
-3517.3840 6182.4893 1614.3542 -0.366 -0.847 0.385 89 62 33
-3361.6772 6063.0068 1512.9924 -0.323 -0.684 0.654 95 70 43
-3436.2161 6227.8384 1534.8650 0.221 -0.383 -0.897 87 66 39
-3085.3184 5767.6499 1353.7115 0.208 -0.914 0.348 37 25 13
-2687.3267 5935.3286 977.4897 -0.064 -0.870 0.489 22 19 14
-2667.9436 5983.2085 949.3336 -0.030 -0.872 0.488 59 46 41
-2654.2986 5977.1494 939.3586 -0.030 -0.872 0.488 67 52 47
-2640.7000 5971.1108 929.4177 -0.030 -0.872 0.488 66 51 46
-2588.2273 5972.6118 884.9177 0.046 -0.725 -0.687 98 75 67
-2578.0044 5973.4087 876.1230 0.049 -0.758 -0.650 96 73 65
-2566.9048 5972.3135 867.0596 0.037 -0.690 -0.723 97 74 66
-2556.3433 5972.3325 858.1729 -0.444 -0.878 0.180 87 64 56
-2509.1028 5938.5073 826.8199 -0.296 -0.952 0.078 49 28 20
-2451.7839 5836.5513 803.8605 -0.125 -0.952 -0.279 48 28 23
-2437.1521 5826.9878 793.9233 -0.170 -0.944 -0.281 48 29 25
-2432.4463 5839.0874 786.9700 -0.073 -0.952 -0.296 50 31 27
-2446.6853 5892.9702 785.6030 -0.484 -0.865 -0.134 51 32 28
-2422.2966 5884.6094 767.1629 0.153 -0.506 -0.849 34 15 11
-2425.6521 5984.7461 745.1904 -0.533 -0.752 -0.388 30 5 2
-2372.9001 5935.4629 713.0297 -0.272 -0.934 -0.232 34 12 8
-2374.7283 5963.2295 707.6919 0.240 -0.628 0.741 38 17 12
-2343.3342 5914.6748 693.3125 0.583 -0.473 0.660 48 22 19
-2270.7781 5840.2393 650.7249 0.187 -0.600 0.778 74 14 10
-2209.1982 5718.9834 628.9609 0.704 -0.632 -0.325 75 13 10
-2214.6907 6749.0034 378.5412 -0.425 -0.827 0.368 29 24 20
-1601.3627 5456.0459 182.8874 0.679 -0.240 -0.693 50 42 40
-1596.7281 5522.1470 162.6228 0.493 -0.262 -0.830 61 53 51
-1595.6940 5546.1509 155.8095 0.486 -0.265 -0.833 61 53 51
-1584.8153 5567.2549 141.4353 0.231 -0.580 -0.781 57 45 45
-1594.2266 5709.9414 114.0201 0.438 -0.213 -0.873 56 44 44
-1600.8716 5849.1963 85.1281 0.528 -0.170 -0.832 70 53 43
-1651.8490 6046.6299 79.1134 0.101 -0.808 -0.581 76 56 45
-1648.5378 6067.1230 71.2546 0.047 -0.744 -0.666 85 59 50
-1642.8647 6079.9688 63.3029 0.412 -0.428 -0.804 93 60 53
